# .PCD v0.7 - Point Cloud Data file format
VERSION 0.7
FIELDS x y z intensity
SIZE 4 4 4 4
TYPE F F F F
COUNT 1 1 1 1
WIDTH 1369
HEIGHT 1
VIEWPOINT 0 0 0 1 0 0 0
POINTS 1369
DATA ascii
-8.4829998 17.237 -2.392 0.19
-8.5319996 17.201 -2.3900001 0.34
-8.5780001 17.157 -2.388 0.18000001
-8.6120005 17.159 -2.3900001 0.34999999
-8.6610003 17.121 -2.388 0.19
-8.71 17.084999 -2.3870001 0.36000001
-8.7589998 17.049 -2.3859999 0.19
-8.8039999 17.004 -2.3829999 0.36000001
-8.8620005 16.985001 -2.3840001 0.2
-8.9069996 16.941 -2.382 0.23
-8.9300003 16.922001 -2.381 0.20999999
-8.9840002 16.895 -2.381 0.22
-9.0369997 16.865 -2.381 0.2
-9.0810003 16.820999 -2.3789999 0.22
-9.1330004 16.791 -2.378 0.2
-9.1859999 16.761999 -2.378 0.20999999
-9.2329998 16.725 -2.3770001 0.19
-9.2589998 16.708 -2.3770001 0.20999999
-9.3059998 16.67 -2.3759999 0.19
-9.3629999 16.65 -2.3770001 0.20999999
-9.4060001 16.603001 -2.3740001 0.19
-9.4569998 16.572001 -2.3740001 0.20999999
-9.5089998 16.542 -2.3740001 0.18000001
-9.54 16.476 -2.368 0.13
-9.5950003 16.451 -2.369 0.18000001
-9.6230001 16.438999 -2.3699999 0.31
-9.6619997 16.389 -2.3659999 0.19
-9.7019997 16.339001 -2.3629999 0.18000001
-9.7639999 16.326 -2.3659999 0.30000001
-9.8059998 16.280001 -2.3640001 0.2
-9.8520002 16.24 -2.362 0.18000001
-9.9060001 16.215 -2.3629999 0.20999999
-9.9250002 16.188999 -2.362 0.2
-9.9700003 16.146999 -2.3599999 0.20999999
-10.014 16.106001 -2.358 0.19
-10.057 16.063 -2.3570001 0.20999999
-10.111 16.035999 -2.3570001 0.18000001
-10.144 15.977 -2.3529999 0.33000001
-10.188 15.935 -2.3510001 0.16
-10.201 15.901 -2.349 0.34999999
-10.253 15.872 -2.349 0.19
-10.293 15.825 -2.3469999 0.34999999
-10.344 15.794 -2.3469999 0.19
-10.4 15.772 -2.349 0.31999999
-10.445 15.732 -2.3469999 0.2
-10.488 15.69 -2.346 0.18000001
-10.512 15.671 -2.346 0
-10.551 15.624 -2.3429999 0
-10.537 15.499 -2.3280001 0
-10.562 15.431 -2.323 0
-10.601 15.383 -2.3199999 0.12
-10.657 15.361 -2.322 0.1
-10.71 15.334 -2.323 0.17
-10.772 15.321 -2.3269999 0.20999999
-10.8 15.309 -2.3269999 0.20999999
-10.84 15.264 -2.326 0.20999999
-10.886 15.227 -2.325 0.2
-10.929 15.186 -2.3239999 0.20999999
-10.973 15.147 -2.323 0.2
-11.011 15.099 -2.3210001 0.20999999
-11.049 15.052 -2.319 0.2
-11.074 15.036 -2.319 0.20999999
-11.107 14.982 -2.316 0.19
-11.154 14.947 -2.316 0.20999999
-11.204 14.917 -2.3169999 0.18000001
-11.224 14.845 -2.3110001 0.31999999
-11.265 14.804 -2.309 0.2
-11.311 14.767 -2.309 0.18000001
-11.323 14.735 -2.3069999 0.30000001
-11.361 14.688 -2.3050001 0.2
-11.404 14.649 -2.3039999 0.18000001
-11.442 14.602 -2.303 0.20999999
-11.469 14.543 -2.299 0.19
-11.517 14.51 -2.299 0.20999999
-11.554 14.463 -2.2969999 0.19
-11.572 14.439 -2.296 0.22
-11.603 14.385 -2.293 0.2
-11.647 14.347 -2.293 0.22
-11.687 14.304 -2.2920001 0.2
-11.733 14.269 -2.2920001 0.17
-11.762 14.212 -2.289 0.38999999
-11.799 14.166 -2.2869999 0.2
-11.844 14.131 -2.2869999 0.38
-11.851 14.094 -2.2839999 0.19
-11.886 14.046 -2.2820001 0.38
-11.915 13.99 -2.279 0.23
-11.951 13.944 -2.277 0.2
-11.982 13.891 -2.2750001 0.38
-12.019 13.846 -2.273 0.23
-12.06 13.805 -2.273 0.2
-12.063 13.766 -2.2690001 0.38
-12.106 13.728 -2.2690001 0.19
-12.131 13.669 -2.2650001 0.36000001
-12.173 13.629 -2.2650001 0.2
-12.205 13.579 -2.263 0.23999999
-12.231 13.523 -2.26 0.20999999
-12.268 13.479 -2.2590001 0.22
-12.288 13.458 -2.2579999 0.19
-12.322 13.41 -2.257 0.28
-12.356 13.363 -2.2550001 0.23999999
-12.386 13.311 -2.253 0.2
-12.421 13.265 -2.2520001 0.18000001
-12.467 13.23 -2.2520001 0.11
-12.519 13.202 -2.2539999 0.13
-11.283 11.865 -2.0090001 0.31999999
-11.332 11.842 -2.0109999 0.23
-11.413 11.852 -2.02 0.27000001
-11.446 11.812 -2.0190001 0.18000001
-11.467 11.759 -2.016 0.28
-11.504 11.723 -2.016 0.44999999
-11.541 11.687 -2.016 0.31
-11.602 11.712 -2.0239999 0.46000001
-11.677 11.713 -2.0309999 0.37
-11.76 11.723 -2.04 0.31999999
-11.84 11.729 -2.0480001 0.28999999
-11.913 11.726 -2.0550001 0.22
-11.885 11.627 -2.043 0.16
-11.926 11.593 -2.0439999 0
-12.013 11.604 -2.053 0
-11.21 10.797 -1.9 0.11
-11.281 10.797 -1.9069999 0.23
-11.342 10.788 -1.9119999 0.15000001
-11.421 10.794 -1.92 0.38999999
-11.488 10.789 -1.926 0.25
-11.563 10.791 -1.934 0.2
-11.637 10.792 -1.941 0.41
-11.696 10.813 -1.949 0.23999999
-11.773 10.815 -1.957 0.19
-11.855 10.822 -1.966 0.41999999
-11.926 10.818 -1.972 0.25
-12.01 10.826 -1.9809999 0.25
-12.079 10.819 -1.988 0.2
-12.156 10.82 -1.995 0.41
-12.209 10.832 -2.0020001 0.23999999
-12.28 10.826 -2.0090001 0.20999999
-12.323 10.796 -2.01 0.37
-12.43 10.82 -2.023 0.23
-12.503 10.815 -2.03 0.19
-12.582 10.814 -2.0380001 0.41
-12.664 10.816 -2.0469999 0.22
-12.71 10.82 -2.052 0.23999999
-12.78 10.811 -2.0580001 0.2
-12.841 10.794 -2.063 0.30000001
-12.874 10.752 -2.063 0.16
-12.904 10.709 -2.062 0.25999999
-13.01 10.728 -2.075 0.20999999
-13.173 10.792 -2.0969999 0.27000001
-13.24 10.778 -2.1029999 0.27000001
-13.306 10.797 -2.112 0.20999999
-13.299 10.722 -2.105 0.34999999
-13.348 10.692 -2.1070001 0.16
-13.417 10.679 -2.1129999 0.38999999
-13.433 10.623 -2.1099999 0.19
-13.46 10.576 -2.109 0.38
-13.487 10.529 -2.108 0.23999999
-13.493 10.499 -2.1059999 0.20999999
-13.504 10.439 -2.1029999 0.36000001
-13.562 10.416 -2.1070001 0
-12.182 9.3000002 -1.868 0.1
-12.248 9.2889996 -1.874 0.14
-12.328 9.2880001 -1.882 0.36000001
-12.405 9.2849998 -1.89 0.25
-12.48 9.3109999 -1.901 0.25
-12.537 9.2919998 -1.905 0.18000001
-12.637 9.3050003 -1.9170001 0.41999999
-12.729 9.3100004 -1.928 0.25
-12.82 9.316 -1.938 0.2
-12.904 9.3149996 -1.947 0.41
-12.983 9.3100004 -1.955 0.22
-13.066 9.3380003 -1.967 0.18000001
-13.137 9.3260002 -1.974 0.38999999
-13.222 9.3240004 -1.983 0.2
-13.303 9.3190002 -1.9910001 0.34999999
-13.295 9.2510004 -1.985 0.27000001
-12.579 8.6960001 -1.863 0.23999999
-12.589 8.6440001 -1.86 0.19
-12.614 8.6040001 -1.86 0.34
-12.627 8.5839996 -1.86 0.18000001
-12.648 8.54 -1.859 0.34999999
-12.66 8.4899998 -1.857 0.2
-12.686 8.4499998 -1.857 0.23
-12.696 8.3990002 -1.854 0.20999999
-12.721 8.3579998 -1.854 0.23999999
-12.757 8.3249998 -1.855 0.25
-12.818 8.3360004 -1.863 0.31999999
-12.9 8.3310003 -1.872 0.28999999
-12.979 8.3249998 -1.88 0.31
-13.062 8.3199997 -1.8890001 0.28999999
-13.149 8.3170004 -1.899 0.36000001
-13.23 8.3100004 -1.908 0.28999999
-13.327 8.3129997 -1.919 0.36000001
-13.402 8.3299999 -1.929 0.31
-13.497 8.3310003 -1.9400001 0.34999999
-13.591 8.3299999 -1.951 0.33000001
-13.682 8.3260002 -1.961 0.38
-13.767 8.3190002 -1.97 0.30000001
-13.863 8.3170004 -1.9809999 0
-12.972 7.7290001 -1.837 0.1
-13.059 7.7529998 -1.849 0.17
-13.15 7.7509999 -1.859 0.20999999
-13.226 7.7399998 -1.867 0.18000001
-13.339 7.75 -1.881 0.38999999
-13.444 7.7540002 -1.8940001 0.23
-13.546 7.756 -1.906 0.2
-13.655 7.7620001 -1.919 0.38
-13.74 7.7810001 -1.9299999 0.2
-13.819 7.7690001 -1.939 0.37
-13.929 7.7729998 -1.952 0.19
-14.028 7.77 -1.9630001 0.36000001
-14.106 7.7550001 -1.972 0.19
-14.123 7.7069998 -1.971 0.34
-14.208 7.6960001 -1.98 0.2
-14.372 7.7259998 -2.0009999 0.31
-14.44 7.7329998 -2.01 0.19
-14.554 7.7350001 -2.0239999 0.28999999
-14.559 7.6789999 -2.0209999 0.28
-14.669 7.678 -2.0339999 0.27000001
-14.665 7.618 -2.029 0.25999999
-14.699 7.5770001 -2.0309999 0.25
-14.709 7.5240002 -2.029 0.50999999
-14.689 7.4840002 -2.0239999 0.23999999
-14.728 7.4460001 -2.026 0.2
-14.775 7.4109998 -2.03 0.41
-14.814 7.3730001 -2.0320001 0.22
-14.812 7.3140001 -2.029 0.33000001
-14.871 7.2849998 -2.0339999 0.25999999
-14.927 7.2550001 -2.039 0.28
-14.905 7.2150002 -2.0339999 0.25999999
-14.861 7.1360002 -2.0239999 0.25999999
-14.889 7.092 -2.0250001 0.33000001
-14.942 7.0599999 -2.029 0.20999999
-14.921 6.9920001 -2.023 0.51999998
-15.113 7.0250001 -2.0480001 0.11
-13.511 6.2309999 -1.807 0.18000001
-13.605 6.2490001 -1.8200001 0.23
-13.704 6.2420001 -1.832 0.18000001
-13.841 6.2519999 -1.849 0.43000001
-13.969 6.257 -1.865 0.25
-14.098 6.2610002 -1.881 0.2
-14.212 6.2579999 -1.895 0.38999999
-14.32 6.2519999 -1.908 0.23
-14.437 6.276 -1.924 0.18000001
-14.552 6.2709999 -1.938 0.38999999
-14.65 6.2589998 -1.949 0.23
-14.711 6.23 -1.955 0.16
-14.729 6.1830001 -1.955 0.44
-14.763 6.1430001 -1.957 0.23999999
-15.034 6.1999998 -1.994 0.18000001
-14.997 6.1570001 -1.987 0.36000001
-15.138 6.1589999 -2.0050001 0.28
-15.155 6.1110001 -2.0050001 0.31
-15.101 6.0339999 -1.994 0.23999999
-15.252 6.039 -2.013 0.28999999
-15.275 5.9920001 -2.0139999 0.34
-15.273 5.9369998 -2.0109999 0.28999999
-15.272 5.908 -2.0090001 0.23
-15.22 5.8330002 -1.999 0.54000002
-15.284 5.803 -2.006 0.25
-14.163 5.329 -1.842 0.23999999
-14.211 5.296 -1.846 0.30000001
-14.229 5.2519999 -1.846 0.28
-14.272 5.2160001 -1.85 0.31
-14.385 5.2069998 -1.864 0.31999999
-14.496 5.2210002 -1.8789999 0.31
-14.624 5.2150002 -1.895 0.34
-14.766 5.2129998 -1.913 0.31999999
-14.884 5.2020001 -1.927 0.31999999
-15.031 5.1999998 -1.946 0.31999999
-15.16 5.191 -1.962 0.33000001
-15.294 5.1830001 -1.979 0.27000001
-15.427 5.2010002 -1.9960001 0.25
-15.522 5.1789999 -2.0079999 0.19
-15.566 5.1389999 -2.0120001 0.16
-15.614 5.1009998 -2.016 0.52999997
-15.664 5.0619998 -2.0209999 0.40000001
-15.654 5.0050001 -2.017 0.46000001
-15.76 4.9840002 -2.03 0.56999999
-15.687 4.934 -2.0179999 0.28
-15.687 4.8800001 -2.016 0.25999999
-15.694 4.8280001 -2.0150001 0.20999999
-15.725 4.7839999 -2.017 0.41
-15.734 4.7319999 -2.017 0.25
-15.749 4.6830001 -2.017 0.2
-15.775 4.6370001 -2.0179999 0.41999999
-15.771 4.6090002 -2.017 0.23
-15.781 4.5580001 -2.016 0.19
-15.813 4.513 -2.0179999 0.38999999
-15.815 4.46 -2.017 0.2
-15.835 4.4120002 -2.0179999 0.23999999
-15.845 4.3610001 -2.017 0.2
-15.859 4.3119998 -2.017 0.22
-15.865 4.2870002 -2.017 0.20999999
-15.873 4.2350001 -2.016 0.22
-15.886 4.1849999 -2.016 0.2
-15.897 4.1350002 -2.016 0.20999999
-15.908 4.085 -2.016 0.2
-15.917 4.0339999 -2.0150001 0.20999999
-15.932 3.984 -2.016 0.18000001
-15.944 3.96 -2.016 0.34
-15.923 3.902 -2.0120001 0.18000001
-15.951 3.8559999 -2.0139999 0.34999999
-15.969 3.8069999 -2.0150001 0.18000001
-15.965 3.7539999 -2.013 0.34999999
-15.971 3.7019999 -2.0120001 0.19
-15.987 3.6530001 -2.0120001 0.38
-15.988 3.6270001 -2.0120001 0.22
-15.988 3.5739999 -2.01 0.19
-16.014999 3.527 -2.0120001 0.38999999
-16.02 3.4749999 -2.0120001 0.23
-16.025 3.424 -2.0109999 0.2
-16.042999 3.375 -2.0120001 0.41
-16.035999 3.3210001 -2.0090001 0.23999999
-16.042999 3.27 -2.0090001 0.19
-16.062 3.247 -2.0109999 0.40000001
-16.049999 3.1930001 -2.0079999 0.23
-16.055 3.141 -2.007 0.2
-16.087999 3.095 -2.01 0.40000001
-16.093 3.0439999 -2.01 0.23
-16.099001 2.993 -2.0090001 0.2
-16.112 2.9430001 -2.01 0.38
-16.117001 2.9170001 -2.01 0.20999999
-16.120001 2.8659999 -2.0090001 0.23
-16.131001 2.8150001 -2.0090001 0.2
-16.138 2.7639999 -2.0090001 0.20999999
-16.136999 2.7119999 -2.0079999 0.2
-16.141001 2.661 -2.007 0.22
-16.145 2.609 -2.006 0.18000001
-16.150999 2.5840001 -2.007 0.34
-16.171 2.5350001 -2.0079999 0.19
-16.16 2.4820001 -2.006 0.33000001
-16.171 2.431 -2.006 0.19
-16.183001 2.381 -2.007 0.34
-16.190001 2.3299999 -2.007 0.18000001
-16.191 2.279 -2.006 0.36000001
-16.198999 2.2539999 -2.006 0.19
-16.195999 2.201 -2.0050001 0.37
-16.211 2.152 -2.006 0.23
-16.216 2.0999999 -2.006 0.18000001
-16.224001 2.05 -2.006 0.38999999
-16.224001 1.998 -2.0050001 0.23
-16.235001 1.948 -2.006 0.19
-16.239 1.896 -2.006 0.38999999
-16.243999 1.8710001 -2.006 0.23999999
-16.271 1.822 -2.0090001 0.23
-16.249001 1.768 -2.0050001 0.16
-16.247 1.716 -2.0039999 0.31
-16.297001 1.67 -2.01 0.25999999
-16.267 1.615 -2.0050001 0.63
-16.221001 1.559 -1.998 0.18000001
-16.32 1.543 -2.0120001 0.16
-16.297001 1.489 -2.0079999 0.25999999
-16.298 1.437 -2.007 0.25999999
-16.313999 1.387 -2.0090001 0.25999999
-16.309999 1.335 -2.0079999 0.2
-16.323999 1.285 -2.0090001 0.40000001
-16.346001 1.235 -2.0120001 0.23
-16.332001 1.2079999 -2.0090001 0.19
-16.351999 1.158 -2.0120001 0.38999999
-16.361 1.107 -2.0120001 0.22
-16.351 1.0549999 -2.01 0.2
-16.370001 1.0039999 -2.013 0.36000001
-16.408001 0.95499998 -2.017 0.19
-16.398001 0.90200001 -2.016 0.34
-16.400999 0.87699997 -2.016 0.19
-16.403999 0.82499999 -2.016 0
-16.417999 0.77399999 -2.017 0.13
-10.637 0.44400001 -1.237 0.28999999
-10.585 0.40900001 -1.23 0.41999999
-10.7 0.36199999 -1.245 0.86000001
-10.653 0.32699999 -1.238 0.70999998
-10.652 0.294 -1.238 0.20999999
-10.679 0.26100001 -1.242 0.50999999
-10.666 0.227 -1.24 0.75
-10.591 0.192 -1.23 0.47
-10.523 0.15800001 -1.22 0.41
-10.521 0.125 -1.22 0.37
-10.497 0.108 -1.217 0.36000001
-10.492 0.075000003 -1.216 0.36000001
-10.464 0.041999999 -1.212 0.36000001
-10.462 0.0089999996 -1.212 0.36000001
-10.446 -0.023 -1.21 0.34
-10.426 -0.056000002 -1.207 0.38999999
-10.428 -0.089000002 -1.207 0.34999999
-10.424 -0.105 -1.207 0.36000001
-10.41 -0.138 -1.205 0.36000001
-10.407 -0.17 -1.205 0.38
-10.401 -0.20299999 -1.204 0.36000001
-10.392 -0.235 -1.2029999 0.38
-10.403 -0.26800001 -1.204 0.36000001
-10.393 -0.301 -1.2029999 0.38999999
-10.398 -0.317 -1.204 0.36000001
-10.403 -0.34999999 -1.205 0.40000001
-10.4 -0.38299999 -1.204 0.38
-10.395 -0.41499999 -1.204 0.38
-10.397 -0.44800001 -1.204 0.37
-10.398 -0.48100001 -1.205 0.40000001
-10.396 -0.51300001 -1.205 0.34999999
-10.411 -0.53100002 -1.207 0.38999999
-10.413 -0.56400001 -1.207 0.38
-10.421 -0.597 -1.209 0.36000001
-10.425 -0.63 -1.21 0.34999999
-10.437 -0.66399997 -1.211 0.34
-10.451 -0.69700003 -1.214 0.34
-10.468 -0.73199999 -1.216 0.34999999
-10.487 -0.75 -1.219 0.34
-10.502 -0.78399998 -1.221 0.40000001
-10.48 -0.815 -1.219 0.28999999
-10.628 -0.861 -1.239 0.27000001
-10.697 -0.917 -1.249 0.30000001
-10.739 -0.95499998 -1.255 0.19
-10.695 -0.98500001 -1.249 0.61000001
-10.662 -1.016 -1.245 0.58999997
-10.609 -1.027 -1.238 0.23
-10.645 -1.0650001 -1.244 0
-10.709 -1.105 -1.253 0
-16.219999 -1.739 -2.0009999 0.11
-16.212999 -1.79 -2.0009999 0.16
-16.221001 -1.842 -2.0020001 0.41999999
-16.205 -1.892 -2.0009999 0.23999999
-16.214001 -1.919 -2.003 0.27000001
-16.209999 -1.97 -2.003 0.28999999
-16.200001 -2.02 -2.0020001 0.28
-16.221001 -2.075 -2.006 0.27000001
-16.214001 -2.1259999 -2.006 0.27000001
-16.225 -2.1789999 -2.0090001 0.27000001
-16.212 -2.2290001 -2.0079999 0.28999999
-16.188 -2.2780001 -2.0050001 0.30000001
-16.191999 -2.3039999 -2.006 0.27000001
-16.181 -2.355 -2.006 0.28999999
-16.171 -2.405 -2.006 0.30000001
-16.165001 -2.4560001 -2.006 0.28999999
-16.153999 -2.506 -2.0050001 0.30000001
-16.139999 -2.556 -2.0050001 0.28999999
-16.129999 -2.5810001 -2.0039999 0.28999999
-16.115999 -2.6300001 -2.003 0.30000001
-16.091999 -2.678 -2.0009999 0.28
-16.083 -2.7290001 -2.0009999 0.30000001
-16.066999 -2.7780001 -2 0.28
-16.041 -2.825 -1.997 0.30000001
-16.024 -2.8740001 -1.9960001 0.30000001
-16.014 -2.898 -1.995 0.28999999
-16.01 -2.95 -1.9960001 0.28999999
-16.007 -3.0009999 -1.997 0.25999999
-15.993 -3.0510001 -1.997 0.28999999
-15.989 -3.102 -1.997 0.27000001
-15.976 -3.151 -1.997 0.27000001
-15.966 -3.2019999 -1.997 0.28
-15.94 -3.2490001 -1.995 0.28
-15.931 -3.273 -1.994 0.28
-15.907 -3.3199999 -1.992 0.28
-15.897 -3.3699999 -1.992 0.28
-15.884 -3.4189999 -1.992 0.28999999
-15.864 -3.467 -1.9910001 0.28
-15.858 -3.5179999 -1.9910001 0.28
-15.845 -3.5680001 -1.9910001 0.28
-15.832 -3.5910001 -1.99 0.28
-15.834 -3.6440001 -1.992 0.28999999
-15.817 -3.6919999 -1.9910001 0.28999999
-15.803 -3.7409999 -1.9910001 0.28
-15.799 -3.793 -1.992 0.28999999
-15.777 -3.8399999 -1.9910001 0.30000001
-15.773 -3.891 -1.992 0.28
-15.761 -3.915 -1.9910001 0.28
-15.754 -3.9660001 -1.992 0.28999999
-15.753 -4.0180001 -1.993 0.28
-15.737 -4.0669999 -1.993 0.28
-15.724 -4.1160002 -1.993 0.28999999
-15.705 -4.164 -1.992 0.27000001
-15.65 -4.2020001 -1.9859999 0.22
-15.559 -4.2030001 -1.974 0.25999999
-15.527 -4.2470002 -1.972 0.25
-15.416 -4.2690001 -1.9579999 0.66000003
-15.433 -4.3260002 -1.962 0.44
-15.202 -4.3119998 -1.932 0.30000001
-14.947 -4.29 -1.898 0.23
-14.781 -4.2930002 -1.877 0.34999999
-14.67 -4.2849998 -1.862 0.28999999
-14.457 -4.2719998 -1.834 0.30000001
-14.303 -4.2750001 -1.814 0.38
-14.073 -4.2540002 -1.784 0.25
-14.069 -4.3010001 -1.785 0.37
-13.794 -4.2639999 -1.748 0.33000001
-13.575 -4.243 -1.719 0.33000001
-13.495 -4.2639999 -1.71 0.36000001
-13.377 -4.25 -1.694 0.31999999
-13.398 -4.303 -1.699 0.28999999
-13.101 -4.2519999 -1.659 0.46000001
-13.182 -4.3249998 -1.6720001 0.28999999
-12.334 -4.0879998 -1.553 0.25
-12.377 -4.145 -1.561 0.30000001
-12.392 -4.1939998 -1.5650001 0.2
-12.348 -4.1999998 -1.5599999 0.54000002
-14.157 -4.8699999 -1.8200001 0.23999999
-14.136 -4.9120002 -1.819 0.31999999
-14.117 -4.9549999 -1.819 0.34
-14.062 -4.9850001 -1.813 0.25
-14.039 -5.027 -1.812 0.36000001
-12.207 -4.4109998 -1.551 0.20999999
-13.98 -5.0799999 -1.807 0.33000001
-13.955 -5.1209998 -1.8049999 0.31999999
-13.903 -5.151 -1.8 0.28999999
-13.88 -5.1919999 -1.799 0.33000001
-13.837 -5.2259998 -1.796 0.33000001
-13.813 -5.2659998 -1.795 0.28999999
-13.773 -5.3000002 -1.791 0.31
-13.738 -5.3119998 -1.7869999 0.31
-13.709 -5.3499999 -1.785 0.31
-13.666 -5.3829999 -1.7819999 0.31999999
-13.629 -5.4180002 -1.779 0.31999999
-13.597 -5.4549999 -1.777 0.31
-13.578 -5.4970002 -1.776 0.31
-13.55 -5.5349998 -1.775 0.34999999
-13.519 -5.5469999 -1.772 0.30000001
-13.474 -5.5780001 -1.768 0.31
-13.436 -5.612 -1.765 0.30000001
-13.4 -5.6459999 -1.762 0.30000001
-13.363 -5.6799998 -1.7589999 0.20999999
-10.616 -4.546 -1.358 0.22
-10.593 -4.5749998 -1.357 0.60000002
-13.27 -5.7639999 -1.752 0.28999999
-13.234 -5.7979999 -1.749 0.31999999
-13.198 -5.8309999 -1.747 0.33000001
-13.154 -5.8610001 -1.743 0.31999999
-13.119 -5.895 -1.7410001 0.30000001
-13.095 -5.934 -1.74 0.33000001
-13.053 -5.9640002 -1.7359999 0.30000001
-13.004 -5.9910002 -1.732 0.31999999
-12.985 -6.007 -1.73 0.31
-12.954 -6.0419998 -1.729 0.31
-12.915 -6.0739999 -1.726 0.31999999
-12.876 -6.105 -1.723 0.28
-12.878 -6.1550002 -1.726 0.20999999
-12.834 -6.184 -1.722 0.55000001
-12.772 -6.2030001 -1.716 0.77999997
-12.732 -6.2080002 -1.711 0.75
-12.677 -6.2309999 -1.706 0.55000001
-12.629 -6.256 -1.702 0.54000002
-12.616 -6.3000002 -1.7029999 0.31999999
-12.584 -6.3330002 -1.701 0.31999999
-12.548 -6.3639998 -1.698 0.31
-12.507 -6.3930001 -1.6950001 0.30000001
-12.477 -6.4029999 -1.692 0.31
-12.455 -6.441 -1.692 0.33000001
-12.417 -6.4710002 -1.689 0.31999999
-12.374 -6.4980001 -1.686 0.34
-12.338 -6.5279999 -1.683 0.33000001
-12.302 -6.5580001 -1.681 0.31999999
-12.265 -6.5890002 -1.679 0.31999999
-12.231 -6.5949998 -1.675 0.31
-12.213 -6.6350002 -1.675 0.31999999
-12.172 -6.6620002 -1.6720001 0.31
-12.14 -6.6939998 -1.671 0.31999999
-12.097 -6.7199998 -1.6670001 0.31999999
-12.065 -6.7519999 -1.665 0.33000001
-12.03 -6.7820001 -1.663 0.33000001
-11.999 -6.789 -1.66 0.34
-11.967 -6.8210001 -1.659 0.31999999
-11.935 -6.8530002 -1.6569999 0.33000001
-11.896 -6.8800001 -1.654 0.31999999
-11.859 -6.908 -1.652 0.31999999
-11.824 -6.9380002 -1.65 0.34
-11.794 -6.9699998 -1.648 0.34
-11.748 -6.9920001 -1.645 0.31
-11.735 -7.0100002 -1.6440001 0.38
-11.693 -7.0339999 -1.641 0.30000001
-11.659 -7.0640001 -1.6390001 0.36000001
-11.63 -7.0960002 -1.638 0.34999999
-11.587 -7.1199999 -1.635 0.34999999
-11.563 -7.1560001 -1.635 0.34
-11.513 -7.1750002 -1.63 0.33000001
-11.48 -7.1789999 -1.627 0.30000001
-11.459 -7.217 -1.627 0.36000001
-11.417 -7.2399998 -1.624 0.30000001
-11.392 -7.2740002 -1.624 0.37
-11.353 -7.2989998 -1.6210001 0.30000001
-11.323 -7.3309999 -1.62 0.31999999
-11.292 -7.3610001 -1.619 0.36000001
-11.267 -7.3699999 -1.617 0.28
-11.249 -7.4089999 -1.617 0.37
-11.215 -7.4369998 -1.6160001 0.31
-11.184 -7.467 -1.614 0.28
-11.145 -7.4920001 -1.612 0.28999999
-11.11 -7.5190001 -1.61 0.34
-11.054 -7.5320001 -1.605 0.33000001
-11.044 -7.5500002 -1.605 0.36000001
-10.986 -7.5609999 -1.599 0.40000001
-10.941 -7.5809999 -1.596 0.34
-10.879 -7.5890002 -1.59 0.33000001
-10.835 -7.6079998 -1.586 0.36000001
-10.796 -7.632 -1.584 0.34
-10.704 -7.618 -1.573 0.41
-10.673 -7.6209998 -1.5700001 0.31999999
-10.618 -7.632 -1.564 0.44
-10.583 -7.6570001 -1.563 0.41999999
-10.532 -7.6700001 -1.558 0.36000001
-10.487 -7.6880002 -1.5549999 0.41999999
-10.456 -7.7160001 -1.553 0.38999999
-10.44 -7.7550001 -1.5549999 0.36000001
-10.407 -7.756 -1.551 0.31
-10.348 -7.763 -1.545 0.31999999
-10.294 -7.7719998 -1.54 0.44999999
-10.244 -7.7849998 -1.536 0.34999999
-10.218 -7.816 -1.536 0.43000001
-10.195 -7.8499999 -1.536 0.34999999
-10.15 -7.8660002 -1.533 0.38
-10.14 -7.8839998 -1.533 0.40000001
-10.105 -7.9070001 -1.531 0.41
-10.08 -7.9390001 -1.531 0.40000001
-10.028 -7.9499998 -1.527 0.41
-9.9790001 -7.961 -1.522 0.34
-9.9379997 -7.98 -1.52 0.50999999
-9.9069996 -8.0059996 -1.5190001 0.31999999
-9.8900003 -8.0179996 -1.518 0.43000001
-9.868 -8.052 -1.518 0.40000001
-9.8330002 -8.0749998 -1.517 0.41
-9.7690001 -8.0740004 -1.51 0.38
-9.7410002 -8.1020002 -1.51 0.38
-9.7340002 -8.1479998 -1.513 0.38
-9.6479998 -8.1280003 -1.502 0.44999999
-9.6110001 -8.1490002 -1.5 0.36000001
-9.5790005 -8.1470003 -1.497 0.38999999
-9.5640001 -8.1859999 -1.499 0.38999999
-9.5290003 -8.2089996 -1.497 0.33000001
-9.4700003 -8.21 -1.4910001 0.44
-9.4510002 -8.2449999 -1.492 0.38999999
-9.4160004 -8.2670002 -1.4910001 0.41
-9.3319998 -8.2449999 -1.48 0.41
-9.3290005 -8.2690001 -1.482 0.38
-9.3450003 -8.335 -1.49 0.38999999
-9.3330002 -8.3780003 -1.492 0.38
-9.2740002 -8.3769999 -1.4859999 0.33000001
-9.2250004 -8.3850002 -1.482 0.44999999
-9.2110004 -8.4259996 -1.485 0.33000001
-9.1689997 -8.4399996 -1.482 0.49000001
-9.1949997 -8.4910002 -1.489 0.27000001
-9.1619997 -8.5150003 -1.488 0.51999998
-9.1300001 -8.5380001 -1.487 0.31
-9.2340002 -8.6899996 -1.511 0.46000001
-9.1660004 -8.6809998 -1.5039999 0.38
-9.0270004 -8.6029997 -1.483 0.33000001
-8.8280001 -8.4650002 -1.45 0.34
-8.71 -8.3780003 -1.431 0.46000001
-8.651 -8.3739996 -1.425 0.36000001
-8.6940002 -8.4689999 -1.438 0.38999999
-8.6409998 -8.4700003 -1.433 0.50999999
-8.6149998 -8.4980001 -1.433 0.28
-8.5699997 -8.507 -1.429 0.50999999
-8.5830002 -8.573 -1.437 0.31
-8.533 -8.5500002 -1.4299999 0.47999999
-8.5010004 -8.5710001 -1.429 0.23
-8.4359999 -8.5600004 -1.4220001 0.54000002
-8.3950005 -8.5719995 -1.419 0.33000001
-8.3640003 -8.5939999 -1.418 0.52999997
-8.4069996 -8.6929998 -1.432 0.30000001
-8.3879995 -8.7279997 -1.433 0.54000002
-8.3739996 -8.7410002 -1.433 0.41
-8.4750004 -8.9029999 -1.459 0.37
-8.4580002 -8.941 -1.461 0.46000001
-8.5710001 -9.118 -1.489 0.31999999
-8.2749996 -8.8570004 -1.436 0.28999999
-8.5389996 -9.1990004 -1.494 0.27000001
-8.3369999 -9.0380001 -1.459 0.47
-8.4820004 -9.2250004 -1.4910001 0.16
-8.1940002 -8.967 -1.439 0.38
-8.1540003 -8.9790001 -1.437 0.41
-8.1239996 -9.0030003 -1.436 0.38
-8.0780001 -9.0080004 -1.433 0.50999999
-8.1389999 -9.1339998 -1.451 0.47
-8.2860003 -9.3590002 -1.487 0.23
-8.1049995 -9.2119999 -1.456 0.25999999
-8.1199999 -9.2589998 -1.462 0.37
-8.1120005 -9.309 -1.466 0.38
-8.0799999 -9.3310003 -1.466 0.5
-7.9970002 -9.2930002 -1.454 0.16
-7.8309999 -9.158 -1.426 0.36000001
-7.8200002 -9.2040005 -1.4299999 0.55000001
-8.0539999 -9.5100002 -1.482 0.22
-8.0209999 -9.5319996 -1.4809999 0.38999999
-7.835 -9.3699999 -1.448 0.30000001
-7.7259998 -9.2989998 -1.431 0.49000001
-7.882 -9.5480003 -1.471 0.40000001
-7.48 -9.1759996 -1.397 0.55000001
-7.6869998 -9.4619999 -1.4450001 0.25999999
-7.3629999 -9.1199999 -1.382 0.25
-7.2639999 -9.0539999 -1.3660001 0.49000001
-7.3520002 -9.2250004 -1.392 0.25
-7.013 -8.8540001 -1.324 0.34
-7 -8.8950005 -1.327 0.44999999
-7.0190001 -8.9779997 -1.3380001 0.28
-6.993 -8.9729996 -1.335 0.50999999
-7.0780001 -9.1420002 -1.36 0.31999999
-7.1300001 -9.2700005 -1.378 0.25
-6.9819999 -9.1359997 -1.352 0.31999999
-6.7399998 -8.875 -1.304 0.5
-7.243 -9.6029997 -1.423 0.28999999
-8.3620005 -11.167 -1.682 0.44
-6.8260002 -9.1680002 -1.342 0.25
-6.744 -9.0869999 -1.327 0.41999999
-6.9619999 -9.4440002 -1.383 0.41999999
-6.599 -9.0089998 -1.307 0.23
-6.5770001 -9.0380001 -1.308 0.43000001
-8.0170002 -11.101 -1.648 0.20999999
-7.0349998 -9.8000002 -1.428 0.2
-6.4169998 -8.9949999 -1.291 0.38
-6.3969998 -8.9969997 -1.29 0.47999999
-6.3470001 -8.9860001 -1.285 0.28999999
-6.3509998 -9.0509996 -1.2920001 0.37
-6.3270001 -9.0780001 -1.293 0.38999999
-6.3330002 -9.1479998 -1.301 0.34999999
-6.29 -9.1470003 -1.298 0.46000001
-6.2589998 -9.1630001 -1.2970001 0.25999999
-6.1960001 -9.1020002 -1.286 0.62
-6.1760001 -9.1330004 -1.288 0.33000001
-6.1479998 -9.1540003 -1.288 0.28999999
-6.098 -9.1420002 -1.283 0.50999999
-6.0549998 -9.1400003 -1.28 0.31
-6.0190001 -9.1470003 -1.278 0.50999999
-6.0539999 -9.2639999 -1.293 0.31999999
-6.0190001 -9.2419996 -1.288 0.54000002
-5.9819999 -9.2489996 -1.2869999 0.31999999
-5.9239998 -9.2229996 -1.279 0.44999999
-5.8920002 -9.2360001 -1.278 0.34999999
-5.8660002 -9.2600002 -1.279 0.46000001
-5.8099999 -9.2349997 -1.272 0.31999999
-5.7690001 -9.2340002 -1.2690001 0.5
-5.776 -9.2770004 -1.275 0.2
-5.7329998 -9.2729998 -1.271 0.58999997
-5.6420002 -9.1899996 -1.255 0.31999999
-5.5370002 -9.0819998 -1.235 0.23999999
-5.632 -9.3050003 -1.268 0.34
-5.658 -9.4139996 -1.2819999 0.41
-5.2360001 -8.7709999 -1.179 0.28
-5.2449999 -8.8179998 -1.1849999 0.27000001
-5.1360002 -8.6960001 -1.163 0.56
-5.2969999 -9.0360003 -1.214 0.2
-5.0409999 -8.658 -1.152 0.34999999
-5.0830002 -8.7939997 -1.171 0.31999999
-5.1459999 -8.9700003 -1.196 0.25
-5.059 -8.8830004 -1.1799999 0.30000001
-5.0700002 -8.934 -1.186 0.54000002
-5.4060001 -9.6000004 -1.2869999 0.28999999
-4.9790001 -8.9029999 -1.177 0.38
-5.277 -9.5100002 -1.268 0.30000001
-5.2600002 -9.5500002 -1.271 0.14
-4.849 -8.8660002 -1.164 0.51999998
-4.8130002 -8.8649998 -1.161 0.25999999
-4.789 -8.8540001 -1.158 0.57999998
-4.8140001 -8.9680004 -1.174 0.31999999
-4.7519999 -8.9200001 -1.164 0.38
-4.7140002 -8.9160004 -1.161 0.46000001
-4.6160002 -8.7959995 -1.141 0.28
-4.5549998 -8.7469997 -1.131 0.31999999
-4.5409999 -8.7869997 -1.135 0.34
-4.5190001 -8.7790003 -1.133 0.43000001
-4.4819999 -8.7729998 -1.13 0.44999999
-4.5419998 -8.9610004 -1.156 0.34
-4.5120001 -8.9709997 -1.155 0.5
-4.6100001 -9.2410002 -1.194 0.23
-4.4840002 -9.0579996 -1.164 0.34999999
-4.4499998 -9.0600004 -1.1619999 0.44999999
-4.4489999 -9.0950003 -1.1670001 0.40000001
-4.3909998 -9.0469999 -1.1569999 0.37
-4.3499999 -9.0360003 -1.153 0.25
-4.2969999 -8.9969997 -1.146 0.57999998
-4.2979999 -9.073 -1.155 0.46000001
-4.1789999 -8.8929996 -1.126 0.27000001
-4.026 -8.6359997 -1.086 0.33000001
-4.0240002 -8.6680002 -1.09 0.34
-3.993 -8.6709995 -1.0880001 0.34
-3.964 -8.6800003 -1.0880001 0.49000001
-3.98 -8.7880001 -1.102 0.34999999
-3.977 -8.8549995 -1.11 0.41
-3.948 -8.8660002 -1.11 0.36000001
-3.9159999 -8.8690004 -1.109 0.5
-3.9200001 -8.915 -1.114 0.34
-3.914 -8.9779997 -1.122 0.41
-3.9170001 -9.0640001 -1.133 0.33000001
-3.8870001 -9.0719995 -1.132 0.38999999
-3.915 -9.2189999 -1.152 0.33000001
-3.9100001 -9.2880001 -1.16 0.56
-3.7149999 -8.901 -1.102 0.25
-3.619 -8.7080002 -1.073 0.30000001
-3.599 -8.7370005 -1.075 0.44999999
-3.622 -8.8730001 -1.094 0.36000001
-3.6170001 -8.9420004 -1.102 0.31
-3.681 -9.1829996 -1.135 0.27000001
-3.8469999 -9.691 -1.207 0.55000001
-3.747 -9.5240002 -1.181 0.34999999
-3.335 -8.5080004 -1.033 0.31999999
-3.257 -8.3850002 -1.0140001 0.34
-3.237 -8.4119997 -1.017 0.43000001
-3.2320001 -8.4799995 -1.025 0.27000001
-3.1889999 -8.4469995 -1.0190001 0.43000001
-3.2049999 -8.5719995 -1.035 0.28
-3.155 -8.5170002 -1.026 0.40000001
-3.119 -8.5030003 -1.022 0.34999999
-3.098 -8.4870005 -1.02 0.34
-3.082 -8.5249996 -1.024 0.36000001
-3.046 -8.5089998 -1.02 0.38
-3.073 -8.6709995 -1.0420001 0.36000001
-3.026 -8.625 -1.034 0.38999999
-3.0369999 -8.7469997 -1.05 0.30000001
-3.04 -8.7980003 -1.056 0.47
-3.8080001 -11.156 -1.391 0.23
-3.7460001 -11.087 -1.3789999 0.23
-3.7320001 -11.163 -1.388 0.5
-3.6819999 -11.13 -1.382 0.28
-3.641 -11.122 -1.3789999 0.34
-3.595 -11.098 -1.374 0.43000001
-3.5710001 -11.085 -1.3710001 0.37
-3.53 -11.077 -1.369 0.46000001
-3.5 -11.103 -1.3710001 0.38
-3.464 -11.11 -1.37 0.31
-2.553 -8.257 -0.96700001 0.44999999
-2.539 -8.3050003 -0.972 0.23
-3.3710001 -11.182 -1.376 0.58999997
-3.358 -11.201 -1.378 0.31999999
-3.299 -11.133 -1.367 0.38999999
-3.2279999 -11.018 -1.349 0.38999999
-3.2160001 -11.108 -1.3609999 0.62
-3.1860001 -11.135 -1.363 0.18000001
-2.457 -8.6680002 -1.016 0.44
-3.302 -11.826 -1.457 0.16
-2.4219999 -8.7019997 -1.0190001 0.36000001
-2.414 -8.7790003 -1.029 0.58999997
-3.293 -12.163 -1.5 0.22
-2.3699999 -8.8380003 -1.035 0.27000001
-2.342 -8.8450003 -1.035 0.23
-2.9189999 -11.19 -1.3609999 0.56999999
-2.2750001 -8.816 -1.029 0.27000001
-2.256 -8.7959995 -1.026 0.38
-2.237 -8.8380003 -1.03 0.44999999
-2.625 -10.532 -1.265 0.44999999
-2.655 -10.799 -1.301 0.23999999
-2.4300001 -10.009 -1.1900001 0.46000001
-2.7049999 -11.311 -1.369 0.31999999
-2.1259999 -8.993 -1.0470001 0.40000001
-2.1070001 -9.0389996 -1.053 0.16
-2.0369999 -8.8000002 -1.0190001 0.5
-2.043 -8.9560003 -1.04 0.37
-2.0280001 -9.0220003 -1.048 0.38
-1.95 -8.8000002 -1.017 0.30000001
-1.932 -8.8509998 -1.023 0.40000001
-1.845 -8.5769997 -0.98400003 0.34999999
-1.7970001 -8.4820004 -0.97000003 0.5
-1.783 -8.4809999 -0.97000003 0.27000001
-1.753 -8.4689999 -0.96700001 0.47
-1.742 -8.5559998 -0.97899997 0.25
-1.7309999 -8.6400003 -0.98900002 0.15000001
-1.6720001 -8.4799995 -0.96700001 0.55000001
-1.575 -8.1210003 -0.917 0.36000001
-1.553 -8.1389999 -0.91900003 0.34
-1.683 -8.9130001 -1.024 0.47
-1.558 -8.3859997 -0.95099998 0.25
-1.562 -8.559 -0.97399998 0.41
-1.559 -8.698 -0.99299997 0.25999999
-1.465 -8.3210001 -0.94 0.36000001
-1.4529999 -8.4069996 -0.95200002 0.41
-1.469 -8.6700001 -0.98699999 0.23
-1.3940001 -8.2969999 -0.93599999 0.34
-1.3430001 -8.1459999 -0.91500002 0.34
-1.304 -8.0699997 -0.90399998 0.41999999
-1.2869999 -8.1230001 -0.91000003 0.28999999
-1.268 -8.1739998 -0.917 0.44999999
-1.508 -9.9639997 -1.16 0.31
-1.49 -10.057 -1.1720001 0.28
-1.272 -8.8529997 -1.007 0.51999998
-1.214 -8.6370001 -0.977 0.28999999
-1.192 -8.6820002 -0.98299998 0.20999999
-1.105 -8.2279997 -0.921 0.41999999
-1.0779999 -8.2200003 -0.91900003 0.31999999
-1.043 -8.1520004 -0.90899998 0.56
-1.063 -8.4189997 -0.94599998 0.23999999
-1.0089999 -8.1899996 -0.91399997 0.44999999
-1.008 -8.408 -0.94300002 0.28
-0.95999998 -8.2220001 -0.917 0.28999999
-0.93000001 -8.1879997 -0.912 0.40000001
-0.90799999 -8.2259998 -0.917 0.40000001
-0.95300001 -8.9069996 -1.0089999 0.20999999
-0.91100001 -8.6379995 -0.97299999 0.44999999
-0.89899999 -8.7950001 -0.99299997 0.40000001
-0.87300003 -8.8100004 -0.995 0.28999999
-0.86900002 -9.0670004 -1.029 0.44999999
-0.82300001 -8.8739996 -1.003 0.34
-0.79400003 -8.8690004 -1.002 0.16
-0.94800001 -11.054 -1.2970001 0.55000001
-0.73500001 -8.665 -0.97399998 0.2
-0.708 -8.6590004 -0.97299999 0.37
-0.676 -8.6020002 -0.96499997 0.38999999
-0.65600002 -8.6969995 -0.977 0.34
-0.63300002 -8.7670002 -0.986 0.25999999
-0.64099997 -9.3140001 -1.0599999 0.25
-0.56699997 -8.5939999 -0.963 0.33000001
-0.56300002 -8.7550001 -0.98400003 0.41
-0.56 -9.1730003 -1.04 0.27000001
-0.53100002 -9.1719999 -1.04 0.18000001
-0.505 -9.2370005 -1.049 0.14
-0.48699999 -9.4549999 -1.0779999 0.47999999
-0.45899999 -9.5059996 -1.084 0.30000001
-0.412 -9.1009998 -1.03 0.44999999
-0.38299999 -8.7410002 -0.98100001 0.20999999
-0.375 -9.2580004 -1.051 0.44
-0.35299999 -9.4469995 -1.076 0.2
-0.317 -9.2519999 -1.049 0.22
-0.28099999 -9.0270004 -1.0190001 0.38
-0.25600001 -9.1599998 -1.0369999 0.23999999
-0.228 -9.165 -1.0369999 0.25999999
-0.208 -8.9180002 -1.0039999 0.34
-0.18099999 -8.9820004 -1.013 0.52999997
-0.252 -15.982 -1.956 0.16
-0.125 -8.9729996 -1.011 0.31
-0.12800001 -12.983 -1.552 0.18000001
-0.068000004 -8.8959999 -1.001 0.51999998
-0.039999999 -9.073 -1.025 0.33000001
-0.026000001 -8.9320002 -1.006 0.16
0.0020000001 -8.8959999 -1.001 0.55000001
0.028999999 -8.8030005 -0.98799998 0.28
0.057 -8.8450003 -0.99400002 0.34999999
0.086000003 -8.9280005 -1.005 0.52999997
0.116 -9.0249996 -1.018 0.22
0.145 -9.066 -1.024 0.30000001
0.149 -8.5699997 -0.95700002 0.20999999
0.17299999 -8.4250002 -0.93699998 0.52999997
0.208 -8.7690001 -0.98400003 0.13
0.23 -8.5620003 -0.95599997 0.31
0.25600001 -8.5419998 -0.954 0.33000001
0.28200001 -8.5190001 -0.95099998 0.41
0.303 -8.3739996 -0.93099999 0.44
0.31 -8.2290001 -0.912 0.25
0.34900001 -8.5190001 -0.95099998 0.22
0.37400001 -8.4860001 -0.94700003 0.47
0.373 -7.9260001 -0.87099999 0.30000001
0.39700001 -7.9089999 -0.86900002 0.41
0.43099999 -8.0679998 -0.89099997 0.30000001
0.45100001 -7.9840002 -0.88 0.20999999
0.484 -8.3210001 -0.92500001 0.55000001
0.46799999 -7.6630001 -0.83600003 0.14
0.53799999 -8.3360004 -0.92799997 0.46000001
0.56400001 -8.3339996 -0.92799997 0.37
0.59299999 -8.3719997 -0.93300003 0.37
0.58600003 -7.9390001 -0.875 0.41999999
0.62300003 -8.0819998 -0.89399999 0.23
0.64899999 -8.243 -0.91600001 0.2
0.70899999 -8.6490002 -0.97100002 0.27000001
0.71899998 -8.4440002 -0.94400001 0.43000001
0.73299998 -8.3129997 -0.92699999 0.47999999
0.78200001 -8.552 -0.95899999 0.30000001
0.79799998 -8.4329996 -0.94300002 0.34
0.82099998 -8.3950005 -0.93900001 0.37
0.85500002 -8.6020002 -0.96700001 0.27000001
0.796 -7.7820001 -0.85600001 0.36000001
0.81900001 -7.763 -0.85399997 0.25
0.89600003 -8.2290001 -0.917 0.37
0.86000001 -7.691 -0.84500003 0.55000001
1.0039999 -8.7040005 -0.98299998 0.20999999
0.935 -7.908 -0.875 0.30000001
1.006 -8.3780003 -0.93900001 0.19
0.93300003 -7.5890002 -0.83200002 0.20999999
0.94800001 -7.5229998 -0.824 0.51999998
1.0420001 -8.0459995 -0.89499998 0.14
1.053 -7.941 -0.88099998 0.33000001
1.064 -7.835 -0.86699998 0.28999999
1.12 -8.052 -0.89700001 0.20999999
1.11 -7.8930001 -0.87599999 0.44
1.137 -7.9029999 -0.87800002 0.34
1.605 -10.852 -1.28 0.28
1.193 -7.941 -0.884 0.41
1.224 -7.973 -0.889 0.25
1.29 -8.2250004 -0.92400002 0.14
1.721 -10.707 -1.2640001 0.43000001
1.381 -8.54 -0.96799999 0.41
1.4299999 -8.6639996 -0.98500001 0.17
1.48 -8.7950001 -1.0039999 0.40000001
1.461 -8.5200005 -0.96700001 0.37
1.4960001 -8.5649996 -0.97399998 0.25999999
1.4 -7.8790002 -0.88 0.20999999
1.853 -10.198 -1.199 0.41
1.427 -7.6830001 -0.85500002 0.30000001
1.45 -7.6729999 -0.85399997 0.55000001
1.645 -8.5450001 -0.97500002 0.20999999
1.989 -10.13 -1.193 0.43000001
1.999 -10.019 -1.179 0.22
1.704 -8.4239998 -0.95999998 0.18000001
1.7460001 -8.5600004 -0.97899997 0.56999999
1.762 -8.5 -0.972 0.30000001
1.798 -8.5410004 -0.97799999 0.28999999
1.638 -7.671 -0.85900003 0.28999999
1.817 -8.3710003 -0.95599997 0.14
1.6670001 -7.5770001 -0.847 0.51999998
1.655 -7.414 -0.82599998 0.36000001
1.67 -7.4250002 -0.82700002 0.23
1.734 -7.5949998 -0.852 0.28999999
1.75 -7.559 -0.847 0.28999999
1.779 -7.572 -0.85000002 0.34
1.801 -7.5609999 -0.84899998 0.40000001
1.836 -7.5999999 -0.85500002 0.34999999
1.852 -7.5650001 -0.85100001 0.13
2.2030001 -8.9160004 -1.04 0.38
1.867 -7.4720001 -0.83999997 0.28999999
2.263 -8.9189997 -1.0420001 0.38
2.299 -8.9429998 -1.046 0.16
2.3239999 -8.9219999 -1.044 0.44
2.3659999 -8.9659996 -1.052 0.34
2.3859999 -8.9300003 -1.048 0.47999999
2.358 -8.7729998 -1.026 0.33000001
2.3789999 -8.7410002 -1.023 0.34
2.362 -8.5749998 -1.001 0.55000001
2.21 -7.9320002 -0.912 0.17
2.4890001 -8.8149996 -1.036 0.44999999
2.3529999 -8.2399998 -0.95700002 0.16
2.473 -8.5559998 -1.002 0.46000001
2.5380001 -8.7270002 -1.027 0.22
2.5139999 -8.5459995 -1.002 0.28
2.4909999 -8.3710003 -0.97899997 0.27000001
2.4809999 -8.2460003 -0.96200001 0.49000001
2.5320001 -8.3179998 -0.97399998 0.25
2.661 -8.6409998 -1.02 0.44999999
2.691 -8.6420002 -1.022 0.30000001
2.73 -8.717 -1.033 0.38
2.7449999 -8.6709995 -1.028 0.20999999
2.7969999 -8.7390003 -1.039 0.38999999
2.7809999 -8.5970001 -1.02 0.19
2.8380001 -8.6800003 -1.033 0.58999997
2.8759999 -8.7010002 -1.0369999 0.28999999
2.95 -8.8310003 -1.057 0.28999999
2.964 -8.8260002 -1.057 0.41
2.9430001 -8.6759996 -1.0369999 0.27000001
2.95 -8.6070004 -1.028 0.49000001
2.971 -8.5810003 -1.026 0.23
3.049 -8.717 -1.0470001 0.36000001
3.154 -8.9239998 -1.0779999 0.31
3.2249999 -9.0340004 -1.095 0.47
3.211 -8.9499998 -1.0829999 0.2
3.1860001 -8.7969999 -1.063 0.20999999
3.211 -8.7790003 -1.062 0.49000001
3.2460001 -8.79 -1.0650001 0.31999999
3.1459999 -8.4379997 -1.016 0.34
3.177 -8.441 -1.017 0.40000001
3.214 -8.4569998 -1.021 0.41999999
3.2520001 -8.5170002 -1.03 0.34999999
3.267 -8.4770002 -1.026 0.56999999
3.3800001 -8.6859999 -1.058 0.14
3.3729999 -8.5889997 -1.045 0.56
3.474 -8.7639999 -1.072 0.25999999
3.332 -8.3319998 -1.011 0.25999999
3.4449999 -8.5369997 -1.043 0.34999999
3.4619999 -8.5389996 -1.044 0.49000001
3.4549999 -8.4449997 -1.0319999 0.37
3.579 -8.6700001 -1.066 0.2
3.503 -8.4119997 -1.03 0.44999999
3.619 -8.6129999 -1.061 0.25999999
3.5739999 -8.4320002 -1.036 0.31
3.651 -8.5389996 -1.053 0.41
3.6730001 -8.5530005 -1.056 0.27000001
3.6670001 -8.4650002 -1.045 0.56999999
3.7249999 -8.526 -1.056 0.25
3.691 -8.3769999 -1.036 0.37
3.7219999 -8.3760004 -1.0369999 0.47999999
3.612 -8.0629997 -0.99299997 0.30000001
3.8529999 -8.526 -1.063 0.41
3.9200001 -8.6350002 -1.08 0.38
3.928 -8.5810003 -1.074 0.38999999
4.026 -8.724 -1.097 0.28999999
3.9430001 -8.474 -1.061 0.23
3.957 -8.4370003 -1.058 0.50999999
3.9979999 -8.4530001 -1.062 0.40000001
4.0479999 -8.4899998 -1.0700001 0.31999999
4.0120001 -8.382 -1.054 0.34999999
4.0279999 -8.3479996 -1.051 0.41
4.086 -8.3990002 -1.061 0.31
4.04 -8.2410002 -1.039 0.28
4.0349998 -8.1660004 -1.029 0.47
4.0619998 -8.1549997 -1.03 0.34
4.1079998 -8.1829996 -1.036 0.36000001
4.151 -8.2360001 -1.045 0.38
4.191 -8.25 -1.049 0.31999999
4.2270002 -8.2559996 -1.052 0.47
4.2839999 -8.302 -1.061 0.38999999
4.3429999 -8.3520002 -1.071 0.31999999
5.3309999 -10.162 -1.349 0.28999999
5.5539999 -10.506 -1.404 0.46000001
5.5050001 -10.374 -1.385 0.31
4.573 -8.5620003 -1.11 0.36000001
4.4959998 -8.3559999 -1.081 0.30000001
4.572 -8.4329996 -1.095 0.51999998
4.993 -9.1350002 -1.205 0.33000001
4.8179998 -8.7519999 -1.148 0.25
4.829 -8.7080002 -1.1440001 0.28999999
4.783 -8.5939999 -1.128 0.33000001
4.809 -8.5780001 -1.127 0.47999999
4.9879999 -8.8299999 -1.169 0.27000001
4.8969998 -8.6059999 -1.136 0.34999999
4.9120002 -8.5699997 -1.133 0.36000001
4.987 -8.6370001 -1.146 0.38999999
5.1059999 -8.7779999 -1.171 0.36000001
5.118 -8.7679996 -1.17 0.30000001
5.2379999 -8.908 -1.1950001 0.47
5.1570001 -8.7089996 -1.166 0.20999999
5.066 -8.4949999 -1.135 0.36000001
5.1269999 -8.5360003 -1.1440001 0.34999999
5.21 -8.6120005 -1.158 0.20999999
5.3590002 -8.7950001 -1.1900001 0.43000001
5.4000001 -8.8310003 -1.197 0.25
5.421 -8.802 -1.1950001 0.61000001
5.4699998 -8.8199997 -1.201 0.23
5.6659999 -9.0699997 -1.243 0.28999999
5.658 -8.9949999 -1.234 0.33000001
5.6669998 -8.9469995 -1.229 0.5
5.711 -8.9549999 -1.233 0.36000001
5.7989998 -9.0609999 -1.252 0.14
5.783 -8.9720001 -1.2410001 0.55000001
5.822 -8.9709997 -1.243 0.30000001
5.7220001 -8.7589998 -1.212 0.37
5.9710002 -9.0749998 -1.266 0.52999997
5.71 -8.6219997 -1.196 0.28
5.9400001 -8.9069996 -1.245 0.31999999
5.7129998 -8.5389996 -1.187 0.31
5.8590002 -8.6969995 -1.215 0.34999999
5.8540001 -8.6309996 -1.207 0.47
5.8099999 -8.5089998 -1.191 0.25
5.8210001 -8.4680004 -1.187 0.34
5.9070001 -8.5340004 -1.201 0.38999999
6.013 -8.6289997 -1.219 0.37
6.0580001 -8.665 -1.227 0.34999999
6.0089998 -8.5380001 -1.209 0.28999999
6.052 -8.5419998 -1.2130001 0.5
6.1469998 -8.618 -1.229 0.36000001
6.1820002 -8.6090002 -1.23 0.25999999
6.2030001 -8.5819998 -1.229 0.47999999
6.211 -8.5369997 -1.225 0.25999999
9.2709999 -12.679 -1.919 0.28999999
6.2410002 -8.493 -1.222 0.20999999
9.3140001 -12.571 -1.911 0.34
6.3870001 -8.5780001 -1.243 0.28999999
6.3839998 -8.5179996 -1.237 0.37
9.4799995 -12.546 -1.921 0.28999999
6.3309999 -8.3389997 -1.2130001 0.23
6.434 -8.4449997 -1.233 0.23
6.546 -8.5369997 -1.252 0.56
10.086 -13.045 -2.0250001 0.23
6.598 -8.4940004 -1.251 0.33000001
6.5760002 -8.4110003 -1.2410001 0.37
6.6259999 -8.4189997 -1.2460001 0.44999999
6.6789999 -8.4329996 -1.252 0.38999999
6.7589998 -8.4510002 -1.26 0.56999999
6.8000002 -8.448 -1.2640001 0.34
6.9060001 -8.5229998 -1.28 0.19
8.0640001 -9.8830004 -1.521 0.41999999
8.0159998 -9.7609997 -1.5039999 0.28999999
8.0100002 -9.6920004 -1.497 0.31999999
7.9720001 -9.6149998 -1.485 0.18000001
6.9380002 -8.3199997 -1.262 0.57999998
7.0209999 -8.3660002 -1.274 0.2
6.967 -8.2489996 -1.257 0.58999997
7.0229998 -8.2629995 -1.2640001 0.30000001
7.007 -8.1920004 -1.255 0.20999999
7.0949998 -8.2410002 -1.268 0.38
7.1079998 -8.2299995 -1.268 0.38999999
7.046 -8.1079998 -1.25 0.56
9.9230003 -11.33 -1.832 0.14
7.4530001 -8.4659996 -1.322 0.5
7.3439999 -8.29 -1.295 0.40000001
7.178 -8.0530005 -1.256 0.31
7.3979998 -8.2469997 -1.295 0.28999999
7.4070001 -8.2299995 -1.294 0.63999999
7.21 -7.9619999 -1.25 0.34
7.5110002 -8.2410002 -1.3049999 0.36000001
7.546 -8.2270002 -1.307 0.44999999
7.599 -8.2329998 -1.312 0.34999999
7.6869998 -8.2749996 -1.324 0.23
7.6690001 -8.2049999 -1.316 0.56999999
7.8449998 -8.3660002 -1.348 0.28
7.803 -8.2690001 -1.334 0.34
7.8179998 -8.2329998 -1.332 0.44999999
7.8439999 -8.2089996 -1.332 0.36000001
7.882 -8.1969995 -1.335 0.47999999
7.9770002 -8.243 -1.348 0.28999999
8.0389996 -8.2550001 -1.355 0.46000001
8.073 -8.2639999 -1.359 0.43000001
8.1590004 -8.2989998 -1.37 0.34
8.2130003 -8.3009996 -1.376 0.52999997
8.2880001 -8.3240004 -1.385 0.27000001
8.2299995 -8.2150002 -1.369 0.33000001
8.2229996 -8.1569996 -1.363 0.66000003
8.3430004 -8.224 -1.381 0.38999999
8.5459995 -8.3959999 -1.4170001 0.31
8.4420004 -8.2419996 -1.392 0.20999999
8.3280001 -8.0810003 -1.3660001 0.56999999
8.3999996 -8.1000004 -1.375 0.38999999
8.6700001 -8.3059998 -1.42 0.36000001
8.5690002 -8.1590004 -1.397 0.31999999
8.6020002 -8.1389999 -1.398 0.41
8.6739998 -8.1809998 -1.409 0.31
8.6719999 -8.1280003 -1.404 0.44
8.8050003 -8.1999998 -1.424 0.23999999
8.9300003 -8.2639999 -1.442 0.58999997
8.6169996 -7.9250002 -1.38 0.18000001
8.5670004 -7.8299999 -1.3660001 0.56
8.9259996 -8.1059999 -1.427 0.47999999
8.802 -7.9689999 -1.402 0.34
8.7489996 -7.8709998 -1.388 0.37
8.9720001 -8.0200005 -1.424 0.2
8.823 -7.8379998 -1.393 0.47999999
8.7690001 -7.7410002 -1.378 0.41
8.7589998 -7.684 -1.372 0.41
8.7770004 -7.651 -1.3710001 0.34999999
8.7609997 -7.612 -1.3660001 0.38
8.816 -7.612 -1.372 0.44999999
8.8009996 -7.5510001 -1.365 0.41
8.8050003 -7.506 -1.3609999 0.31
8.8339996 -7.4840002 -1.362 0.5
8.8590002 -7.4569998 -1.363 0.33000001
8.8579998 -7.4089999 -1.358 0.54000002
8.8660002 -7.3909998 -1.358 0.31999999
8.8610001 -7.3410001 -1.353 0.49000001
8.8920002 -7.3189998 -1.354 0.27000001
8.8780003 -7.2610002 -1.348 0.47999999
8.927 -7.2540002 -1.352 0.28999999
8.9420004 -7.2199998 -1.351 0.47999999
8.9540005 -7.1830001 -1.349 0.37
8.9289999 -7.1409998 -1.3430001 0.47
8.9700003 -7.1279998 -1.346 0.36000001
8.9759998 -7.086 -1.3430001 0.41999999
8.9879999 -7.0500002 -1.342 0.34
8.993 -7.0089998 -1.339 0.41
9.0109997 -6.9770002 -1.3380001 0.47
9.04 -6.954 -1.339 0.38999999
9.0539999 -6.9429998 -1.34 0.34
9.0810003 -6.9180002 -1.34 0.47
9.1070004 -6.8930001 -1.341 0.34999999
9.1070004 -6.8470001 -1.3380001 0.47999999
9.1040001 -6.8010001 -1.334 0.25999999
9.0889997 -6.7449999 -1.327 0.44999999
9.1129999 -6.7189999 -1.3279999 0.47
9.1169996 -6.6999998 -1.327 0.34999999
9.0740004 -6.625 -1.316 0.49000001
9.1450005 -6.632 -1.324 0.31999999
9.1560001 -6.5970001 -1.323 0.5
9.1300001 -6.5339999 -1.3150001 0.36000001
9.1409998 -6.4990001 -1.313 0.41999999
9.1660004 -6.474 -1.314 0.34
9.1520004 -6.4419999 -1.3099999 0.37
9.1850004 -6.4219999 -1.312 0.33000001
9.2229996 -6.4060001 -1.3150001 0.44999999
9.2460003 -6.3790002 -1.316 0.38999999
9.2959995 -6.3699999 -1.321 0.41999999
9.3219995 -6.3449998 -1.322 0.36000001
9.3240004 -6.3039999 -1.319 0.47
9.3409996 -6.2940001 -1.3200001 0.44999999
9.408 -6.296 -1.3279999 0.31
9.4230003 -6.263 -1.327 0.41999999
9.4460001 -6.2360001 -1.327 0.34
9.4849997 -6.2189999 -1.331 0.41999999
9.5109997 -6.1939998 -1.332 0.33000001
9.5430002 -6.171 -1.334 0.46000001
9.5819998 -6.1750002 -1.3380001 0.36000001
9.6029997 -6.1459999 -1.339 0.43000001
9.6309996 -6.1209998 -1.34 0.36000001
9.665 -6.1009998 -1.342 0.40000001
9.6879997 -6.072 -1.3430001 0.44
9.7320004 -6.0580001 -1.347 0.37
9.776 -6.0419998 -1.351 0.34999999
9.7840004 -6.026 -1.351 0.51999998
9.8179998 -6.0050001 -1.353 0.33000001
9.8439999 -5.9780002 -1.354 0.36000001
9.8640003 -5.948 -1.354 0.30000001
9.8900003 -5.921 -1.355 0.34
9.927 -5.901 -1.358 0.34999999
9.9399996 -5.8670001 -1.358 0.33000001
9.9630003 -5.8590002 -1.36 0.34999999
9.9870005 -5.8309999 -1.3609999 0.30000001
10.02 -5.8080001 -1.363 0.37
10.04 -5.7779999 -1.363 0.28999999
10.072 -5.7540002 -1.365 0.34999999
10.089 -5.7210002 -1.365 0.31
10.119 -5.6960001 -1.367 0.34999999
10.138 -5.6859999 -1.369 0.30000001
10.161 -5.6570001 -1.369 0.38
10.177 -5.6240001 -1.369 0.30000001
10.203 -5.5970001 -1.37 0.34999999
10.233 -5.572 -1.372 0.34
10.25 -5.539 -1.372 0.28999999
10.291 -5.5190001 -1.376 0.36000001
10.297 -5.5019999 -1.375 0.30000001
10.336 -5.4809999 -1.3789999 0.36000001
10.355 -5.4489999 -1.3789999 0.34
10.366 -5.414 -1.378 0.31
10.408 -5.3940001 -1.382 0.37
10.43 -5.3639998 -1.383 0.30000001
10.466 -5.3410001 -1.386 0.36000001
10.484 -5.329 -1.387 0.34
10.504 -5.2979999 -1.388 0.34999999
10.512 -5.2610002 -1.386 0.34
10.537 -5.2319999 -1.388 0.34999999
10.562 -5.2030001 -1.3890001 0.34
10.584 -5.1729999 -1.39 0.33000001
10.606 -5.1420002 -1.39 0.34
10.628 -5.132 -1.393 0.34
10.651 -5.1020002 -1.3940001 0.34
10.674 -5.072 -1.395 0.34
10.71 -5.0479999 -1.398 0.33000001
10.74 -5.0209999 -1.4 0.28999999
10.767 -4.9920001 -1.401 0.36000001
10.788 -4.961 -1.402 0.28999999
10.804 -4.948 -1.404 0.34999999
10.833 -4.9190001 -1.405 0.34
10.862 -4.8920002 -1.408 0.28
10.912 -4.8730001 -1.413 0.31
7.132 -3.168 -0.85399997 0.18000001
7.1659999 -3.1559999 -0.85699999 0.27000001
7.2140002 -3.1500001 -0.86299998 0.23999999
7.3010001 -3.174 -0.875 0.37
7.395 -3.187 -0.88700002 0.19
7.448 -3.1819999 -0.89300001 0.18000001
7.4910002 -3.1730001 -0.898 0.47999999
7.5580001 -3.1730001 -0.90600002 0.22
7.546 -3.1400001 -0.903 0.23999999
7.5539999 -3.115 -0.903 0.38999999
7.5349998 -3.0940001 -0.89999998 0.28999999
7.5240002 -3.062 -0.89700001 0.25999999
7.5190001 -3.0320001 -0.89399999 0.30000001
7.5320001 -3.01 -0.89499998 0.31999999
7.5050001 -2.9719999 -0.88999999 0.28999999
7.5029998 -2.944 -0.88800001 0.28
7.4990001 -2.9159999 -0.88599998 0.28
7.493 -2.8989999 -0.88499999 0.28
7.487 -2.8699999 -0.88200003 0.20999999
7.4569998 -2.832 -0.87699997 0.37
7.3410001 -2.7620001 -0.85900003 0.20999999
7.2389998 -2.698 -0.84299999 0.25
7.2750001 -2.6860001 -0.847 0.30000001
7.3340001 -2.681 -0.85399997 0.34
7.3959999 -2.6900001 -0.86199999 0.31999999
7.4559999 -2.6860001 -0.87 0.28999999
7.5149999 -2.6800001 -0.87699997 0.30000001
7.5910001 -2.6800001 -0.88700002 0.30000001
7.6560001 -2.675 -0.89499998 0.30000001
7.7280002 -2.6730001 -0.90399998 0.28999999
7.796 -2.6689999 -0.912 0.2
7.868 -2.6800001 -0.92199999 0.46000001
7.961 -2.6830001 -0.93400002 0.22
8.1990004 -2.734 -0.96700001 0.25
8.3129997 -2.743 -0.98199999 0.31
8.3909998 -2.7390001 -0.991 0.31
8.4490004 -2.7279999 -0.99800003 0.28999999
8.4860001 -2.711 -1.002 0.27000001
8.5389996 -2.7130001 -1.0089999 0.27000001
8.5670004 -2.6919999 -1.012 0.25
8.6169996 -2.678 -1.018 0.30000001
8.6800003 -2.668 -1.026 0.33000001
8.7489996 -2.6589999 -1.034 0.33000001
8.8450003 -2.6570001 -1.0470001 0.33000001
8.9429998 -2.6559999 -1.059 0.31999999
9.0319996 -2.6670001 -1.071 0.30000001
9.1260004 -2.6630001 -1.0829999 0.25999999
9.2279997 -2.661 -1.096 0.30000001
11.716 -3.3310001 -1.444 0.15000001
11.774 -3.3080001 -1.45 0.30000001
11.777 -3.2690001 -1.449 0.28999999
11.795 -3.234 -1.45 0.31999999
11.819 -3.22 -1.4529999 0.34999999
11.818 -3.1800001 -1.451 0.30000001
11.552 -3.0699999 -1.413 0.23999999
11.544 -3.029 -1.411 0.36000001
11.54 -2.99 -1.409 0.34
11.597 -2.9660001 -1.415 0.40000001
11.703 -2.9530001 -1.429 0.37
11.873 -2.9760001 -1.452 0.31
11.953 -2.9560001 -1.462 0.33000001
