# .PCD v0.7 - Point Cloud Data file format
VERSION 0.7
FIELDS x y z intensity
SIZE 4 4 4 4
TYPE F F F F
COUNT 1 1 1 1
WIDTH 1436
HEIGHT 1
VIEWPOINT 0 0 0 1 0 0 0
POINTS 1436
DATA ascii
14.952 14.606 -1.339 0.22
14.911 14.657 -1.339 0.38999999
14.819 14.659 -1.335 0.33000001
14.788 14.674 -1.334 0.28
14.743 14.721 -1.334 0.25
14.684 14.755 -1.3329999 0.33000001
14.596 14.758 -1.3279999 0.36000001
14.548 14.803 -1.3279999 0.36000001
14.452 14.798 -1.323 0.38
14.395 14.832 -1.322 0.38999999
14.344 14.826 -1.319 0.38
14.238 14.809 -1.312 0.40000001
14.171 14.832 -1.3099999 0.38999999
14.125 14.878 -1.3099999 0.34
14.041 14.883 -1.306 0.38
13.957 14.886 -1.302 0.40000001
13.869 14.886 -1.298 0.34
13.833 14.895 -1.2970001 0.37
13.755 14.905 -1.293 0.44
13.721 14.961 -1.294 0.31999999
13.666 14.995 -1.294 0.41
13.6 15.017 -1.2920001 0.38
13.554 15.061 -1.2920001 0.38
13.494 15.091 -1.29 0.37
13.452 15.091 -1.288 0.33000001
13.385 15.111 -1.286 0.41
13.228 15.028 -1.274 0.38999999
13.21 15.103 -1.277 0.36000001
13.18 15.165 -1.279 0.44
13.152 15.229 -1.281 0.38
13.052 15.21 -1.275 0.38999999
12.975 15.168 -1.2690001 0.38
12.905 15.181 -1.267 0.36000001
12.861 15.227 -1.267 0.38999999
12.822 15.278 -1.268 0.38
12.739 15.276 -1.2640001 0.38
12.68 15.302 -1.263 0.38
12.606 15.311 -1.26 0.37
12.571 15.317 -1.2589999 0.38
12.477 15.301 -1.253 0.43000001
12.473 15.394 -1.2589999 0.33000001
12.462 15.48 -1.263 0.38999999
12.402 15.505 -1.262 0.41999999
12.351 15.541 -1.261 0.27000001
12.269 15.537 -1.257 0.41999999
12.191 15.489 -1.251 0.38
12.157 15.546 -1.253 0.38
12.08 15.548 -1.249 0.41
11.982 15.521 -1.243 0.44
11.907 15.526 -1.24 0.34
11.828 15.523 -1.237 0.41
11.873 15.684 -1.248 0.38
11.823 15.67 -1.245 0.38999999
11.756 15.683 -1.243 0.34
11.688 15.694 -1.24 0.43000001
11.567 15.634 -1.232 0.41999999
11.466 15.6 -1.225 0.33000001
11.436 15.661 -1.228 0.46000001
11.417 15.687 -1.228 0.23999999
11.36 15.712 -1.227 0.47999999
11.319 15.759 -1.228 0.38999999
11.219 15.725 -1.222 0.28
11.166 15.755 -1.222 0.34
11.113 15.785 -1.221 0.28999999
11.05 15.8 -1.219 0.38999999
10.961 15.726 -1.211 0.22
10.885 15.721 -1.2079999 0.12
10.83 15.747 -1.207 0.31
10.742 15.724 -1.202 0.51999998
11.881 17.514 -1.358 0.19
11.826 17.551001 -1.358 0.16
11.769 17.587 -1.358 0.31999999
11.75 17.618999 -1.359 0.16
11.703 17.667 -1.36 0.37
11.642 17.695 -1.359 0.22
11.596 17.747 -1.3609999 0.18000001
11.551 17.799999 -1.362 0.41
11.488 17.826 -1.3609999 0.23
11.435 17.865999 -1.362 0.25
11.403 17.878 -1.3609999 0.2
11.353 17.924 -1.362 0.20999999
11.308 17.976999 -1.364 0.18000001
11.264 18.033001 -1.365 0.23
11.208 18.07 -1.365 0.19
11.172 18.139 -1.368 0.20999999
11.112 18.169001 -1.368 0.18000001
11.089 18.194 -1.369 0.20999999
11.04 18.243 -1.37 0.16
10.995 18.298 -1.372 0.31999999
10.949 18.353001 -1.373 0.17
10.899 18.399 -1.374 0.38
10.844 18.438999 -1.375 0.19
10.793 18.485001 -1.376 0.25999999
10.759 18.493 -1.375 0.20999999
10.7 18.525 -1.375 0.23
10.629 18.535999 -1.373 0.2
10.588 18.601 -1.376 0.20999999
10.535 18.643999 -1.377 0.17
10.487 18.695 -1.378 0.31999999
10.437 18.745001 -1.38 0.2
10.408 18.761 -1.38 0.18000001
10.352 18.799 -1.38 0.30000001
10.288 18.823 -1.3789999 0.11
10.225 18.848 -1.3789999 0.16
10.166 18.879999 -1.3789999 0.12
10.112 18.922001 -1.38 0.17
10.056 18.961 -1.38 0.12
10.012 18.948999 -1.378 0.16
9.948 18.973 -1.377 0.12
9.8920002 19.011 -1.378 0.18000001
9.8319998 19.040001 -1.378 0.28
9.7729998 19.073 -1.378 0.11
9.7080002 19.094999 -1.377 0.16
9.6709995 19.171 -1.381 0.28
9.651 19.205999 -1.383 0.2
9.5909996 19.236 -1.383 0.18000001
9.5349998 19.275 -1.383 0.23999999
9.4820004 19.320999 -1.385 0.20999999
9.4219999 19.353001 -1.385 0.18000001
9.3730001 19.408001 -1.387 0.38999999
9.3199997 19.452999 -1.388 0.22
9.2910004 19.471001 -1.388 0.19
9.2410002 19.524 -1.39 0.38999999
9.1800003 19.552999 -1.39 0.18000001
9.1219997 19.589001 -1.391 0.37
9.0579996 19.614 -1.391 0.18000001
9.0109997 19.673 -1.393 0.37
8.9809999 19.688999 -1.393 0.18000001
8.934 19.75 -1.396 0.34999999
8.8660002 19.764999 -1.395 0.18000001
8.8170004 19.823999 -1.397 0.34999999
8.7559996 19.853001 -1.398 0.20999999
8.7110004 19.921 -1.401 0.22
8.658 19.969999 -1.403 0.17
8.6269999 19.985001 -1.403 0.31999999
8.566 20.016001 -1.403 0.2
8.5050001 20.048 -1.403 0.18000001
8.4449997 20.082001 -1.404 0.31999999
8.3830004 20.111 -1.404 0.20999999
8.3299999 20.163 -1.406 0.17
8.2749996 20.207001 -1.408 0.13
8.2530003 20.246 -1.41 0.17
8.2049999 20.309 -1.413 0.23
8.1479998 20.353001 -1.414 0.18000001
8.1029997 20.427 -1.418 0.20999999
8.0380001 20.448 -1.418 0.2
7.9809999 20.493999 -1.419 0.23
7.9219999 20.532 -1.42 0.20999999
7.8969998 20.565001 -1.4220001 0.16
7.8400002 20.608 -1.423 0.38999999
7.7839999 20.657 -1.425 0.23
7.7410002 20.739 -1.4299999 0.16
7.6989999 20.827 -1.4349999 0.44
7.645 20.881001 -1.437 0.25
7.6149998 21.007 -1.4450001 0.25
7.5970001 21.059999 -1.448 0.27000001
7.5300002 21.08 -1.448 0.25999999
7.4770002 21.141001 -1.451 0.31999999
7.4089999 21.160999 -1.451 0.34999999
7.3410001 21.18 -1.45 0.37
7.2740002 21.201 -1.45 0.34999999
7.198 21.195999 -1.448 0.30000001
7.1550002 21.177999 -1.446 0.31999999
7.0960002 21.224001 -1.448 0.44
7.0240002 21.231001 -1.446 0.31
6.9520001 21.235001 -1.4450001 0.31999999
6.8800001 21.24 -1.444 0.31
6.8099999 21.254 -1.443 0.31999999
6.744 21.277 -1.443 0.28999999
6.7069998 21.275999 -1.442 0.30000001
6.6399999 21.297001 -1.442 0.27000001
6.5749998 21.323999 -1.443 0.25999999
6.5120001 21.356001 -1.444 0.27000001
6.448 21.388 -1.4450001 0.25999999
6.388 21.431 -1.446 0.27000001
6.3270001 21.476 -1.448 0.28
6.2979999 21.499001 -1.449 0.28999999
6.2259998 21.503 -1.448 0.31
6.1599998 21.530001 -1.449 0.28999999
6.086 21.527 -1.447 0.28999999
6.0190001 21.547001 -1.447 0.28999999
5.9569998 21.586 -1.449 0.28
5.8930001 21.620001 -1.45 0.27000001
5.8610001 21.636 -1.45 0.28
5.803 21.691 -1.4529999 0.25999999
5.7399998 21.729 -1.455 0.27000001
5.6700001 21.743 -1.454 0.25999999
5.6090002 21.788 -1.456 0.30000001
5.5289998 21.761 -1.4529999 0.28
5.4559999 21.759001 -1.452 0.28999999
5.4219999 21.768999 -1.452 0.28
5.355 21.792 -1.452 0.28999999
5.2859998 21.805 -1.452 0.28
5.2160001 21.815001 -1.451 0.28999999
5.1459999 21.827999 -1.451 0.28
5.0739999 21.826 -1.45 0.28999999
5.0040002 21.837999 -1.45 0.28999999
4.967 21.834 -1.449 0.31999999
4.9039998 21.871 -1.45 0.27000001
4.8369999 21.896 -1.451 0.28
4.7690001 21.915001 -1.451 0.28999999
4.7010002 21.936001 -1.452 0.28999999
4.6360002 21.966 -1.4529999 0.28999999
4.5630002 21.965 -1.452 0.28999999
4.5289998 21.969999 -1.452 0.31
4.4619999 21.997999 -1.4529999 0.28999999
4.3959999 22.025999 -1.454 0.30000001
4.3280001 22.045 -1.454 0.28999999
4.2589998 22.061001 -1.454 0.27000001
4.1890001 22.072001 -1.454 0.30000001
4.1220002 22.094999 -1.455 0.28999999
4.0890002 22.111 -1.456 0.31
4.0190001 22.120001 -1.455 0.28999999
3.948 22.127001 -1.455 0.30000001
3.878 22.135 -1.455 0.28
3.8080001 22.146999 -1.455 0.30000001
3.74 22.167 -1.455 0.28999999
3.671 22.181999 -1.455 0.28999999
3.6389999 22.204 -1.457 0.27000001
3.5680001 22.211 -1.456 0.31999999
3.497 22.214001 -1.456 0.28999999
3.425 22.209999 -1.455 0.27000001
3.358 22.238001 -1.456 0.28999999
3.286 22.235001 -1.455 0.30000001
3.2160001 22.243 -1.455 0.30000001
3.181 22.252001 -1.455 0.28999999
3.1140001 22.278999 -1.456 0.28999999
3.0420001 22.277 -1.455 0.30000001
2.9719999 22.283001 -1.455 0.30000001
2.902 22.296 -1.455 0.28999999
2.8340001 22.319 -1.456 0.28999999
2.7639999 22.327999 -1.456 0.27000001
2.7309999 22.354 -1.4579999 0.28
2.6630001 22.374001 -1.459 0.28999999
2.5940001 22.396 -1.46 0.28999999
2.5239999 22.408001 -1.46 0.28999999
2.4519999 22.402 -1.459 0.28999999
2.385 22.438999 -1.461 0.31999999
2.3139999 22.447001 -1.461 0.28
2.279 22.448 -1.461 0.31999999
2.2090001 22.462999 -1.462 0.28999999
2.138 22.459999 -1.461 0.28
2.069 22.490999 -1.4630001 0.28999999
2.0020001 22.535 -1.466 0.31999999
1.931 22.547001 -1.466 0.30000001
1.86 22.549 -1.466 0.30000001
1.823 22.528 -1.464 0.28
1.751 22.524 -1.4630001 0.31999999
1.681 22.533001 -1.464 0.30000001
1.61 22.540001 -1.464 0.30000001
1.54 22.559 -1.465 0.30000001
1.469 22.556 -1.464 0.30000001
1.398 22.566 -1.465 0.28999999
1.363 22.575001 -1.465 0.25999999
0.61500001 11.126 -0.61900002 0.43000001
0.58099997 11.138 -0.62 0.47999999
0.54500002 11.137 -0.62 0.44
0.50999999 11.133 -0.62 0.43000001
0.47499999 11.119 -0.61799997 0.69
0.465 11.327 -0.634 0.38999999
0.83200002 22.615999 -1.466 0.2
0.76099998 22.629 -1.467 0.28999999
0.69 22.649 -1.4680001 0.25999999
0.62 22.673 -1.47 0.27000001
0.54900002 22.688999 -1.471 0.28
0.47799999 22.700001 -1.472 0.28999999
0.442 22.715 -1.473 0.28999999
0.37099999 22.722 -1.473 0.28999999
0.30000001 22.729 -1.474 0.28
0.228 22.733999 -1.474 0.28999999
0.15700001 22.733 -1.474 0.30000001
0.086000003 22.737 -1.474 0.27000001
0.050000001 22.749001 -1.475 0.28
-0.022 22.761 -1.476 0.27000001
-0.093000002 22.737 -1.474 0.28999999
-0.164 22.739 -1.474 0.28999999
-0.236 22.766001 -1.476 0.25
-0.308 22.763 -1.476 0.28
-0.37900001 22.766001 -1.476 0.30000001
-0.45100001 22.797001 -1.479 0.28999999
-0.48800001 22.812 -1.48 0.28
-0.56 22.834 -1.482 0.25999999
-0.63099998 22.823999 -1.4809999 0.30000001
-0.70300001 22.813999 -1.4809999 0.27000001
-0.77399999 22.809999 -1.48 0.25999999
-0.847 22.833 -1.482 0.27000001
-0.91900003 22.839001 -1.483 0.28
-0.95499998 22.841 -1.483 0.28
-1.027 22.832001 -1.483 0.25
-1.098 22.823 -1.482 0.34
-1.1720001 22.865 -1.4859999 0.25999999
-1.245 22.879 -1.487 0.28
-1.317 22.875 -1.487 0.28
-1.391 22.903 -1.489 0.25
-1.427 22.898001 -1.489 0.17
-1.501 22.934 -1.492 0.43000001
-1.573 22.931 -1.492 0.25
-1.647 22.948 -1.494 0.27000001
-1.72 22.950001 -1.495 0.27000001
-1.793 22.959 -1.4960001 0.25
-1.83 22.968 -1.4960001 0.23999999
-1.902 22.958 -1.4960001 0.17
-1.978 23.003 -1.5 0.44999999
-2.0510001 22.999001 -1.5 0.25
-2.1259999 23.030001 -1.503 0.27000001
-2.201 23.047001 -1.505 0.25999999
-2.276 23.063999 -1.506 0.28999999
-2.313 23.068001 -1.507 0.31
-2.3870001 23.075001 -1.508 0.28999999
-2.4619999 23.091 -1.51 0.25
-2.5339999 23.083 -1.51 0.25
-2.609 23.091 -1.511 0.28
-2.6819999 23.091 -1.512 0.30000001
-2.7590001 23.115999 -1.5140001 0.38999999
-2.836 23.149 -1.517 0.28999999
-2.875 23.16 -1.518 0.28999999
-2.95 23.167 -1.52 0.27000001
-3.023 23.165001 -1.52 0.30000001
-3.1010001 23.195 -1.523 0.34
-3.174 23.179001 -1.523 0.28999999
-3.2449999 23.159 -1.522 0.30000001
-3.2809999 23.152 -1.522 0.36000001
-3.3570001 23.162001 -1.523 0.36000001
-3.4300001 23.153 -1.523 0.31999999
-3.5009999 23.132 -1.523 0.34
-3.5739999 23.122999 -1.523 0.38999999
-3.648 23.120001 -1.523 0.36000001
-3.7219999 23.118 -1.524 0.31999999
-3.757 23.104 -1.523 0.41
-3.8280001 23.08 -1.523 0.30000001
-3.9000001 23.066 -1.522 0.36000001
-3.9649999 23.011 -1.5190001 0.31
-4.0310001 22.966999 -1.517 0.31
-4.099 22.927999 -1.515 0.41999999
-4.1479998 22.792 -1.506 0.28999999
-4.1630001 22.669001 -1.497 0.33000001
-4.2140002 22.549999 -1.489 0.40000001
-4.2750001 22.486 -1.485 0.30000001
-4.3460002 22.473 -1.485 0.37
-4.4070001 22.41 -1.482 0.37
-4.4749999 22.384001 -1.4809999 0.40000001
-4.54 22.344999 -1.479 0.33000001
-4.6079998 22.322001 -1.478 0.33000001
-4.6290002 22.245001 -1.473 0.34999999
-4.7010002 22.242001 -1.474 0.40000001
-4.783 22.284 -1.478 0.38
-4.849 22.250999 -1.477 0.36000001
-4.9219999 22.249001 -1.478 0.41
-4.9910002 22.23 -1.477 0.36000001
-5.0180001 22.187 -1.475 0.33000001
-5.086 22.163 -1.474 0.36000001
-5.1690001 22.205 -1.479 0.41
-5.2550001 22.254999 -1.484 0.31999999
-5.3429999 22.313999 -1.489 0.31
-5.4029999 22.257 -1.4859999 0.46000001
-5.4899998 22.311001 -1.492 0.31999999
-5.5120001 22.25 -1.488 0.38999999
-5.573 22.194 -1.485 0.31999999
-5.6609998 22.252001 -1.4910001 0.36000001
-5.7360001 22.250999 -1.492 0.33000001
-5.8099999 22.249001 -1.493 0.38999999
-5.8759999 22.215 -1.492 0.38
-5.9429998 22.188999 -1.4910001 0.34
-5.993 22.233 -1.495 0.31999999
-6.0339999 22.110001 -1.487 0.31
-6.0970001 22.066 -1.4859999 0.38999999
-6.1830001 22.106001 -1.49 0.38
-6.2740002 22.166 -1.4960001 0.37
-6.3429999 22.142 -1.4960001 0.36000001
-6.427 22.174 -1.5 0.38
-6.4889998 22.127001 -1.498 0.34
-6.5190001 22.099001 -1.4960001 0.38999999
-6.586 22.073 -1.4960001 0.37
-6.652 22.041 -1.495 0.37
-6.7410002 22.084 -1.5 0.36000001
-6.8260002 22.113001 -1.5039999 0.37
-6.8889999 22.07 -1.502 0.34
-6.9349999 22.094999 -1.505 0.31999999
-7.0009999 22.063999 -1.5039999 0.38999999
-7.0900002 22.101 -1.5089999 0.38999999
-7.1620002 22.087999 -1.51 0.37
-7.2309999 22.063 -1.51 0.38
-7.3130002 22.08 -1.513 0.33000001
-7.3829999 22.056999 -1.513 0.31999999
-7.4190001 22.051001 -1.513 0.34
-7.494 22.042999 -1.5140001 0.34
-7.5879998 22.091 -1.52 0.34
-7.658 22.069 -1.52 0.38
-7.7410002 22.086 -1.523 0.28
-7.7969999 22.021999 -1.52 0.41
-7.8740001 22.02 -1.522 0.34
-7.9130001 22.018999 -1.523 0.37
-7.9699998 21.962 -1.52 0.38999999
-8.0690002 22.018999 -1.527 0.33000001
-8.1479998 22.02 -1.529 0.33000001
-8.2130003 21.983 -1.528 0.38999999
-8.3059998 22.021 -1.533 0.34999999
-8.3940001 22.042999 -1.5369999 0.36000001
-8.4180002 22.004 -1.535 0.34999999
-8.5089998 22.033001 -1.539 0.40000001
-8.6120005 22.093 -1.546 0.34
-8.6820002 22.066 -1.546 0.33000001
-8.757 22.054001 -1.5470001 0.34999999
-8.8339996 22.045 -1.549 0.34999999
-8.9060001 22.024 -1.549 0.36000001
-8.9300003 21.983999 -1.5470001 0.38
-9.0050001 21.971001 -1.548 0.37
-9.0979996 22 -1.553 0.36000001
-9.1809998 22.004 -1.556 0.38
-9.2609997 22.000999 -1.558 0.38999999
-9.3319998 21.976999 -1.558 0.33000001
-9.4219999 21.997 -1.562 0.36000001
-9.4709997 22.014999 -1.5650001 0.36000001
-9.5559998 22.021999 -1.568 0.34
-9.651 22.049999 -1.572 0.31999999
-9.7130003 22.003 -1.571 0.34
-9.7939997 22 -1.573 0.30000001
-9.8730001 21.990999 -1.575 0.41999999
-9.9490004 21.976 -1.576 0.34999999
-10.009 22.014999 -1.581 0.28999999
-10.092 22.014 -1.5829999 0.34
-10.17 22.002001 -1.585 0.31
-10.249 21.99 -1.586 0.44999999
-10.33 21.983 -1.5880001 0.34
-10.418 21.992001 -1.592 0.34
-10.492 21.968 -1.5930001 0.31999999
-10.537 21.975 -1.595 0.37
-10.613 21.954 -1.596 0.30000001
-10.69 21.938999 -1.597 0.37
-10.771 21.927999 -1.599 0.31999999
-10.852 21.92 -1.601 0.36000001
-10.935 21.914 -1.603 0.28999999
-11.021 21.913 -1.6059999 0.38999999
-11.062 21.91 -1.607 0.30000001
-11.148 21.909 -1.61 0.36000001
-11.229 21.896999 -1.612 0.34
-11.3 21.867001 -1.612 0.28999999
-11.387 21.865 -1.615 0.36000001
-11.465 21.848 -1.617 0.30000001
-11.557 21.856001 -1.6210001 0.31999999
-11.622 21.895 -1.625 0.41
-11.539 21.575001 -1.602 0.22
-11.764 21.83 -1.626 0.30000001
-11.848 21.820999 -1.628 0.33000001
-11.952 21.848 -1.6339999 0.31
-12.027 21.823 -1.635 0.31999999
-12.104 21.801001 -1.636 0.34
-12.146 21.795 -1.637 0.34
-12.215 21.757 -1.637 0.28999999
-12.312 21.771 -1.642 0.30000001
-12.403 21.771999 -1.645 0.34999999
-12.492 21.767 -1.648 0.33000001
-12.568 21.742001 -1.649 0.31999999
-12.638 21.705999 -1.649 0.28999999
-12.691 21.718 -1.652 0.31999999
-12.781 21.715 -1.655 0.33000001
-12.856 21.686001 -1.656 0.31
-12.919 21.636999 -1.656 0.28
-13.021 21.653 -1.661 0.36000001
-13.055 21.556 -1.656 0.30000001
-13.13 21.525999 -1.6569999 0.28
-13.208 21.579 -1.663 0.31999999
-13.218 21.444 -1.655 0.30000001
-13.286 21.402 -1.655 0.28999999
-13.359 21.371 -1.656 0.18000001
-13.398 21.283001 -1.652 0.41
-13.47 21.249001 -1.653 0.25
-13.541 21.212999 -1.653 0.25999999
-13.581 21.202 -1.654 0.25999999
-13.668 21.191 -1.6569999 0.27000001
-13.752 21.174999 -1.659 0.28999999
-13.843 21.17 -1.663 0.27000001
-13.938 21.17 -1.666 0.31999999
-14.021 21.150999 -1.669 0.25999999
-14.113 21.145 -1.6720001 0.25999999
-13.512 20.177 -1.5880001 0
-13.609 20.186001 -1.5930001 0
-13.61 20.049999 -1.584 0.12
-13.824 20.093 -1.596 0.47
-13.871 20.025999 -1.594 0.23
-13.999 20.007999 -1.598 0.19
-14.104 20.024 -1.603 0.13
-14.237 20.079 -1.612 0.2
-14.312 20.049999 -1.614 0.33000001
-14.409 20.052 -1.618 0.33000001
-14.497 20.042 -1.6210001 0.38999999
-14.588 20.035 -1.625 0.30000001
-14.662 20.07 -1.63 0.31999999
-14.752 20.061001 -1.6339999 0.37
-14.847 20.058001 -1.638 0.31999999
-14.953 20.069 -1.643 0.36000001
-15.045 20.059999 -1.646 0.31
-15.147 20.063 -1.651 0.36000001
-15.247 20.065001 -1.656 0.34999999
-15.311 20.084 -1.66 0.30000001
-15.413 20.086 -1.664 0.36000001
-15.512 20.083 -1.669 0.28999999
-15.615 20.086 -1.673 0.34999999
-15.715 20.084 -1.678 0.34
-15.826 20.096001 -1.684 0.33000001
-15.919 20.084 -1.687 0.33000001
-15.998 20.118 -1.693 0.34
-16.112 20.131001 -1.699 0.34999999
-16.229 20.146999 -1.705 0
-16.330999 20.143999 -1.71 0.12
-16.549999 20.153999 -1.72 0.47
-16.643 20.136999 -1.724 0.19
-16.724001 20.171 -1.729 0
-16.815001 20.152 -1.733 0.1
-16.952 20.186001 -1.7410001 0.17
-17.747 20.997 -1.825 0.28999999
-17.775999 20.896999 -1.8200001 0.28999999
-17.937 20.952999 -1.831 0.31
-18.055 20.957001 -1.837 0.34
-18.148001 20.997999 -1.844 0.31999999
-18.219 20.947001 -1.844 0.33000001
-18.334999 20.947001 -1.85 0.33000001
-18.466999 20.964001 -1.857 0.31999999
-18.591999 20.973 -1.864 0.31999999
-18.674 20.931999 -1.8660001 0.34999999
-18.782 20.921 -1.87 0.28999999
-18.868 20.950001 -1.876 0.25999999
-19.02 20.985001 -1.886 0.41
-19.122999 20.966999 -1.89 0.22
-19.208 20.927 -1.892 0.17
-19.294001 20.889 -1.8940001 0.38999999
-19.384001 20.854 -1.897 0.23
-19.459999 20.805 -1.898 0.23
-19.534 20.818001 -1.902 0.15000001
-19.618 20.777 -1.904 0.18000001
-19.697001 20.729 -1.906 0.12
-19.702 20.604 -1.899 0.090000004
-19.784 20.561001 -1.901 0.14
-19.854 20.504 -1.902 0.090000004
-19.959 20.483 -1.906 0.090000004
-20.011999 20.473 -1.908 0.15000001
-20.093 20.427 -1.91 0.090000004
-20.197001 20.403999 -1.914 0.090000004
-20.280001 20.360001 -1.916 0
-20.391001 20.343 -1.921 0
-20.500999 20.325001 -1.926 0
-20.599001 20.294001 -1.9299999 0
-20.663 20.292 -1.933 0
-20.799999 20.299 -1.9400001 0
-20.933001 20.301001 -1.947 0
-21.07 20.305 -1.955 0
-21.174 20.278 -1.959 0
-21.243 20.216 -1.96 0
-21.327 20.169001 -1.962 0
-21.358999 20.135 -1.962 0
-21.391001 20.039 -1.959 0
-21.451 19.969 -1.9579999 0
-21.500999 19.889999 -1.957 0
-21.538 19.799 -1.955 0
-21.606001 19.737 -1.955 0
-21.656 19.658001 -1.954 0
-21.634001 19.576 -1.949 0
-21.679001 19.493 -1.947 0
-21.719 19.406 -1.9450001 0
-21.749001 19.309999 -1.942 0
-21.791 19.226 -1.9400001 0
-21.848 19.155001 -1.9400001 0
-21.844 19.09 -1.936 0
-21.881001 19.002001 -1.934 0
-21.941 18.933001 -1.934 0
-22.002001 18.865 -1.934 0
-22.049 18.785999 -1.933 0
-22.115 18.723 -1.934 0
-22.177 18.656 -1.934 0
-22.222 18.575001 -1.933 0
-22.247999 18.537001 -1.933 0
-22.309999 18.471001 -1.933 0
-22.347 18.382999 -1.931 0
-22.415001 18.322001 -1.932 0
-22.471001 18.25 -1.932 0
-22.532 18.181999 -1.932 0
-22.589001 18.111 -1.932 0
-22.618 18.077 -1.932 0
-22.658001 17.992001 -1.931 0
-22.728001 17.931999 -1.932 0
-22.782 17.858 -1.932 0
-22.839001 17.787001 -1.932 0
-22.9 17.719 -1.932 0
-22.937 17.690001 -1.933 0
-23.007999 17.629999 -1.9349999 0
-23.084 17.573999 -1.937 0
-23.155001 17.513 -1.938 0
-23.215 17.444 -1.939 0
-23.322001 17.41 -1.943 0
-20.924 15.521 -1.7180001 0
-21.239 15.703 -1.745 0
-21.171 15.55 -1.734 0
-21.358 15.584 -1.747 0.13
-21.486 15.574 -1.7539999 0.28999999
-21.712 15.634 -1.77 0.2
-21.856001 15.634 -1.779 0.23999999
-21.954 15.6 -1.783 0.25999999
-22.101999 15.652 -1.794 0.36000001
-22.194 15.613 -1.798 0.31999999
-22.306999 15.587 -1.804 0.31
-22.416 15.559 -1.809 0.28
-22.473 15.494 -1.8099999 0.34999999
-22.688 15.537 -1.825 0.28999999
-22.847 15.541 -1.835 0.34999999
-22.973 15.573 -1.844 0.28999999
-22.985001 15.477 -1.841 0.30000001
-23.059999 15.422 -1.8430001 0.31999999
-23.132 15.365 -1.845 0.30000001
-23.211 15.313 -1.848 0.34999999
-23.448 15.364 -1.864 0.30000001
-23.635 15.38 -1.877 0.31
-23.657 15.342 -1.876 0.30000001
-23.757999 15.301 -1.881 0.30000001
-23.917999 15.298 -1.891 0.34
-24.027 15.261 -1.896 0.37
-24.070999 15.183 -1.896 0.31999999
-24.278999 15.208 -1.91 0.28999999
-24.372999 15.16 -1.914 0.27000001
-24.459 15.161 -1.919 0.34
-24.594999 15.138 -1.927 0.31
-24.707001 15.1 -1.932 0.31999999
-24.816 15.06 -1.938 0.27000001
-24.937 15.026 -1.944 0.36000001
-25.097 15.015 -1.954 0.31999999
-25.268 15.009 -1.964 0.31999999
-25.329 14.992 -1.9680001 0.31
-25.440001 14.95 -1.973 0.28
-25.59 14.93 -1.982 0.33000001
-25.847 14.971 -2 0.28999999
-25.865999 14.874 -1.997 0.33000001
-25.924999 14.8 -1.999 0.31999999
-26.153999 14.821 -2.0139999 0.30000001
-26.33 14.866 -2.027 0.28999999
-26.365999 14.778 -2.026 0.27000001
-26.531 14.761 -2.036 0.28999999
-26.618999 14.7 -2.04 0.31
-26.798 14.689 -2.0510001 0.31999999
-26.955 14.665 -2.0599999 0.27000001
-27.084999 14.626 -2.0669999 0.2
-27.266001 14.668 -2.0799999 0.47999999
-27.24 14.544 -2.0739999 0.18000001
-27.518 14.581 -2.0940001 0.14
-27.596001 14.511 -2.096 0
-27.749001 14.481 -2.105 0
-26.466999 13.708 -1.995 0
-26.659 13.701 -2.007 0
-26.794001 13.717 -2.017 0
-27.017 13.724 -2.0320001 0.07
-27.236 13.728 -2.046 0.18000001
-15.144 7.527 -1.045 0.19
-15.142 7.467 -1.043 0.61000001
-15.351 7.539 -1.059 0
-28.313999 13.772 -2.119 0
-28.504999 13.754 -2.131 0
-28.584 13.681 -2.1340001 0
-28.884001 13.713 -2.155 0
-29.111 13.709 -2.1700001 0
-29.264999 13.669 -2.1789999 0
-29.290001 13.625 -2.1789999 0
-29.594999 13.653 -2.201 0
-29.774 13.623 -2.2119999 0
-29.895 13.564 -2.2179999 0
-29.961 13.481 -2.22 0
-29.999001 13.385 -2.2190001 0
-30.112 13.322 -2.2249999 0
-27.781 12.241 -2.036 0
-27.986 12.226 -2.049 0
-28.219999 12.223 -2.0650001 0
-28.486 12.232 -2.0829999 0
-28.733 12.231 -2.0999999 0
-28.996 12.235 -2.118 0
-29.239 12.229 -2.1340001 0
-29.445 12.207 -2.148 0
-29.726999 12.269 -2.1689999 0
-29.965 12.257 -2.184 0
-30.035 12.175 -2.187 0
-30.384001 12.206 -2.2119999 0
-30.636 12.195 -2.2290001 0
-30.700001 12.109 -2.2309999 0
-30.715 12.059 -2.23 0
-30.848 11.999 -2.2379999 0
-30.858999 11.892 -2.2360001 0
-30.959999 11.819 -2.2409999 0
-31.084 11.755 -2.2479999 0
-31.122999 11.658 -2.2479999 0.090000004
-30.905001 11.466 -2.2279999 0.090000004
-31.09 11.479 -2.2409999 0.090000004
-31.059999 11.357 -2.2360001 0
-31.403 11.371 -2.26 0.12
-31.341 11.237 -2.2520001 0
-31.466 11.171 -2.2590001 0.13
-31.316999 11.007 -2.2449999 0.23
-31.583 11.045 -2.2639999 0
-31.657 10.959 -2.267 0
-31.736 10.875 -2.2709999 0
-30.24 10.257 -2.152 0
-30.514 10.243 -2.171 0
-30.870001 10.255 -2.1960001 0
-31.212999 10.26 -2.22 0
-31.521 10.306 -2.243 0
-31.829 10.296 -2.2639999 0
-32.139999 10.285 -2.2850001 0
-32.439999 10.268 -2.306 0
-32.547001 10.19 -2.312 0
-33.019001 10.223 -2.346 0
-33.098 10.134 -2.3499999 0
-33.235001 10.062 -2.358 0
-33.497002 10.083 -2.3770001 0
-33.551998 9.9849997 -2.378 0.07
-33.769001 9.934 -2.3929999 0.079999998
-33.694 9.7969999 -2.385 0.079999998
-33.620998 9.6619997 -2.3770001 0
-33.716999 9.5740004 -2.382 0
-33.974998 9.5319996 -2.3989999 0
-31.431 8.7670002 -2.2030001 0
-31.85 8.776 -2.233 0
-32.276001 8.7840004 -2.2639999 0
-32.672001 8.7810001 -2.2920001 0
-33.070999 8.7770004 -2.3199999 0
-33.237999 8.71 -2.3310001 0
-33.598999 8.7480001 -2.3570001 0
-33.813999 8.6899996 -2.3710001 0
-33.917999 8.6029997 -2.3770001 0
-33.900002 8.4860001 -2.3740001 0
-33.84 8.3579998 -2.3670001 0.07
-33.634998 8.1949997 -2.3499999 0.13
-33.549999 8.0629997 -2.3410001 0.15000001
-33.567001 8.0109997 -2.342 0.25
-33.418999 7.8649998 -2.329 0.14
-33.349998 7.7389998 -2.322 0.37
-33.213001 7.5970001 -2.309 0.25
-33.119999 7.4660001 -2.3010001 0.2
-33.192001 7.3730001 -2.3039999 0.28999999
-33.375999 7.3039999 -2.3169999 0.18000001
-33.534 7.283 -2.3280001 0.23999999
-33.800999 7.23 -2.346 0.16
-34.176998 7.198 -2.3729999 0.16
-34.344002 7.1199999 -2.3829999 0
-34.294998 6.9980001 -2.378 0
-34.214001 6.869 -2.3699999 0
-34.18 6.7509999 -2.3659999 0
-34.172001 6.638 -2.3640001 0
-34.206001 6.5890002 -2.3659999 0
-34.222 6.4809999 -2.365 0
-34.238998 6.3720002 -2.365 0
-34.257999 6.2649999 -2.365 0
-34.301998 6.1609998 -2.3670001 0
-34.328999 6.0549998 -2.368 0
-34.352001 6.0029998 -2.369 0
-34.414001 5.9029999 -2.372 0
-34.442001 5.796 -2.3729999 0
-34.491001 5.6929998 -2.375 0
-34.539001 5.5900002 -2.3770001 0
-34.560001 5.4819999 -2.3770001 0
-34.603001 5.3769999 -2.3789999 0
-34.609001 5.322 -2.3789999 0
-34.608002 5.211 -2.378 0
-34.630001 5.1030002 -2.378 0
-34.658001 4.9959998 -2.3789999 0
-34.667 4.8860002 -2.3789999 0
-34.681 4.777 -2.3789999 0
-34.699001 4.6690001 -2.3789999 0
-34.734001 4.618 -2.381 0
-34.761002 4.5100002 -2.382 0
-34.798 4.4039998 -2.3840001 0
-34.832001 4.2969999 -2.385 0
-34.879002 4.1919999 -2.388 0
-34.938999 4.0879998 -2.391 0
-34.950001 3.9779999 -2.391 0
-34.986 3.9260001 -2.3929999 0
-35.018002 3.8180001 -2.395 0
-35.02 3.707 -2.3940001 0
-35.030998 3.5969999 -2.3940001 0
-35.077999 3.49 -2.3959999 0
-35 3.372 -2.3900001 0
-35.087002 3.2690001 -2.3959999 0
-35.075001 3.2119999 -2.3940001 0
-35.087002 3.102 -2.3940001 0
-35.127998 2.9949999 -2.3970001 0
-35.138 2.773 -2.3959999 0.23
-35.431 2.684 -2.4170001 0
-35.310001 2.5639999 -2.408 0
-35.344002 2.51 -2.4100001 0
-35.368 2.4000001 -2.411 0
-35.409 2.2909999 -2.414 0
-35.419998 2.1800001 -2.414 0
-35.444 2.0699999 -2.415 0
-35.479 1.96 -2.4170001 0
-35.501999 1.85 -2.4189999 0
-35.530998 1.795 -2.4200001 0
-35.567001 1.6849999 -2.4230001 0
-35.604 1.574 -2.425 0
-35.632 1.464 -2.427 0
-35.657001 1.352 -2.428 0
-35.653 1.24 -2.428 0
-35.661999 1.128 -2.428 0
-35.678001 1.073 -2.4289999 0
-35.659 0.95999998 -2.428 0
-35.667999 0.84799999 -2.428 0
-35.671001 0.736 -2.428 0
-35.676998 0.62400001 -2.428 0
-35.693001 0.51200002 -2.4289999 0
-35.692001 0.40000001 -2.4289999 0
-35.709999 0.34400001 -2.4300001 0
-35.716999 0.23199999 -2.431 0
-35.734001 0.12 -2.4319999 0
-35.748001 0.0070000002 -2.4330001 0
-35.754002 -0.105 -2.434 0
-35.775002 -0.21699999 -2.4349999 0
-35.77 -0.33000001 -2.4349999 0
-35.666 -0.44100001 -2.427 0
-35.666 -0.55299997 -2.427 0
-35.675999 -0.66500002 -2.428 0
-35.645 -0.72000003 -2.4260001 0
-35.640999 -0.83200002 -2.4260001 0
-35.627998 -0.94400001 -2.425 0
-35.653 -1.057 -2.427 0
-35.681 -1.17 -2.4300001 0
-35.696999 -1.283 -2.431 0
-35.685001 -1.395 -2.4300001 0.090000004
-35.811001 -1.569 -2.4400001 0.19
-35.533001 -1.668 -2.4200001 0.18000001
-35.060001 -1.756 -2.3859999 0.27000001
-34.407001 -1.831 -2.3380001 0.23999999
-33.382999 -1.881 -2.263 0.11
-32.855999 -1.955 -2.224 0.14
-32.291 -1.971 -2.1830001 0.23
-32.168999 -2.0650001 -2.174 0.25999999
-32.073002 -2.1600001 -2.168 0
-32.709 -2.3069999 -2.2149999 0
-33.896999 -2.4990001 -2.303 0.1
-31.968 -2.4560001 -2.161 0.17
-31.639999 -2.4809999 -2.1370001 0.22
-31.783001 -2.592 -2.1489999 0.19
-31.938 -2.7060001 -2.161 0.16
-31.794001 -2.7939999 -2.151 0.34
-31.462999 -2.865 -2.1270001 0.14
-31.309 -2.95 -2.1159999 0.16
-28.433001 -2.767 -1.904 0.079999998
-31.761 -3.1440001 -2.151 0.16
-31.938 -3.263 -2.164 0.12
-31.587999 -3.3269999 -2.1389999 0.079999998
-23.139999 -2.651 -1.515 0.77999997
-23.098 -2.72 -1.512 0
-30.172001 -3.609 -2.0380001 0
-32.924999 -4.046 -2.243 0.07
-32.313 -4.073 -2.1989999 0
-32.118 -4.151 -2.1849999 0.13
-31.759001 -4.2049999 -2.1589999 0.090000004
-31.576 -4.2820001 -2.1470001 0
-32.139 -4.4619999 -2.1900001 0
-32.431 -4.6059999 -2.2130001 0
-32.049999 -4.6030002 -2.1849999 0
-32.092999 -4.7129998 -2.1889999 0
-26.299 -3.9419999 -1.758 0
-32.084 -4.9169998 -2.191 0
-32.25 -5.0469999 -2.204 0.059999999
-32.014999 -5.1129999 -2.188 0
-31.346001 -5.0560002 -2.138 0
-32.005001 -5.2659998 -2.1889999 0.12
-31.191 -5.2319999 -2.1289999 0
-30.882 -5.2800002 -2.1070001 0
-32.215 -5.6129999 -2.2079999 0
-31.834 -5.6500001 -2.181 0
-30.731001 -5.553 -2.0999999 0.090000004
-31.865999 -5.8099999 -2.1860001 0.22
-31.979 -5.9349999 -2.1960001 0.25999999
-31.983 -6.04 -2.197 0.27000001
-31.650999 -6.0799999 -2.174 0
-31.674999 -6.1880002 -2.177 0.13
-31.615999 -6.2789998 -2.174 0.12
-31.362 -6.3309999 -2.1559999 0.14
-31.452999 -6.401 -2.164 0.18000001
-29.028999 -6.0009999 -1.983 0.1
-31.483 -6.6129999 -2.1689999 0
-31.124001 -6.6399999 -2.1440001 0.11
-31.281 -6.776 -2.1570001 0.1
-31.142 -6.849 -2.148 0
-31.316999 -6.9910002 -2.1630001 0.12
-30.028 -6.7509999 -2.0669999 0.16
-30.603001 -6.9819999 -2.112 0.16
-30.674999 -7.0999999 -2.119 0.090000004
-30.615 -7.1880002 -2.1159999 0.15000001
-30.240999 -7.1999998 -2.0899999 0.12
-29.815001 -7.197 -2.059 0.19
-30.329 -7.4229999 -2.0999999 0.11
-29.76 -7.3319998 -2.0569999 0.18000001
-29.344 -7.3270001 -2.027 0.2
-29.361 -7.4299998 -2.0309999 0.40000001
-29.268 -7.5040002 -2.0250001 0.14
-29.205999 -7.586 -2.0220001 0.41999999
-29.004999 -7.631 -2.0090001 0.22
-28.525999 -7.5999999 -1.974 0.20999999
-28.462 -7.631 -1.97 0.1
-36.951 -10.04 -2.6210001 0.14
-36.608002 -10.07 -2.5969999 0.18000001
-36.323002 -10.114 -2.5769999 0.23
-36.026001 -10.154 -2.5569999 0.17
-35.703999 -10.184 -2.5350001 0.33000001
-35.32 -10.194 -2.5079999 0.19
-35.007 -10.163 -2.4849999 0.36000001
-34.701 -10.192 -2.464 0.17
-34.483002 -10.246 -2.45 0.27000001
-34.373001 -10.331 -2.444 0.18000001
-34.27 -10.417 -2.438 0.18000001
-34.094002 -10.481 -2.427 0.41
-34.087002 -10.596 -2.4289999 0.23
-34.084 -10.654 -2.4300001 0.31999999
-34.202 -10.809 -2.4419999 0
-34.062 -10.882 -2.434 0
-33.759998 -10.903 -2.4130001 0
-37.571999 -12.267 -2.711 0
-33.776001 -11.143 -2.4200001 0
-37.423 -12.414 -2.704 0
-37.348 -12.519 -2.7019999 0.11
-37.196999 -12.599 -2.6930001 0.2
-36.877998 -12.62 -2.671 0.25999999
-36.582001 -12.647 -2.651 0.25999999
-36.416 -12.718 -2.641 0
-36.224998 -12.779 -2.6300001 0
-35.903 -12.792 -2.6070001 0
-35.653999 -12.766 -2.5899999 0
-35.425999 -12.81 -2.575 0
-35.060001 -12.802 -2.549 0.059999999
-34.696999 -12.793 -2.5239999 0
-34.439999 -12.821 -2.507 0
-34.118 -12.823 -2.4849999 0
-33.828999 -12.836 -2.4649999 0
-33.526001 -12.781 -2.4430001 0
-33.283001 -12.808 -2.427 0.07
-33.060001 -12.842 -2.4119999 0.18000001
-32.737999 -12.835 -2.3900001 0
-32.499001 -12.859 -2.3740001 0.07
-32.240002 -12.873 -2.3570001 0
-31.996 -12.892 -2.3410001 0.07
-31.764999 -12.857 -2.3239999 0.090000004
-31.455999 -12.847 -2.303 0.11
-30.885 -12.727 -2.26 0.23999999
-30.764 -12.79 -2.2539999 0
-30.503 -12.794 -2.2360001 0
-30.261999 -12.805 -2.22 0
-30.055 -12.773 -2.2049999 0.12
-29.653999 -12.712 -2.1760001 0.2
-29.663 -12.826 -2.1800001 0.38
-29.546 -12.886 -2.174 0.11
-29.294001 -12.885 -2.1570001 0.090000004
-29.073999 -12.898 -2.1429999 0.14
-28.863001 -12.912 -2.1289999 0.22
-28.688 -12.888 -2.1159999 0.11
-28.482 -12.903 -2.1029999 0.14
-28.280001 -12.919 -2.0899999 0.23
-28.069 -12.929 -2.076 0.12
-27.778 -12.901 -2.056 0.28
-27.458 -12.857 -2.033 0.1
-27.405001 -12.937 -2.0320001 0.090000004
-27.190001 -12.888 -2.016 0.079999998
-26.982 -12.893 -2.0020001 0.079999998
-26.789 -12.904 -1.99 0.14
-26.599001 -12.915 -1.978 0.090000004
-26.395 -12.919 -1.964 0
-26.209999 -12.93 -1.952 0.12
-25.959999 -12.908 -1.9349999 0.12
-25.868999 -12.913 -1.929 0.33000001
-25.671 -12.916 -1.916 0.16
-25.500999 -12.93 -1.906 0.17
-25.181 -12.868 -1.883 0.23
-25.158001 -12.956 -1.8839999 0.13
-24.997 -12.972 -1.874 0.28999999
-24.816999 -12.977 -1.862 0.19
-24.646 -12.937 -1.85 0.17
-24.48 -12.949 -1.839 0.41
-24.290001 -12.945 -1.827 0.19
-24.072001 -12.926 -1.812 0.33000001
-23.929001 -12.947 -1.804 0.27000001
-23.768 -12.956 -1.793 0.30000001
-23.577 -12.948 -1.781 0.14
-23.211 -12.794 -1.752 0.30000001
-23.08 -12.816 -1.744 0.41
-22.798 -12.753 -1.724 0.28999999
-22.622 -12.748 -1.712 0.25
-22.414 -12.723 -1.698 0.34
-22.299 -12.751 -1.692 0.38
-22.205 -12.79 -1.687 0.36000001
-22.113001 -12.783 -1.681 0.41
-21.983 -12.8 -1.673 0.33000001
-21.615999 -12.677 -1.645 0.20999999
-21.464001 -12.679 -1.636 0.2
-21.354 -12.704 -1.63 0.36000001
-21.242001 -12.728 -1.623 0.38999999
-21.177 -12.779 -1.6210001 0.23
-21.382999 -12.95 -1.641 0.57999998
-21.257999 -12.965 -1.633 0.20999999
-20.921 -12.85 -1.608 0.20999999
-20.511 -12.687 -1.576 0.37
-20.475 -12.753 -1.576 0.31
-20.360001 -12.771 -1.5700001 0.36000001
-20.302999 -12.779 -1.566 0.23999999
-20.040001 -12.702 -1.5470001 0.5
-19.905001 -12.703 -1.539 0.23999999
-19.802999 -12.726 -1.533 0.38999999
-19.677 -12.733 -1.526 0.34999999
-19.370001 -12.62 -1.502 0.37
-19.334999 -12.684 -1.503 0.33000001
-19.309999 -12.711 -1.502 0.38
-19.264999 -12.768 -1.502 0.34999999
-19.172001 -12.793 -1.497 0.37
-19.046 -12.796 -1.489 0.31
-18.919001 -12.797 -1.482 0.44
-19.370001 -13.192 -1.526 0.16
-18.679001 -12.806 -1.467 0.37
-18.518 -12.738 -1.455 0.34999999
-18.347 -12.705 -1.443 0.41
-18.271999 -12.739 -1.4400001 0.25
-18.195 -12.77 -1.437 0.52999997
-18.032 -12.74 -1.426 0.31999999
-17.872 -12.711 -1.415 0.27000001
-17.780001 -12.73 -1.41 0.46000001
-17.691 -12.708 -1.404 0.37
-17.731001 -12.822 -1.411 0.33000001
-17.546 -12.772 -1.398 0.33000001
-17.413 -12.758 -1.3890001 0.31999999
-17.238001 -12.713 -1.377 0.5
-17.177999 -12.753 -1.375 0.28999999
-16.976 -12.685 -1.36 0.5
-16.968 -12.721 -1.3609999 0.43000001
-16.933001 -12.778 -1.362 0.25
-16.848 -12.798 -1.358 0.47
-16.832001 -12.869 -1.36 0.47999999
-16.830999 -12.952 -1.364 0.30000001
-16.848 -13.05 -1.369 0.15000001
-16.395 -12.781 -1.33 0.41
-16.35 -12.787 -1.3279999 0.34
-16.222 -12.769 -1.3200001 0.34
-16.188 -12.825 -1.3200001 0.23
-15.992 -12.751 -1.306 0.47999999
-15.965 -12.811 -1.307 0.28999999
-15.889 -12.833 -1.304 0.46000001
-15.856 -12.848 -1.302 0.36000001
-15.729 -12.827 -1.294 0.38
-15.692 -12.879 -1.294 0.47999999
-15.57 -12.86 -1.2869999 0.36000001
-15.471 -12.861 -1.281 0.28999999
-15.392 -12.877 -1.277 0.31
-15.306 -12.887 -1.273 0.34
-15.417 -13.022 -1.286 0.20999999
-15.591 -13.254 -1.307 0.34999999
-15.6 -13.431 -1.3150001 0.34
-15.475 -13.408 -1.307 0.55000001
-14.728 -12.841 -1.238 0.28999999
-14.659 -12.862 -1.2359999 0.30000001
-14.561 -12.816 -1.228 0.30000001
-14.481 -12.826 -1.224 0.36000001
-14.399 -12.835 -1.22 0.41
-14.356 -12.877 -1.22 0.44999999
-14.321 -12.927 -1.22 0.41999999
-14.391 -13.073 -1.2309999 0.38999999
-14.578 -13.327 -1.2539999 0.17
-14.015 -12.852 -1.2 0.60000002
-13.97 -12.892 -1.199 0.27000001
-13.845 -12.857 -1.191 0.28999999
-13.644 -12.75 -1.175 0.51999998
-13.626 -12.813 -1.177 0.25
-13.574 -12.845 -1.176 0.47
-13.561 -12.914 -1.178 0.2
-13.474 -12.872 -1.1720001 0.33000001
-13.335 -12.819 -1.1619999 0.52999997
-13.207 -12.776 -1.153 0.28999999
-13.074 -12.727 -1.143 0.40000001
-13.009 -12.742 -1.14 0.31
-12.754 -12.571 -1.118 0.44
-12.754 -12.651 -1.122 0.47999999
-12.857 -12.793 -1.135 0.47999999
-12.801 -12.818 -1.133 0.31
-12.718 -12.814 -1.1289999 0.25999999
-12.609 -12.785 -1.122 0.28999999
-12.52 -12.774 -1.117 0.44999999
-12.475 -12.809 -1.1160001 0.38999999
-12.41 -12.823 -1.113 0.31999999
-12.336 -12.786 -1.108 0.28999999
-12.271 -12.799 -1.105 0.34999999
-12.202 -12.807 -1.102 0.34
-12.134 -12.816 -1.099 0.33000001
-12.05 -12.808 -1.094 0.25999999
-12.002 -12.837 -1.0930001 0.34999999
-11.94 -12.81 -1.089 0.23999999
-11.911 -12.861 -1.09 0.43000001
-11.821 -12.844 -1.085 0.28999999
-11.793 -12.894 -1.086 0.20999999
-11.715 -12.89 -1.082 0.31
-11.617 -12.863 -1.076 0.40000001
-11.547 -12.866 -1.072 0.44
-11.482 -12.834 -1.067 0.28
-11.406 -12.83 -1.063 0.54000002
-11.373 -12.874 -1.064 0.23999999
-11.281 -12.852 -1.059 0.56999999
-11.169 -12.804 -1.051 0.31999999
-11.125 -12.835 -1.05 0.5
-11.078 -12.862 -1.049 0.30000001
-10.973 -12.781 -1.04 0.44999999
-10.945 -12.829 -1.041 0.28999999
-10.839 -12.786 -1.034 0.51999998
-10.836 -12.864 -1.038 0.30000001
-10.747 -12.84 -1.0319999 0.44999999
-10.683 -12.846 -1.03 0.41
-10.63 -12.864 -1.028 0.43000001
-10.685 -12.971 -1.0369999 0.38999999
-10.585 -12.932 -1.03 0.47999999
-10.446 -12.845 -1.018 0.25
-10.446 -12.927 -1.023 0.54000002
-10.292 -12.818 -1.01 0.36000001
-10.23 -12.824 -1.007 0.37
-10.092 -12.732 -0.99599999 0.28999999
-10.06 -12.732 -0.99400002 0.63999999
-10.124 -12.898 -1.007 0.28999999
-10.102 -12.953 -1.0089999 0.34999999
-9.9420004 -12.83 -0.995 0.63
-9.8579998 -12.804 -0.98900002 0.25
-10.07 -13.166 -1.02 0.31999999
-9.9540005 -13.099 -1.011 0.43000001
-9.7930002 -12.929 -0.99400002 0.41999999
-9.6300001 -12.797 -0.97899997 0.41999999
-9.5609999 -12.789 -0.97500002 0.46000001
-9.691 -13.048 -0.99599999 0.31999999
-9.5220003 -12.905 -0.98000002 0.5
-9.3959999 -12.817 -0.97000003 0.43000001
-9.3599997 -12.853 -0.97000003 0.43000001
-9.3590002 -12.893 -0.972 0.38
-9.2629995 -12.847 -0.96600002 0.50999999
-9.2080002 -12.855 -0.96399999 0.34999999
-9.0419998 -12.706 -0.94800001 0.47999999
-9.1289997 -12.915 -0.96399999 0.28999999
-9.0839996 -12.937 -0.963 0.41
-9.0679998 -12.958 -0.96399999 0.56
-9.0570002 -13.029 -0.96799999 0.34
-8.9969997 -13.03 -0.96499997 0.38999999
-8.8690004 -12.931 -0.954 0.38999999
-8.6990004 -12.768 -0.93699998 0.50999999
-8.7069998 -12.868 -0.94300002 0.27000001
-8.8789997 -13.211 -0.97100002 0.56999999
-8.677 -12.953 -0.94700003 0.31999999
-8.5389996 -12.834 -0.93400002 0.31999999
-8.434 -12.763 -0.926 0.63999999
-8.382 -12.771 -0.92400002 0.36000001
-8.6940002 -13.339 -0.972 0.34
-8.632 -13.336 -0.96899998 0.38
-8.5769997 -13.343 -0.96700001 0.44999999
-8.3330002 -13.007 -0.93699998 0.43000001
-8.4820004 -13.333 -0.963 0.31999999
-8.1879997 -12.959 -0.92799997 0.50999999
-8.2229996 -13.105 -0.93900001 0.36000001
-8.6020002 -13.809 -0.99699998 0.2
-8.5950003 -13.893 -1.002 0.63999999
-8.5249996 -13.878 -0.99900001 0.20999999
-8.5209999 -13.92 -1.001 0.55000001
-8.0200005 -13.193 -0.93599999 0.23
-7.8499999 -13.004 -0.91799998 0.43000001
-7.7319999 -12.898 -0.90700001 0.30000001
-7.6409998 -12.839 -0.89899999 0.55000001
-7.6110001 -12.88 -0.90100002 0.31999999
-7.552 -12.873 -0.898 0.58999997
-7.493 -12.817 -0.89300001 0.22
-7.4990001 -12.92 -0.89899999 0.28999999
-7.3829999 -12.812 -0.88800001 0.61000001
-7.3579998 -12.863 -0.88999999 0.2
-7.4320002 -13.089 -0.90799999 0.28
-7.375 -13.083 -0.90499997 0.61000001
-7.3039999 -13.054 -0.90100002 0.40000001
-7.2449999 -12.995 -0.89499998 0.28
-7.1739998 -12.962 -0.88999999 0.43000001
-7.2199998 -13.144 -0.90399998 0.43000001
-7.0630002 -12.954 -0.88599998 0.23
-6.9640002 -12.868 -0.87699997 0.52999997
-6.9219999 -12.886 -0.87599999 0.34
-6.8759999 -12.899 -0.87599999 0.44
-6.8390002 -12.878 -0.87300003 0.47
-6.8189998 -12.938 -0.87599999 0.38
-6.8499999 -13.098 -0.88800001 0.44
-6.8309999 -13.162 -0.89099997 0.23
-6.7680001 -13.14 -0.88800001 0.51999998
-6.585 -12.882 -0.86500001 0.38
-6.4780002 -12.771 -0.85399997 0.34999999
-6.4970002 -12.86 -0.86000001 0.34
-6.461 -12.889 -0.861 0.54000002
-6.4759998 -13.022 -0.87 0.38999999
-6.4419999 -13.055 -0.87099999 0.33000001
-6.4970002 -13.274 -0.88800001 0.27000001
-6.829 -14.067 -0.95099998 0.46000001
-6.4559999 -13.348 -0.89099997 0.28999999
-6.3610001 -13.258 -0.88200003 0.34999999
-7.1810002 -15.097 -1.03 0.36000001
-7.0780001 -15 -1.021 0.18000001
-6.4499998 -13.777 -0.91900003 0.41
-6.0380001 -12.998 -0.85500002 0.25999999
-5.9879999 -12.999 -0.85299999 0.56999999
-6.0009999 -13.081 -0.85900003 0.23
-5.8699999 -12.902 -0.84299999 0.58999997
-5.9559999 -13.202 -0.866 0.28999999
-5.848 -13.07 -0.85399997 0.33000001
-5.7470002 -12.953 -0.84299999 0.41
-5.612 -12.755 -0.82499999 0.37
-5.5370002 -12.694 -0.81900001 0.43000001
-5.5749998 -12.835 -0.82999998 0.58999997
-5.6259999 -13.182 -0.85500002 0.57999998
-5.3969998 -12.865 -0.82599998 0.44999999
-5.3629999 -12.899 -0.82800001 0.38
-5.257 -12.757 -0.815 0.40000001
-5.2480001 -12.791 -0.81699997 0.30000001
-5.223 -12.844 -0.81999999 0.41999999
-5.1950002 -12.892 -0.82300001 0.69
-5.1269999 -12.84 -0.81699997 0.38999999
-5.0900002 -12.863 -0.81800002 0.36000001
-5.0510001 -12.883 -0.81800002 0.28999999
-5.0019999 -12.816 -0.81199998 0.62
-4.9770002 -12.873 -0.815 0.25999999
-4.9590001 -12.948 -0.81999999 0.44
-4.9029999 -12.923 -0.81699997 0.44999999
-4.8520002 -12.91 -0.815 0.2
-4.7909999 -12.871 -0.81 0.56999999
-5.3189998 -14.435 -0.93199998 0.30000001
-4.6820002 -12.76 -0.80000001 0.31999999
-4.6490002 -12.794 -0.801 0.51999998
-4.6090002 -12.808 -0.801 0.28
-4.5679998 -12.823 -0.801 0.58999997
-4.5170002 -12.805 -0.79900002 0.28999999
-4.4689999 -12.798 -0.79699999 0.41
-4.4289999 -12.812 -0.79699999 0.44
-4.4120002 -12.829 -0.79799998 0.43000001
-4.369 -12.835 -0.79799998 0.36000001
-4.335 -12.866 -0.79900002 0.47
-4.2470002 -12.737 -0.78799999 0.38
-4.1939998 -12.709 -0.78500003 0.46000001
-4.1620002 -12.746 -0.787 0.34
-4.2379999 -13.122 -0.815 0.58999997
-4.2470002 -13.222 -0.82200003 0.16
-4.1880002 -13.18 -0.81800002 0.43000001
-4.0469999 -12.875 -0.79299998 0.44
-3.9560001 -12.868 -0.79000002 0.5
-3.9100001 -12.859 -0.78899997 0.38
-3.8540001 -12.82 -0.78500003 0.5
-3.848 -12.876 -0.78899997 0.41
-3.8180001 -12.922 -0.79100001 0.30000001
-3.7539999 -12.854 -0.78500003 0.41
-3.691 -12.787 -0.77899998 0.40000001
-3.681 -12.904 -0.787 0.50999999
-3.697 -13.119 -0.80299997 0.22
-3.559 -12.7 -0.76999998 0.38
-3.533 -12.763 -0.77399999 0.38999999
-3.4809999 -12.73 -0.77100003 0.41
-3.4560001 -12.797 -0.77499998 0.41999999
-3.4119999 -12.792 -0.77399999 0.50999999
-3.3900001 -12.876 -0.77999997 0.2
-3.5880001 -13.808 -0.85000002 0.68000001
-3.3099999 -12.815 -0.77399999 0.34999999
-3.273 -12.838 -0.77499998 0.25
-3.1960001 -12.7 -0.76300001 0.47999999
-3.1429999 -12.657 -0.759 0.47999999
-3.1199999 -12.735 -0.76499999 0.28999999
-3.082 -12.754 -0.76499999 0.47999999
-3.056 -12.826 -0.76999998 0.43000001
-3.039 -12.843 -0.77100003 0.43000001
-2.9909999 -12.821 -0.76899999 0.46000001
-3.4430001 -14.989 -0.93199998 0.44999999
-2.951 -13.019 -0.78200001 0.20999999
-2.8829999 -12.903 -0.773 0.23
-2.806 -12.746 -0.75999999 0.44
-2.779 -12.816 -0.76499999 0.44999999
-2.766 -12.855 -0.76700002 0.31
-2.6989999 -12.735 -0.75800002 0.47
-2.6570001 -12.737 -0.75700003 0.38
-2.6259999 -12.789 -0.75999999 0.44
-2.5880001 -12.807 -0.76099998 0.5
-2.9449999 -14.836 -0.91299999 0.25
-2.506 -12.817 -0.76099998 0.38999999
-2.4860001 -12.819 -0.76099998 0.55000001
-2.4549999 -12.876 -0.764 0.38
-2.392 -12.764 -0.755 0.60000002
-2.369 -12.865 -0.76200002 0.38
-2.3239999 -12.845 -0.75999999 0.36000001
-2.286 -12.866 -0.76099998 0.49000001
-2.2550001 -12.807 -0.75700003 0.31
-2.178 -12.598 -0.74000001 0.41
-2.142 -12.628 -0.74199998 0.44
-2.099 -12.617 -0.741 0.38999999
-2.0680001 -12.677 -0.745 0.46000001
-2.0469999 -12.799 -0.75400001 0.28999999
-2.0139999 -12.855 -0.75700003 0.55000001
-1.977 -12.75 -0.74900001 0.31
-1.929 -12.701 -0.745 0.40000001
-1.8890001 -12.708 -0.745 0.56999999
-1.8839999 -12.955 -0.76300001 0.34
-1.819 -12.785 -0.75 0.37
-1.783 -12.821 -0.75199997 0.47
-1.7359999 -12.779 -0.74900001 0.28999999
-1.712 -12.752 -0.74699998 0.47
-1.67 -12.743 -0.745 0.37
-1.613 -12.614 -0.73500001 0.49000001
-1.581 -12.682 -0.74000001 0.36000001
-1.538 -12.659 -0.73799998 0.49000001
-1.5549999 -13.15 -0.77399999 0.57999998
-1.492 -12.964 -0.75999999 0.13
-1.483 -13.067 -0.76800001 0.14
-1.409 -12.769 -0.745 0.34999999
-1.364 -12.731 -0.74199998 0.62
-1.3329999 -12.819 -0.74800003 0.43000001
-1.296 -12.855 -0.75 0.44
-1.29 -13.226 -0.778 0.30000001
-1.24 -13.131 -0.76999998 0.2
-1.183 -12.737 -0.741 0.28
-1.1390001 -12.695 -0.73799998 0.63999999
-1.187 -13.736 -0.81400001 0.23999999
-1.064 -12.762 -0.74199998 0.38
-1.021 -12.722 -0.73900002 0.56999999
-0.98799998 -12.818 -0.74599999 0.44999999
-0.95200002 -12.891 -0.75099999 0.22
-0.92299998 -12.755 -0.741 0.55000001
-0.88499999 -12.802 -0.74400002 0.31999999
-0.85100001 -12.892 -0.75 0.63999999
-0.85399997 -13.611 -0.80299997 0.38
-0.78799999 -13.21 -0.77399999 0.30000001
-0.74299997 -13.16 -0.76999998 0.57999998
-0.72100002 -13.134 -0.76800001 0.20999999
-0.67699999 -13.07 -0.76300001 0.43000001
-0.63099998 -12.968 -0.755 0.28999999
-0.59500003 -13.084 -0.764 0.36000001
-0.56 -13.241 -0.77499998 0.47
-0.509 -12.984 -0.75599998 0.27000001
-0.63200003 -17.788 -1.11 0.31999999
-0.59600002 -17.555 -1.0930001 0.2
-0.40400001 -12.894 -0.74900001 0.23999999
-0.38299999 -13.623 -0.80299997 0.49000001
-0.32600001 -13.02 -0.75800002 0.25999999
-0.28299999 -12.889 -0.74800003 0.17
-0.242 -12.898 -0.74900001 0.36000001
-0.206 -13.198 -0.77100003 0.41
-0.182 -12.953 -0.75300002 0.31
-0.142 -13.067 -0.76099998 0.64999998
-0.111 -14.826 -0.89099997 0.27000001
-0.059999999 -13.137 -0.76700002 0.18000001
-0.018999999 -13.018 -0.75800002 0.56999999
0.021 -12.896 -0.74900001 0.31999999
0.061999999 -12.898 -0.74900001 0.31999999
0.082000002 -12.872 -0.74699998 0.69
0.123 -12.899 -0.74900001 0.34
0.16599999 -13.124 -0.76599997 0.5
0.208 -13.126 -0.76599997 0.31999999
0.24699999 -13.049 -0.75999999 0.61000001
0.28999999 -13.11 -0.76499999 0.30000001
0.368 -14.461 -0.86400002 0.15000001
0.35800001 -13.33 -0.78100002 0.47999999
0.38600001 -12.882 -0.74800003 0.27000001
0.426 -12.871 -0.74699998 0.54000002
0.46799999 -12.912 -0.75 0.18000001
0.50400001 -12.808 -0.74299997 0.52999997
0.546 -12.853 -0.74599999 0.38999999
0.56699997 -12.87 -0.74800003 0.44999999
0.60799998 -12.872 -0.74800003 0.55000001
0.648 -12.87 -0.74800003 0.44999999
0.68800002 -12.858 -0.74699998 0.23999999
0.73000002 -12.871 -0.74800003 0.47
0.76999998 -12.877 -0.74900001 0.38
0.81 -12.859 -0.74800003 0.40000001
0.83099997 -12.873 -0.74900001 0.28999999
0.87099999 -12.863 -0.74800003 0.52999997
0.91299999 -12.888 -0.75 0.31999999
0.95200002 -12.865 -0.74900001 0.68000001
1.012 -13.102 -0.76700002 0.27000001
1.0369999 -12.904 -0.75199997 0.31999999
1.08 -12.927 -0.75400001 0.57999998
1.1 -12.925 -0.75400001 0.27000001
1.141 -12.926 -0.755 0.5
1.177 -12.874 -0.75099999 0.38
1.221 -12.904 -0.75400001 0.38
1.256 -12.845 -0.74900001 0.52999997
1.3099999 -12.978 -0.75999999 0.31
1.357 -13.031 -0.764 0.51999998
1.375 -13.003 -0.76200002 0.22
1.4 -12.858 -0.75199997 0.37
1.443 -12.871 -0.75300002 0.43000001
1.5 -13.015 -0.764 0.25999999
1.525 -12.878 -0.75400001 0.54000002
1.587 -13.041 -0.76700002 0.23999999
1.587 -12.88 -0.755 0.41
1.626 -12.861 -0.75400001 0.34
1.6569999 -12.785 -0.74800003 0.31999999
1.698 -12.788 -0.74900001 0.58999997
1.751 -12.875 -0.75599998 0.25999999
1.798 -12.917 -0.759 0.34999999
1.841 -12.927 -0.76099998 0.67000002
1.847 -12.826 -0.75300002 0.14
1.89 -12.841 -0.755 0.38
1.933 -12.849 -0.75599998 0.28999999
1.971 -12.827 -0.755 0.54000002
2.0190001 -12.872 -0.759 0.31999999
2.05 -12.809 -0.75400001 0.47999999
2.0910001 -12.804 -0.75400001 0.38
2.1099999 -12.793 -0.75400001 0.41999999
2.1440001 -12.751 -0.75099999 0.57999998
2.1900001 -12.778 -0.75400001 0.34999999
2.22 -12.712 -0.74900001 0.58999997
2.266 -12.742 -0.75199997 0.43000001
2.3139999 -12.778 -0.755 0.33000001
2.3559999 -12.78 -0.75599998 0.54000002
2.3929999 -12.869 -0.76300001 0.31
2.391 -12.636 -0.74599999 0.51999998
2.4319999 -12.636 -0.74699998 0.33000001
2.4549999 -12.544 -0.74000001 0.47999999
2.4879999 -12.507 -0.73799998 0.37
2.5420001 -12.57 -0.74299997 0.52999997
2.6370001 -12.827 -0.76300001 0.38999999
2.6670001 -12.872 -0.76700002 0.34999999
2.711 -12.881 -0.76800001 0.54000002
2.753 -12.88 -0.76899999 0.31
2.7850001 -12.831 -0.76599997 0.66000003
2.8169999 -12.787 -0.76300001 0.28999999
2.8659999 -12.817 -0.76599997 0.38
2.902 -12.882 -0.77200001 0.44999999
3.1170001 -13.627 -0.829 0.43000001
2.9809999 -12.854 -0.77100003 0.18000001
3.0280001 -12.872 -0.773 0.44
3.0899999 -12.953 -0.77999997 0.25
3.1300001 -12.94 -0.77899998 0.31
3.1700001 -12.926 -0.77899998 0.44999999
3.1960001 -12.946 -0.78100002 0.38
3.25 -12.988 -0.78500003 0.22
3.273 -12.908 -0.77999997 0.51999998
3.312 -12.892 -0.77899998 0.34
3.349 -12.868 -0.778 0.46000001
3.3900001 -12.862 -0.77899998 0.38999999
3.428 -12.839 -0.778 0.38999999
3.4189999 -12.728 -0.76999998 0.34999999
3.471 -12.76 -0.773 0.58999997
3.5599999 -12.927 -0.787 0.40000001
3.904 -13.995 -0.86900002 0.41999999
3.6389999 -12.897 -0.78600001 0.31
3.707 -12.979 -0.79299998 0.47
3.7 -12.805 -0.78100002 0.36000001
