# .PCD v0.7 - Point Cloud Data file format
VERSION 0.7
FIELDS x y z intensity
SIZE 4 4 4 4
TYPE F F F F
COUNT 1 1 1 1
WIDTH 1447
HEIGHT 1
VIEWPOINT 0 0 0 1 0 0 0
POINTS 1447
DATA ascii
-1.901 -8.0380001 0.29100001 0.40000001
-1.878 -8.0530005 0.29100001 0.36000001
-1.8 -7.823 0.28799999 0.27000001
-1.774 -7.8249998 0.28799999 0.58999997
-1.948 -8.7349997 0.29800001 0.27000001
-1.836 -8.3479996 0.294 0.20999999
-2.7650001 -12.829 0.34 0.31
-2.7449999 -12.833 0.34 0.61000001
-2.714 -12.889 0.34 0
-1.698 -8.4139996 0.294 0.58999997
-1.666 -8.3900003 0.294 0.28999999
-1.663 -8.4449997 0.294 0.27000001
-1.55 -8.1330004 0.29100001 0.22
-1.5190001 -8.1110001 0.29100001 0.63
-1.495 -8.1210003 0.29100001 0.27000001
-1.476 -8.1630001 0.29100001 0.44999999
-1.522 -8.5780001 0.29499999 0.2
-2.756 -16.107 0.37200001 0.15000001
-2.6819999 -15.976 0.37099999 0.56999999
-2.641 -16.041 0.37200001 0.22
-1.354 -8.3120003 0.292 0.15000001
-1.33 -8.3280001 0.29300001 0.2
-1.34 -8.5690002 0.29499999 0.38999999
-1.396 -9.0279999 0.30000001 0.23
-5.4320002 -36.395 0.579 0.17
-5.323 -36.449001 0.579 0.14
-5.2140002 -36.507999 0.57999998 0
-2.1559999 -15.696 0.36700001 0
-8.4650002 -63.685001 0.85600001 0
-8.0839996 -63.089001 0.85000002 0
-7.8740001 -63.022999 0.84899998 0
-1.957 -15.913 0.36899999 0
-7.5760002 -63.898998 0.85699999 0
-1.788 -15.758 0.368 0.16
-1.75 -15.64 0.366 0.34
-1.714 -15.77 0.368 0.37
-1.6569999 -15.704 0.36700001 0
-1.487 -15.488 0.36399999 0
-1.45 -15.622 0.366 0
-6.9949999 -77.797997 0.99599999 0
-1.363 -15.473 0.36399999 0
-6.4959998 -77.726997 0.995 0
-3.346 -43.158001 0.64499998 0
-3.2049999 -43.101002 0.64399999 0
-3.1400001 -43.139999 0.64399999 0
-3.013 -43.280998 0.64600003 0
-1.073 -15.891 0.368 0
-1.023 -15.898 0.368 0
-3.1489999 -58.643002 0.801 0
-0.38699999 -7.9439998 0.28799999 0.28999999
-0.366 -8.0410004 0.289 0.31999999
-0.33700001 -7.954 0.28799999 0.44999999
-0.31099999 -7.9200001 0.287 0.38999999
-0.28 -7.737 0.28600001 0.47999999
-0.273 -7.9229999 0.287 0
-0.242 -7.7020001 0.285 0
-0.012 -7.9980001 0.28799999 0.55000001
0.013 -7.98 0.28799999 0.33000001
0.027000001 -8.1899996 0.28999999 0
0.25 -14.465 0.35299999 0.15000001
0.29499999 -14.466 0.35299999 0.55000001
0.34599999 -14.681 0.35600001 0
0.40799999 -14.448 0.35299999 0
0.49000001 -14.195 0.35100001 0.16
0.53200001 -14.135 0.34999999 0.23
0.57499999 -14.1 0.34999999 0.41
0.61199999 -13.926 0.34799999 0
0.72299999 -13.953 0.34799999 0.30000001
0.76099998 -13.858 0.34799999 0.37
0.796 -13.706 0.34599999 0.37
0.83999997 -13.726 0.34599999 0.38
0.861 -13.704 0.34599999 0.38999999
0.90700001 -13.755 0.347 0.41
0.95999998 -13.88 0.34799999 0.22
0.99900001 -13.819 0.347 0.31999999
1.041 -13.796 0.347 0.31
0.89399999 -11.429 0.32300001 0.31999999
0.93000001 -11.426 0.32300001 0.44999999
0.94199997 -11.362 0.322 0.55000001
0.98799998 -11.467 0.324 0.12
1.267 -13.655 0.34599999 0.33000001
1.2970001 -13.517 0.34400001 0.25999999
1.3380001 -13.495 0.34400001 0.36000001
1.38 -13.487 0.34400001 0.23999999
1.398 -13.453 0.34400001 0.19
1.446 -13.5 0.34400001 0.57999998
1.516 -13.744 0.347 0
3.457 -30.193001 0.514 0.059999999
3.539 -30.073 0.51300001 0.17
3.631 -30.038 0.51300001 0.19
3.7320001 -30.08 0.514 0
3.7850001 -30.124001 0.514 0
2.9549999 -22.424999 0.43599999 0.20999999
3.017 -22.356001 0.435 0.30000001
3.0929999 -22.386 0.43599999 0.25999999
3.217 -22.753 0.43900001 0.17
1.831 -12.886 0.33899999 0
3.3310001 -22.783001 0.44 0
7.8460002 -52.290001 0.741 0
8.0209999 -52.334 0.74199998 0
3.1670001 -20.34 0.41499999 0
3.26 -20.511999 0.417 0.039999999
3.3410001 -20.405001 0.41600001 0.2
3.405 -20.391001 0.41600001 0.50999999
1.725 -10.02 0.31 0.31
1.748 -9.9709997 0.31 0.30000001
1.776 -9.9460001 0.30899999 0.41999999
1.804 -9.9250002 0.30899999 0.36000001
1.818 -9.9099998 0.30899999 0.38999999
1.848 -9.8990002 0.30899999 0.43000001
1.883 -9.9139996 0.30899999 0.34999999
1.909 -9.8830004 0.30899999 0.5
1.943 -9.8900003 0.30899999 0.37
1.977 -9.8979998 0.30899999 0.44
2.0109999 -9.9090004 0.30899999 0.38999999
2.036 -9.9510002 0.31 0.54000002
4.2779999 -20.440001 0.41800001 0.15000001
4.3720002 -20.565001 0.41999999 0.47
4.4489999 -20.608 0.41999999 0.19
4.4790001 -20.438 0.419 0.23
4.5419998 -20.42 0.419 0.41
4.599 -20.374001 0.41800001 0.28
4.6409998 -20.408001 0.419 0.28999999
6.7729998 -29.308001 0.51099998 0.090000004
6.8470001 -29.209 0.50999999 0.15000001
6.9200001 -29.111 0.50999999 0
7.007 -29.072001 0.509 0
17.641001 -72.028999 0.95599997 0
17.782 -72.115997 0.958 0
17.969 -71.901001 0.95599997 0
18.153 -71.681 0.954 0
18.336 -71.457001 0.95300001 0
18.525 -71.265999 0.95099998 0
18.702999 -71.032997 0.949 0
18.886999 -70.824997 0.94800001 0
18.952 -70.624001 0.94599998 0
19.136999 -70.431 0.94499999 0
19.316 -70.216003 0.94300002 0
19.493999 -70.002998 0.94099998 0
19.671 -69.789001 0.94 0
19.855 -69.603996 0.93900001 0
20.033001 -69.401001 0.93699998 0
20.1 -69.224998 0.93599999 0
20.264 -68.980003 0.93400002 0.11
6.5089998 -21.965 0.43900001 0
3.76 -12.583 0.34 0
20.796 -68.401001 0.93000001 0
6.2529998 -20.285 0.42199999 0.14
6.2319999 -19.993999 0.419 0.34999999
6.4359999 -20.202 0.42199999 0.17
6.4889998 -20.148001 0.421 0.14
3.9630001 -12.208 0.33700001 0
21.778 -66.003998 0.90899998 0
9.5719995 -28.021 0.50599998 0.1
7.0760002 -20.523001 0.42699999 0.17
7.138 -20.495001 0.42699999 0
9.7609997 -27.577999 0.50300002 0
9.5939999 -26.841 0.495 0
23.474001 -64.917 0.90499997 0
23.625999 -64.702003 0.903 0
23.802999 -64.556 0.90200001 0
23.957001 -64.349998 0.90100002 0
10.477 -27.783001 0.50700003 0
9.4820004 -24.913 0.477 0.07
9.533 -24.813999 0.47600001 0.17
9.5620003 -24.658001 0.47400001 0.22
9.6569996 -24.674 0.47499999 0
16.464001 -41.627998 0.66000003 0.13
16.499001 -41.528 0.65899998 0.1
16.607 -41.419998 0.65799999 0
16.704 -41.285999 0.65700001 0.1
10.073 -24.702 0.477 0.18000001
10.085 -24.511 0.47499999 0
13.166 -31.694 0.55400002 0.039999999
13.221 -31.548 0.55299997 0.079999998
13.199 -31.356001 0.551 0.14
13.249 -31.200001 0.55000001 0
13.477 -31.461 0.55299997 0
13.796 -31.927 0.55900002 0
13.874 -31.834 0.55800003 0.12
13.727 -31.229 0.55199999 0.1
17.739 -39.997002 0.64899999 0.090000004
17.771999 -39.903 0.64899999 0.090000004
14.523 -32.345001 0.56599998 0.090000004
14.592 -32.229 0.565 0.090000004
14.738 -32.280998 0.56599998 0
18.164 -39.442001 0.64600003 0.11
9.8620005 -21.267 0.44400001 0.11
9.9440002 -21.268999 0.44499999 0.25999999
14.6 -31.070999 0.55400002 0.22
10.146 -21.264 0.44499999 0.34
10.212 -21.23 0.44499999 0.1
10.353 -21.351 0.447 0
18.858 -38.533001 0.64099997 0.12
8.7790003 -17.9 0.40900001 0.19
8.8170004 -17.834999 0.40799999 0.37
9.0179996 -18.097 0.412 0.27000001
9.0810003 -18.080999 0.412 0.25
9.2259998 -18.225 0.414 0.25999999
9.3780003 -18.381001 0.41600001 0.19
9.4200001 -18.320999 0.41499999 0.41999999
9.4729996 -18.354 0.41600001 0.25
9.3579998 -17.993 0.412 0.25
9.8769999 -18.701 0.421 0.5
19.881001 -37.303001 0.634 0.11
10.028 -18.702 0.42199999 0.13
10.049 -18.6 0.421 0.2
11.481 -21.163 0.45100001 0.44
11.575 -21.177999 0.45100001 0.18000001
13.63 -24.743 0.493 0.17
13.838 -24.934 0.495 0.23999999
13.253 -23.708 0.48199999 0.13
13.33 -23.669001 0.48199999 0.14
14.107 -24.863001 0.49599999 0.14
13.896 -24.403 0.491 0
13.502 -23.541 0.48100001 0.15000001
13.906 -24.068001 0.48800001 0.18000001
14.012 -24.076 0.48899999 0.14
21.018 -35.830002 0.62699997 0.12
21.115999 -35.740002 0.62699997 0.13
21.129 -35.634998 0.62599999 0.16
14.247 -23.872999 0.48800001 0.2
14.234 -23.681999 0.486 0.30000001
14.382 -23.759001 0.48800001 0.18000001
14.386 -23.597 0.48699999 0.23
14.641 -23.847 0.49000001 0.14
14.678 -23.739 0.48899999 0.15000001
14.655 -23.620001 0.48800001 0.079999998
20.947001 -33.505001 0.60600001 0.14
21.028 -33.400002 0.60600001 0.090000004
21.112 -33.300999 0.60600001 0.15000001
21.191 -33.195 0.60500002 0.1
21.288 -33.116001 0.60500002 0.15000001
14.15 -21.877001 0.47099999 0.17
6.6430001 -10.191 0.33000001 0.23999999
6.6160002 -10.08 0.329 0.56
6.6950002 -10.131 0.33000001 0.16
6.9109998 -10.314 0.333 0.57999998
6.789 -10.066 0.33000001 0.16
6.3010001 -9.2510004 0.31999999 0.52999997
6.6300001 -9.6660004 0.32600001 0.20999999
6.8829999 -9.9680004 0.33000001 0.33000001
6.8979998 -9.9209995 0.329 0.51999998
6.9200001 -9.8859997 0.329 0.38
6.8959999 -9.8199997 0.329 0.62
6.3379998 -8.9700003 0.31799999 0.28999999
6.9310002 -9.7390003 0.32800001 0.34
6.9530001 -9.7060003 0.32800001 0.44
6.2550001 -8.6780005 0.315 0.28
7.0609999 -9.7270002 0.329 0.5
7.105 -9.7220001 0.329 0.38999999
7.1269999 -9.7209997 0.329 0.5
7.177 -9.724 0.329 0.40000001
7.2030001 -9.6969995 0.329 0.63999999
6.6900001 -8.9490004 0.31999999 0.38
6.6950002 -8.8979998 0.31999999 0.31999999
6.724 -8.8789997 0.31999999 0.25
23.882 -31.221001 0.60399997 0.2
23.934 -31.187 0.60399997 0.23
23.976 -31.040001 0.60399997 0.2
24.084 -30.976999 0.60399997 0.23
24.157 -30.872 0.60299999 0.2
24.233999 -30.77 0.60299999 0.22
24.309999 -30.667999 0.60299999 0.20999999
24.351 -30.620001 0.60299999 0.23
24.403999 -30.49 0.602 0.18000001
6.3850002 -7.9559999 0.31 0.16
6.3280001 -7.835 0.30899999 0.34
12.082 -14.828 0.40099999 0.41
6.3390002 -7.7490001 0.308 0.25
12.141 -14.71 0.40000001 0.44999999
12.168 -14.649 0.40000001 0.17
6.4819999 -7.7969999 0.31 0.34999999
6.4980001 -7.7680001 0.31 0.46000001
6.6399999 -7.8860002 0.31099999 0.23999999
6.8579998 -8.092 0.31400001 0.38999999
25.239 -29.485001 0.59899998 0.18000001
25.316 -29.386999 0.59899998 0.20999999
25.357 -29.341999 0.59899998 0.18000001
25.427999 -29.238001 0.59899998 0.17
25.517 -29.155001 0.59899998 0.33000001
25.59 -29.052999 0.59799999 0.2
25.674 -28.965 0.59799999 0.23999999
25.74 -28.856001 0.59799999 0.20999999
25.773001 -28.802 0.59799999 0.31
25.862 -28.719999 0.59799999 0.20999999
25.929001 -28.613001 0.597 0.34
26.002001 -28.511999 0.597 0.19
6.5450001 -7.1609998 0.30500001 0.18000001
6.5489998 -7.1199999 0.30500001 0.47
26.25 -28.246 0.597 0.31
26.26 -28.167999 0.59600002 0.20999999
26.34 -28.076 0.59600002 0.2
26.440001 -28.004999 0.59600002 0.23
26.504 -27.896999 0.59600002 0.2
26.591 -27.813999 0.59600002 0.22
26.659 -27.709999 0.59600002 0.1
3.7030001 -3.845 0.26100001 0.11
3.698 -3.816 0.26100001 0.55000001
3.6440001 -3.737 0.25999999 0
3.704 -3.7739999 0.26100001 0.090000004
27.077999 -27.188999 0.59500003 0.31
27.149 -27.089001 0.59500003 0.19
27.224001 -26.993999 0.59500003 0.31999999
27.253 -26.938999 0.59399998 0.19
27.343 -26.858 0.59500003 0.23999999
27.400999 -26.746 0.59399998 0.20999999
27.413 -26.59 0.59299999 0.11
26.895 -25.924999 0.58499998 0.16
26.969 -25.834 0.58499998 0.12
27.033001 -25.733 0.58399999 0.17
27.094999 -25.711 0.58499998 0.28
18.167 -17.143 0.46000001 0.25
18.256001 -17.118999 0.46000001 0.11
18.225 -16.982 0.45899999 0.14
27.372 -25.327 0.58399999 0.11
18.486 -17.009001 0.461 0
27.497999 -25.205 0.58399999 0.11
27.573999 -25.115999 0.58399999 0
17.273001 -15.647 0.44299999 0.079999998
9.0240002 -8.1400003 0.33000001 0.15000001
18.816999 -16.829 0.46200001 0.25999999
18.813 -16.719 0.46200001 0.15000001
27.933001 -24.65 0.58399999 0.090000004
27.965 -24.601 0.58399999 0.19
28.038 -24.509001 0.58399999 0.2
28.121 -24.426001 0.58399999 0.18000001
28.169001 -24.313 0.583 0.18000001
12.757 -10.89 0.377 0.5
12.797 -10.855 0.377 0.14
12.822 -10.842 0.377 0.34
13.141 -11.04 0.38100001 0.38
13.113 -10.947 0.38 0.34999999
20.277 -16.801001 0.47299999 0.14
20.202 -16.632999 0.472 0.30000001
20.231001 -16.551001 0.47099999 0.12
20.354 -16.597 0.47299999 0.18000001
20.476 -16.59 0.47400001 0.12
11.045 -8.9069996 0.35100001 0.37
11.108 -8.8999996 0.35100001 0.2
11.06 -8.8050003 0.34999999 0.56999999
11.261 -8.9069996 0.352 0.41
11.187 -8.7639999 0.35100001 0.50999999
11.168 -8.6920004 0.34999999 0.31
11.166 -8.6350002 0.34999999 0.43000001
11.247 -8.6409998 0.35100001 0.44
11.244 -8.5270004 0.34999999 0.49000001
11.517 -8.6759996 0.35299999 0.34
11.463 -8.6079998 0.352 0.34
11.375 -8.4860001 0.35100001 0.27000001
11.343 -8.4069996 0.34999999 0.34999999
11.171 -8.2259998 0.347 0.47999999
11.163 -8.1660004 0.347 0.34
11.118 -8.0790005 0.34599999 0.47
11.297 -8.1820002 0.34799999 0.38
11.177 -8.0419998 0.34599999 0.30000001
11.241 -8.0349998 0.347 0.20999999
11.459 -8.1359997 0.34900001 0.46000001
11.38 -8.026 0.34799999 0.31
11.438 -8.0129995 0.34799999 0.44999999
11.583 -8.0600004 0.34999999 0.27000001
11.627 -8.0640001 0.34999999 0.38999999
11.85 -8.1630001 0.35299999 0.30000001
11.563 -7.9130001 0.34900001 0.34999999
11.705 -7.9559999 0.34999999 0.47
11.964 -8.0769997 0.35299999 0.25
11.758 -7.8850002 0.34999999 0.28999999
11.83 -7.8790002 0.35100001 0.54000002
12.079 -8.0170002 0.354 0.38
12.235 -8.0640001 0.35499999 0.17
12.752 -8.3470001 0.361 0.28999999
12.81 -8.3269997 0.36199999 0.31999999
12.959 -8.3660002 0.36300001 0.28999999
12.916 -8.2810001 0.36199999 0.5
13.154 -8.375 0.36500001 0.20999999
13.154 -8.2880001 0.36399999 0.19
16.104 -10.069 0.39899999 0
13.797 -8.5109997 0.37099999 0.34999999
13.774 -8.4379997 0.37 0.2
13.469 -8.1929998 0.36700001 0.18000001
13.571 -8.2259998 0.368 0.46000001
13.682 -8.2349997 0.36899999 0.23
14.461 -8.6400003 0.377 0.16
13.539 -8.0340004 0.366 0.38999999
16.351999 -9.6269999 0.39899999 0.2
14.217 -8.3140001 0.37400001 0.13
14.057 -8.191 0.37200001 0.34
14.164 -8.1940002 0.373 0.33000001
16.524 -9.4849997 0.40000001 0.46000001
20.287001 -11.554 0.44299999 0.16
14.866 -8.4130001 0.38 0.36000001
14.868 -8.3520002 0.38 0.20999999
13.49 -7.5250001 0.36300001 0.15000001
13.49 -7.4970002 0.36300001 0.51999998
13.541 -7.4699998 0.36399999 0.23
13.633 -7.4650002 0.36399999 0.43000001
13.632 -7.4089999 0.36399999 0.18000001
14.679 -7.9159999 0.37599999 0.19
15.099 -8.0810003 0.38 0.46000001
15.115 -8.0290003 0.38 0.25
18.003 -9.5200005 0.41299999 0.16
15.275 -8.0209999 0.382 0.38999999
16.483999 -8.5880003 0.39500001 0
26.129 -13.491 0.50400001 0.12
17.66 -9.0579996 0.40799999 0.17
16.924999 -8.6149998 0.39899999 0.18000001
16.844 -8.5410004 0.398 0.40000001
16.826 -8.4650002 0.398 0.38
16.858999 -8.4160004 0.398 0.13
17.533001 -8.6820002 0.405 0.28999999
17.452 -8.5740004 0.40400001 0.18000001
17.677 -8.6160002 0.40599999 0.20999999
17.143999 -8.29 0.40000001 0.28
17.681999 -8.5150003 0.40599999 0.23999999
17.358 -8.2930002 0.40200001 0.13
17.087 -8.0979996 0.398 0.31
18.926001 -8.8929996 0.419 0.2
17.011 -7.9310002 0.39700001 0.2
18.393999 -8.5039997 0.412 0.28999999
21.108 -9.6339998 0.442 0.43000001
21.18 -9.5869999 0.442 0.2
18.205999 -8.1750002 0.40900001 0.25999999
19.246 -8.5679998 0.41999999 0.19
21.466999 -9.474 0.44400001 0.16
18.969 -8.3030005 0.417 0.16
18.903 -8.2040005 0.41499999 0.079999998
17.546 -7.5840001 0.40000001 0.16
18.364 -7.868 0.40900001 0.25999999
18.122 -7.698 0.40599999 0.22
19.743 -8.3109999 0.42399999 0.23
18.327 -7.6490002 0.40799999 0.19
18.756001 -7.7579999 0.412 0.14
18.65 -7.6799998 0.41100001 0.17
18.583 -7.5840001 0.41 0.12
18.621 -7.5320001 0.41 0
18.638 -7.4710002 0.41 0
27.65 -10.969 0.50800002 0.029999999
27.351 -10.751 0.50400001 0.11
20.062 -7.8210001 0.42500001 0
20.347 -7.895 0.428 0.059999999
21.281 -8.1789999 0.43799999 0.12
21.041 -8.0120001 0.435 0.16
21.01 -7.9239998 0.43399999 0.47999999
21.037001 -7.8590002 0.43399999 0.19
21.552999 -7.974 0.43900001 0.31999999
20.889999 -7.6550002 0.43200001 0.18000001
21.105 -7.6960001 0.43399999 0.18000001
21.042999 -7.599 0.433 0.18000001
21.254999 -7.5999999 0.435 0
28.118 -9.9449997 0.509 0.090000004
28.018 -9.8109999 0.50700003 0.14
21.912001 -7.6020002 0.442 0
27.669001 -9.4940004 0.50300002 0.050000001
27.667 -9.4449997 0.50300002 0.15000001
11.276 -3.7869999 0.32699999 0.31
11.283 -3.75 0.32699999 0.31
11.273 -3.707 0.32699999 0.51999998
11.483 -3.7360001 0.329 0.19
27.91 -8.993 0.50400001 0.14
27.709 -8.8319998 0.50099999 0
27.594999 -8.7010002 0.5 0
27.865 -8.6890001 0.50199997 0
27.791 -8.5710001 0.50099999 0.07
32.995998 -10.057 0.55599999 0.19
29.355 -8.8500004 0.51700002 0.19
29.417 -8.8179998 0.51800001 0.17
29.375999 -8.7049999 0.51700002 0.1
29.437 -8.6230001 0.51700002 0.12
29.247 -8.4680004 0.51499999 0.13
29.150999 -8.3409996 0.514 0.15000001
31.065001 -8.7810001 0.53299999 0.28
29.341 -8.1960001 0.51499999 0.11
29.229 -8.1149998 0.514 0
29.993 -8.2259998 0.52200001 0
29.622999 -8.0240002 0.51700002 0
29.396999 -7.8639998 0.51499999 0
29.660999 -7.835 0.51700002 0
29.929001 -7.8049998 0.51999998 0
38.653 -10.008 0.611 0
38.754002 -9.9040003 0.611 0
38.987 -9.8330002 0.61400002 0
33.217999 -8.2709999 0.55299997 0
33.453999 -8.2180004 0.55500001 0
38.998001 -9.4460001 0.61299998 0
38.716999 -9.2489996 0.60900003 0.07
36.328999 -8.6199999 0.58499998 0.23
36.317001 -8.4969997 0.58399999 0.19
36.425999 -8.4020004 0.58499998 0
38.777 -8.8140001 0.60900003 0
39.369999 -8.8190002 0.61500001 0
39.150002 -8.6400003 0.61199999 0.07
39.092999 -8.4989996 0.611 0
39.217999 -8.4619999 0.61299998 0
39.324001 -8.3549995 0.61299998 0
58.014 -11.27 0.80400002 0
57.689999 -11.019 0.801 0
57.803001 -10.853 0.801 0
57.724998 -10.65 0.80000001 0
57.757999 -10.469 0.80000001 0
57.824001 -10.293 0.801 0
57.754002 -10.094 0.80000001 0
51.719002 -8.9580002 0.73799998 0
51.724998 -8.7919998 0.73699999 0
51.806 -8.6379995 0.73799998 0
58.505001 -9.5629997 0.80599999 0
58.526001 -9.3780003 0.80599999 0
58.68 -9.2139997 0.80699998 0
59.523998 -9.25 0.81599998 0
58.956001 -8.783 0.80900002 0
59.147999 -8.6219997 0.81099999 0
59.284 -8.4510002 0.81199998 0
59.587002 -8.3039999 0.815 0
59.911999 -8.1569996 0.81800002 0
59.830002 -8.0500002 0.81699997 0
59.637001 -7.8330002 0.815 0
60.484001 -7.7509999 0.82300001 0
60.693001 -7.5840001 0.82499999 0
60.98 -7.4250002 0.82800001 0
66.416 -7.8730001 0.88300002 0
66.367996 -7.6560001 0.88200003 0
34.23 -3.9070001 0.55500001 0
34.167 -3.7909999 0.55500001 0
34.222 -3.688 0.55500001 0
66.938004 -6.9770002 0.88700002 0
67.525002 -6.8239999 0.89300001 0
67.647003 -6.6209998 0.89399999 0
67.474998 -6.3909998 0.89200002 0
45.41 -3.3039999 0.667 0
45.397999 -3.1589999 0.667 0
56.972 -0.90899998 0.78299999 0
56.77 6.4840002 0.38699999 0
56.233002 6.6020002 0.38499999 0
56.236 6.7810001 0.38499999 0
61.384998 8.7729998 0.40200001 0
45.051998 9.7340002 0.352 0
44.278 9.7130003 0.34999999 0
43.571999 9.7019997 0.34799999 0
43.081001 9.6639996 0.34599999 0
42.999001 9.7880001 0.34599999 0
42.945 9.9169998 0.34599999 0
42.932999 10.057 0.34599999 0
42.923 10.197 0.34599999 0
42.923 10.339 0.34599999 0
42.931999 10.484 0.34599999 0
42.987 10.569 0.34599999 0
60.946999 16.198 0.40599999 0
40.669998 15.33 0.34400001 0
40.653 15.47 0.34400001 0
40.587002 15.591 0.34400001 0
40.643002 15.759 0.34400001 0
40.455002 15.98 0.34400001 0
40.431999 16.044001 0.34400001 0
63.634998 27.459999 0.42500001 0
71.375 33.220001 0.45500001 0
69.559998 33.176998 0.44999999 0
69.292999 33.317001 0.449 0
69.204002 33.542999 0.449 0
69.375999 33.895 0.44999999 0
67.453003 33.088001 0.44400001 0
67.321999 33.285999 0.44400001 0
69.432999 34.601002 0.45100001 0
65.725998 33.013 0.43900001 0
65.335999 33.075001 0.43799999 0
65.216003 33.271999 0.43799999 0
63.717999 32.888 0.433 0
63.334 32.942001 0.43200001 0
63.321999 33.188999 0.43200001 0
63.310001 33.437 0.433 0
65.405998 34.806 0.44 0
65.380997 35.056999 0.44100001 0
63.313999 34.206001 0.43399999 0
63.273998 34.313 0.43399999 0
63.264 34.564999 0.43399999 0
65.156998 35.863998 0.44100001 0
63.348 35.389999 0.43599999 0
63.193001 35.563999 0.435 0
63.227001 35.714001 0.43599999 0
55.351002 34.202 0.412 0
55.272999 34.273998 0.412 0
35.438999 24.698999 0.34299999 0
35.381001 24.823999 0.34299999 0
60.662998 45.446999 0.44600001 0
59.397999 46.723999 0.44499999 0
59.352001 46.990002 0.44499999 0
59.515999 47.271999 0.44600001 0
57.847 54.890999 0.458 0
57.615002 55.015999 0.458 0
16.473 16.004999 0.27900001 0.25999999
16.419001 16.052999 0.27900001 0
27.452999 26.986 0.32800001 0
27.391001 27.094 0.32800001 0
27.337999 27.212999 0.32800001 0.029999999
27.188999 27.235001 0.32800001 0.13
27.207001 27.424999 0.329 0.31999999
27.173 27.476 0.329 0
35.049 35.653 0.36399999 0
53.73 54.98 0.449 0
53.525002 55.116001 0.449 0
53.136002 55.061001 0.44800001 0
52.98 55.244999 0.44800001 0
52.916 55.353001 0.44800001 0
53.393002 56.557999 0.45199999 0
52.915001 56.405998 0.45100001 0
52.949001 56.798 0.45199999 0
52.823002 57.021999 0.45199999 0
52.347 57.044998 0.45100001 0
51.617001 57.324001 0.44999999 0
28.978001 32.919998 0.345 0
50.625999 57.848 0.449 0
50.348999 57.896999 0.449 0
44.151001 51.098999 0.41999999 0
43.942001 51.181 0.419 0
43.877998 51.431 0.41999999 0.07
31.259001 36.884998 0.359 0.15000001
31.164 36.891998 0.359 0.13
31.108999 37.061001 0.359 0
40.655998 48.733002 0.40700001 0.059999999
38.584999 46.549 0.39700001 0.16
38.460999 46.696999 0.398 0
38.569 47.129002 0.39899999 0
38.167 46.938 0.398 0
38.021 46.909 0.39700001 0
39.247002 48.731998 0.40400001 0
37.596001 46.985001 0.396 0
36.229 45.570999 0.38999999 0
36.264 45.91 0.391 0
36.016998 45.893002 0.391 0.079999998
35.451 45.318001 0.38800001 0.1
35.424 45.577999 0.389 0
35.245998 45.645 0.389 0
35.234001 45.926998 0.389 0.07
35.146 46.112 0.38999999 0
34.945 46.146999 0.389 0.059999999
34.611 46.006001 0.38800001 0
34.577999 46.112999 0.38800001 0
40.127998 54.931 0.421 0
42.929001 59.543999 0.43799999 0
34.570999 48.119999 0.39399999 0.079999998
34.462002 48.286999 0.39399999 0.1
34.334 48.429001 0.39399999 0
34.091999 48.409 0.39300001 0
33.908001 48.470001 0.39300001 0
33.623001 48.386002 0.39300001 0
33.540001 48.591999 0.39300001 0
33.759998 49.074001 0.39500001 0
34.046001 49.824001 0.39700001 0
33.824001 49.834999 0.39700001 0
35.049999 51.990002 0.40400001 0
30.218 45.132999 0.37799999 0
28.462 43.097 0.37 0.31999999
28.365 43.096001 0.36899999 0
28.344 43.361 0.37 0
27.837 42.880001 0.368 0.13
27.608999 42.821999 0.36700001 0.30000001
27.497999 42.945999 0.368 0.2
27.445 43.16 0.368 0.20999999
27.601999 43.557999 0.36899999 0.2
27.587 43.839001 0.37 0.2
27.184999 43.502998 0.36899999 0.11
27.077 43.634998 0.36899999 0.16
26.860001 43.59 0.368 0
28.195999 46.078999 0.377 0
28.823 47.437 0.382 0.12
26.25 43.360001 0.36700001 0.27000001
26.124001 43.459 0.36700001 0.11
25.962999 43.5 0.366 0
27.000999 45.561001 0.37400001 0
25.882999 43.992001 0.368 0
26.341999 45.092999 0.37099999 0
26.264 45.285999 0.37200001 0.07
25.813 44.671001 0.36899999 0.15000001
25.811001 44.993 0.37 0
26.046 45.734001 0.373 0
25.691 45.442001 0.37099999 0
25.549999 45.526001 0.37099999 0
25.632999 46.011002 0.373 0
26.521 47.956001 0.38 0
26.495001 48.089001 0.38 0
33.584999 61.397999 0.42699999 0
32.208 59.324001 0.41999999 0
32.018002 59.417999 0.41999999 0
24.343 45.529999 0.37 0.12
23.362 44.028999 0.36399999 0.30000001
23.305 44.256001 0.36399999 0.2
26.743999 50.973 0.38800001 0
22.983999 44.151001 0.36399999 0.14
22.695999 43.935001 0.36300001 0.11
22.594999 44.077 0.36300001 0.14
22.448 44.132 0.36300001 0.18000001
22.252001 44.09 0.36199999 0.31
22.118999 44.169998 0.36300001 0
22.790001 45.686001 0.368 0
29.856001 60.306999 0.419 0
22.533001 45.891998 0.368 0
22.298 45.777 0.36700001 0.090000004
21.643 44.790001 0.36399999 0.2
21.412001 44.669998 0.36300001 0
21.257999 44.708 0.36300001 0
20.926001 44.188999 0.361 0.079999998
20.844 44.375999 0.361 0.1
20.816999 44.681999 0.36199999 0.17
20.993 45.431 0.36500001 0.25
20.361 44.431999 0.361 0.27000001
20.202 44.453999 0.361 0
20.629999 45.775002 0.36500001 0
20.586 45.868999 0.36500001 0
20.459 45.972 0.36500001 0.12
20.355 46.127998 0.366 0
19.07 43.588001 0.35699999 0.12
18.874001 43.512001 0.35600001 0.20999999
18.726 43.546001 0.35600001 0.18000001
18.239 42.785999 0.35299999 0.22
18.281 43.07 0.354 0.20999999
18.434 43.811001 0.35699999 0.2
18.136 43.485001 0.35499999 0.12
17.971001 43.473 0.35499999 0
18.176001 44.362 0.35800001 0.12
17.693001 43.576 0.35499999 0
17.698 43.785 0.35600001 0.07
17.57 43.865002 0.35600001 0.079999998
17.48 44.039001 0.35600001 0
16.601999 42.609001 0.35100001 0
16.436001 42.578999 0.35100001 0
27.129 70.892998 0.44600001 0
26.934999 70.717003 0.44499999 0
24.823 65.797997 0.428 0
20.792 55.653999 0.39399999 0
20.594999 55.659 0.39399999 0
20.344999 55.519001 0.39300001 0
26.174 72.105003 0.449 0
25.926001 72.126999 0.44800001 0
25.534 71.389999 0.44600001 0
25.381001 71.669998 0.44600001 0
25.177999 71.813004 0.447 0
24.851999 71.605003 0.44600001 0
22.014 64.084999 0.41999999 0
15.28 45.668999 0.359 0
14.517 44.313999 0.354 0.28
14.255 43.980999 0.35299999 0.23999999
14.154 44.143002 0.35299999 0.2
14.153 44.618 0.354 0.090000004
13.706 43.688 0.35100001 0.090000004
13.607 43.612 0.35100001 0.14
13.544 43.895 0.352 0.25
13.335 43.706001 0.35100001 0.12
13.177 43.679001 0.35100001 0.14
13.017 43.643002 0.34999999 0.17
12.885 43.702999 0.34999999 0.28999999
12.837 44.049 0.35100001 0
12.938 45.182999 0.35499999 0
12.814 45.289001 0.35499999 0.12
12.871 46.040001 0.35800001 0
12.751 46.168999 0.35800001 0.050000001
13.057 47.858002 0.36300001 0.14
12.902 47.882999 0.36300001 0.18000001
14.016 52.334999 0.37799999 0
13.808 52.212002 0.377 0.1
12.311 47.160999 0.36000001 0.16
11.578 44.936001 0.35299999 0.16
11.39 44.790001 0.352 0
13.059 52.019001 0.37599999 0
16.034 64.702003 0.417 0
11.604 47.173 0.36000001 0
11.437 47.132999 0.36000001 0
10.796 45.111 0.35299999 0
11.246 47.647999 0.361 0
11.048 47.477001 0.36000001 0
10.81 47.125 0.359 0
14.758 64.759003 0.41600001 0
10.669 47.535 0.36000001 0.1
10.19 46.084 0.35600001 0.23
10.068 46.216999 0.35600001 0.16
9.9239998 46.255001 0.35600001 0
9.7790003 46.286999 0.35600001 0.15000001
9.5939999 46.132 0.35499999 0
9.4849997 45.969002 0.35499999 0.13
9.1569996 45.095001 0.352 0
9.0530005 45.313999 0.352 0
8.8879995 45.228001 0.352 0.11
8.7110004 45.073002 0.352 0.22
8.5410004 44.952999 0.35100001 0.16
8.4069996 45.019001 0.35100001 0.15000001
9.1280003 49.297001 0.36500001 0
8.9580002 49.243 0.36500001 0
7.9439998 45.292 0.352 0.33000001
7.8169999 45.404999 0.352 0.23
7.6869998 45.507999 0.352 0
7.5840001 45.769001 0.35299999 0
8.7740002 53.977001 0.37900001 0.090000004
7.4089999 46.055 0.354 0.25
7.2740002 46.145 0.354 0.27000001
7.0300002 45.523998 0.352 0.19
6.9000001 45.636002 0.352 0.13
6.7950001 45.915001 0.35299999 0
6.7649999 46.723999 0.35600001 0
6.539 45.667 0.352 0.11
6.882 49.153999 0.36300001 0.090000004
7.2610002 53.061001 0.37599999 0
6.507 48.700001 0.36199999 0.07
6.3540001 48.727001 0.36199999 0
6.8080001 53.498001 0.377 0
6.191 49.909 0.36500001 0
6.1149998 49.938 0.36500001 0
6.4130001 53.757999 0.377 0
5.507 48.789001 0.36199999 0.25999999
5.3530002 48.799999 0.36199999 0
5.4429998 51.084 0.36899999 0
5.29 51.175999 0.36899999 0
5.1079998 50.195999 0.366 0.059999999
4.9520001 50.23 0.366 0.1
4.8010001 50.317001 0.366 0.13
4.645 50.347 0.366 0
4.4850001 50.34 0.366 0
5.1139998 59.462002 0.39500001 0
5.1279998 61.895 0.403 0
4.8379998 59.541 0.39500001 0
4.6560001 59.625 0.39500001 0
4.6409998 61.921001 0.403 0
4.4489999 61.964001 0.403 0.07
4.2449999 61.854 0.40200001 0.090000004
4.046 61.792999 0.40200001 0
3.8299999 61.459999 0.40099999 0.07
3.7219999 61.27 0.40000001 0.079999998
3.5380001 61.437 0.40099999 0
3.3469999 61.484001 0.40099999 0
3.138 61.182999 0.40000001 0
2.9389999 61.048 0.39899999 0
2.7509999 61.146999 0.40000001 0
2.5450001 60.816002 0.39899999 0.059999999
2.441 60.618 0.398 0.18000001
1.089 29.684999 0.30000001 0.14
0.99199998 29.593 0.30000001 0.30000001
0.898 29.576 0.30000001 0.27000001
0.80400002 29.51 0.30000001 0.18000001
0.71499997 29.674999 0.30000001 0
1.308 61.095001 0.39899999 0
1.16 58.529999 0.391 0
0.98500001 59.070999 0.39300001 0
0.89499998 65.945 0.41499999 0
0.639 61.369999 0.40000001 0
0.27000001 65.054001 0.412 0
0.056000002 58.162998 0.38999999 0
-0.035999998 58.058998 0.38999999 0
-0.21799999 58.112999 0.38999999 0
-0.403 58.402 0.391 0
-0.59100002 58.911999 0.39300001 0
-0.81699997 62.096001 0.403 0
-1.3 61.868999 0.40200001 0
-1.67 61.16 0.40000001 0
-1.96 64.418999 0.41 0
-2.053 61.129002 0.40000001 0
-2.135 58.076 0.38999999 0
-2.233 58.268002 0.391 0.07
-2.427 58.505001 0.391 0
-2.665 59.737999 0.39500001 0
-2.8770001 60.231998 0.39700001 0
-3.0539999 59.987 0.396 0
-3.24 59.925999 0.396 0
-3.4130001 59.660999 0.39500001 0
-3.5039999 59.604 0.39500001 0
-3.7279999 60.181999 0.39700001 0
-4.1350002 63.549 0.40799999 0
-4.362 63.942001 0.40900001 0
-4.4889998 62.876999 0.40599999 0
-4.6820002 62.803001 0.405 0
-3.911 45.604 0.35100001 0
-4.0339999 45.354 0.34999999 0.1
-4.0359998 43.812 0.345 0.090000004
-4.1659999 43.719002 0.345 0
-4.2989998 43.658001 0.345 0
-4.428 44.257999 0.347 0.039999999
-4.3800001 42.425999 0.34099999 0.2
-4.5170002 42.441002 0.34099999 0.19
-4.6589999 42.514999 0.34200001 0.23
-4.829 42.821999 0.34299999 0.16
-4.967 42.834 0.34299999 0.38999999
-5.0960002 42.777 0.34299999 0.2
-5.165 42.784 0.34299999 0
-5.323 42.957001 0.34299999 0.079999998
-5.4959998 43.238998 0.34400001 0
-6.9359999 53.276001 0.37599999 0.050000001
-7.0929999 53.18 0.37599999 0.079999998
-7.2410002 53.013 0.375 0.090000004
-7.4000001 52.936001 0.375 0.12
-5.8150001 41.09 0.338 0
-7.6360002 52.810001 0.375 0
-7.8200002 52.911999 0.375 0
-6.3179998 40.928001 0.33700001 0.20999999
-6.4330001 40.820999 0.33700001 0.36000001
-6.5510001 40.737999 0.33700001 0.23
-6.645 40.909 0.33700001 0.25999999
-6.7490001 40.742001 0.33700001 0.13
-6.8559999 40.598 0.33700001 0.31999999
-6.9489999 40.373001 0.336 0.12
-6.9899998 39.859001 0.33399999 0.25999999
-7.0599999 39.526001 0.333 0.17
-7.1630001 39.389 0.333 0.20999999
-7.2639999 39.594002 0.33399999 0.41999999
-7.362 39.425999 0.333 0.25
-7.4879999 39.414001 0.333 0.27000001
-7.5799999 39.226002 0.333 0
-7.7989998 39.694 0.33399999 0.090000004
-7.934 39.717999 0.33399999 0.18000001
-8.0120001 39.464001 0.33399999 0.15000001
-7.9879999 39.029999 0.33199999 0.14
-8.0450001 38.686001 0.331 0.15000001
-8.1450005 38.557999 0.331 0.47
-8.3140001 38.757 0.33199999 0.16
-8.3920002 38.532001 0.331 0
-11.956 54.125999 0.382 0
-8.7119999 38.824001 0.33199999 0.059999999
-8.7049999 38.512001 0.331 0.11
-8.7489996 38.145 0.33000001 0
-9.0010004 38.689999 0.33199999 0
-13.019 55.219002 0.38600001 0
-9.2790003 38.776001 0.33199999 0
-9.2030001 37.932999 0.33000001 0.090000004
-9.3430004 37.988998 0.33000001 0.25
-9.401 37.966999 0.33000001 0.28
-9.5360003 37.999001 0.33000001 0.38
-9.6169996 37.819 0.33000001 0.20999999
-9.7200003 37.724998 0.33000001 0.28999999
-9.8710003 37.821999 0.33000001 0.16
-10.05 38.019001 0.331 0.43000001
-10.206 38.125 0.331 0.23999999
-10.265 38.103001 0.331 0.2
-10.394 38.105 0.331 0.14
-10.731 38.861 0.33399999 0.19
-10.71 38.316002 0.33199999 0.19
-10.816 38.229 0.33199999 0.19
-10.91 38.105999 0.33199999 0.19
-10.947 38.009998 0.331 0.15000001
-11.057 37.941002 0.331 0.16
-11.568 39.237999 0.336 0.15000001
-11.683 39.175999 0.336 0.16
-11.878 39.379002 0.336 0.2
-14.648 48.033001 0.36500001 0.11
-12.851 41.658001 0.34400001 0
-16.183001 52.192001 0.37900001 0
-16.582001 52.893002 0.382 0
-16.341 51.553001 0.377 0
-12.763 38.964001 0.336 0.28
-12.853 38.827 0.336 0.20999999
-13.09 39.132 0.33700001 0.12
-13.153 39.117001 0.33700001 0.14
-13.22 38.910999 0.336 0
-13.405 39.051998 0.33700001 0
-13.478 38.473 0.33500001 0.30000001
-13.532 38.243999 0.33500001 0.15000001
-13.399 37.676998 0.333 0.41999999
-13.555 37.738998 0.333 0.19
-13.649 37.627998 0.333 0
-13.929 38.028999 0.33399999 0.090000004
-13.772 37.236 0.33199999 0.13
-13.935 37.316002 0.33199999 0.27000001
-14.085 37.360001 0.333 0.19
-14.179 37.431999 0.333 0.28
-14.337 37.491001 0.333 0.20999999
-14.434 37.394001 0.333 0.25
-14.451 36.748001 0.331 0.44999999
-14.549 36.658001 0.331 0.20999999
-14.582 36.407001 0.33000001 0
-15.778 39.217999 0.34 0.050000001
-14.745 36.316002 0.33000001 0.14
-14.798 36.120998 0.33000001 0
-21.566999 52.208 0.38499999 0.07
-15.019 36.013 0.33000001 0.11
-15.006 35.667 0.329 0.38999999
-15.143 35.679001 0.329 0.19
-15.197 35.494999 0.329 0.27000001
-15.254 35.473 0.329 0.2
-15.17 34.974998 0.32699999 0.31999999
-15.131 34.585999 0.32600001 0.19
-14.9 33.768002 0.32300001 0.25999999
-15.002 33.712002 0.32300001 0.17
-15.06 33.556999 0.32300001 0.46000001
-15.182 33.688 0.32300001 0.20999999
-15.645 34.426998 0.32600001 0.23
-15.8 34.48 0.32600001 0.28999999
-15.911 34.437 0.32600001 0.20999999
-16.003 34.352001 0.32600001 0.16
-16.028999 34.125999 0.32600001 0.41
-16.396999 34.626999 0.32800001 0.16
-16.219999 34.115002 0.32600001 0
-16.372 34.158001 0.32600001 0
-23.908001 49.507999 0.38 0
-22.740999 46.712002 0.37099999 0
-22.884001 46.632999 0.37099999 0
-24.226999 48.983002 0.37900001 0
-21.024 41.999001 0.35499999 0
-23.197001 45.985001 0.36899999 0
-26.781 52.685001 0.39300001 0
-23.415001 45.700001 0.36899999 0
-23.562 45.632999 0.36899999 0.07
-21.937 42.157001 0.35699999 0.18000001
-21.945 41.849998 0.35600001 0.23
-21.962999 41.726002 0.35499999 0.16
-18.66 35.174 0.33199999 0.12
-18.083 33.827 0.32800001 0.38
-18.101999 33.605999 0.32699999 0.23
-18.173 33.486 0.32699999 0.23
-18.528999 33.888 0.329 0.27000001
-18.101 32.859001 0.32499999 0.16
-18.131001 32.790001 0.32499999 0.27000001
-18.273001 32.805 0.32499999 0.27000001
-18.441999 32.863998 0.32600001 0.13
-19.763 34.964001 0.333 0.14
-19.827 34.821999 0.333 0
-20.849001 36.353001 0.33899999 0.039999999
-19.923 34.484001 0.33199999 0.16
-19.971001 34.442001 0.33199999 0.20999999
-19.881001 34.039001 0.331 0.18000001
-19.825001 33.700001 0.33000001 0.18000001
-19.927 33.631001 0.33000001 0.46000001
-20.469999 34.301998 0.333 0.12
-20.677999 34.404999 0.333 0.30000001
-20.882 34.499001 0.33399999 0.2
-20.966999 34.515999 0.33399999 0.31
-21.172001 34.609001 0.33500001 0
-25.594 41.553001 0.361 0
-25.808001 41.606998 0.361 0
-25.952 41.548 0.361 0
-25.330999 39.991001 0.35600001 0
-23.659 37.217999 0.34599999 0
-25.940001 40.528999 0.35800001 0
-23.888 37.062 0.34599999 0
-23.872 36.784 0.345 0
-22.356001 33.973999 0.33500001 0.30000001
-22.452 33.888 0.33500001 0.23
-22.5 33.844002 0.33500001 0.23999999
-22.652 33.841999 0.33500001 0.25
-22.938 34.037998 0.336 0.14
-22.872 33.709999 0.33500001 0.14
-23.103001 33.821999 0.336 0.14
-23.226 33.773998 0.336 0.25
-23.674999 34.196999 0.338 0.25
-23.674999 34.083 0.338 0.19
-23.686001 33.870998 0.33700001 0.17
-23.796 33.800999 0.33700001 0.30000001
-24.205999 34.154999 0.33899999 0.11
-24.297001 34.056 0.33899999 0.16
-24.169001 33.653 0.33700001 0.14
-24.493 33.879002 0.33899999 0.1
-25.462 35.105 0.34400001 0.14
-24.663 33.778 0.33899999 0.16
-24.753 33.679001 0.33899999 0.1
-24.781 33.494999 0.338 0.17
-25.493999 34.235001 0.34099999 0.18000001
-25.535 34.064999 0.34099999 0.15000001
-26.122999 34.624001 0.34400001 0.17
-26.155001 34.551998 0.34299999 0.23999999
-26.007 34.133999 0.34200001 0.31999999
-26.483 34.534 0.34400001 0.25
-26.862 34.801998 0.345 0
-28.673 36.91 0.354 0
-27.162001 34.736 0.34599999 0.12
-27.105 34.439999 0.345 0.20999999
-27.136 34.368 0.345 0.2
-27.329 34.389999 0.345 0
-27.830999 34.797001 0.347 0.14
-27.747 34.469002 0.34599999 0.15000001
-27.944 34.492001 0.347 0.40000001
-28.099001 34.460999 0.347 0.2
-28.281 34.463001 0.347 0
-31.319 38.047001 0.36199999 0
-31.377001 37.874001 0.36199999 0
-31.02 37.203999 0.359 0
-31.743999 37.831001 0.36199999 0
-50.75 60.120998 0.45500001 0
-50.879002 59.890999 0.45500001 0
-50.919998 59.558998 0.454 0
-50.945999 59.400002 0.45300001 0
-37.459 43.388 0.38699999 0
-37.583 43.257 0.38699999 0
-37.943001 43.394001 0.389 0
-37.606998 42.738998 0.38600001 0
-37.734001 42.611 0.38600001 0
-37.986 42.761002 0.38699999 0
-37.862 42.353001 0.38600001 0
-37.737999 41.948002 0.38499999 0
-34.021999 37.575001 0.36700001 0
-34.130001 37.458 0.36700001 0.12
-34.151001 37.243999 0.366 0.22
-34.125 36.981998 0.36500001 0.090000004
-34.397999 37.160999 0.366 0.14
-34.557999 37.098999 0.36700001 0
-34.490002 36.792999 0.366 0.059999999
-34.604 36.682999 0.366 0.14
-34.726002 36.582001 0.366 0.15000001
-35.009998 36.650002 0.36700001 0.31
-35.228001 36.646999 0.36700001 0.2
-35.451 36.647999 0.368 0.18000001
-35.548 36.632999 0.368 0.18000001
-35.692001 36.550999 0.368 0.13
-35.900002 36.534 0.368 0.13
-27.853001 28.159 0.33199999 0.19
-27.913 28.042999 0.33199999 0.25
-28.004 27.958 0.33199999 0
-36.014999 35.629002 0.36700001 0
-49.195999 48.376999 0.42399999 0
-49.379002 48.252998 0.42399999 0.07
-36.976002 35.896999 0.36899999 0.16
-37.105999 35.798 0.36899999 0.16
-37.151001 35.616001 0.36899999 0
-37.456001 35.683998 0.37 0
-37.521 35.409 0.36899999 0
-37.641998 35.300999 0.36899999 0
-43.693001 40.723999 0.39500001 0
-38.048 35.235001 0.37 0.12
-38.091999 35.054001 0.37 0.31
-38.257999 35.096001 0.37 0.11
-38.532001 35.125 0.37099999 0
-43.424999 39.341 0.39199999 0
-38.351002 34.521 0.36899999 0
-43.810001 39.191002 0.39199999 0
-38.764 34.455002 0.37 0
-52.938999 46.769001 0.42899999 0
-39.431999 34.608002 0.37200001 0.1
-39.410999 34.48 0.37200001 0.11
-39.605 34.431 0.37200001 0
-39.763 34.348999 0.37200001 0
-38.965 33.445999 0.36899999 0.1
-38.923 33.198002 0.368 0.17
-39.004002 33.056 0.368 0
-39.030998 32.973999 0.368 0.11
-40.381001 33.897999 0.373 0
-40.32 33.632 0.37200001 0
-40.512001 33.576 0.373 0
-40.764 33.57 0.373 0
-40.816002 33.397999 0.373 0.07
-40.921001 33.27 0.373 0.13
-40.841 33.098999 0.373 0.1
-41.238998 33.207001 0.37400001 0
-41.419998 33.139 0.37400001 0
-49.5 39.355999 0.40599999 0
-49.653999 39.223999 0.40599999 0
-42.016998 32.972 0.375 0.090000004
-41.678001 32.494999 0.373 0
-42.050999 32.68 0.375 0.050000001
-42.263 32.632 0.375 0
-42.359001 32.493999 0.375 0
-42.522999 32.196999 0.375 0
-57.722 43.432999 0.435 0
-41.403 30.941 0.37 0
-41.451 30.875999 0.37 0
-43.035 31.847 0.37599999 0.15000001
-43.085999 31.676001 0.375 0
-44.582001 32.562 0.38100001 0
-43.123001 31.287001 0.375 0.12
-43.122002 31.08 0.37400001 0.11
-42.869999 30.694 0.373 0.16
-43.282001 30.886999 0.37400001 0.090000004
-43.507999 30.841999 0.375 0
-43.636002 30.726999 0.375 0
-58.277 40.775002 0.43099999 0
-52.931999 36.785 0.41 0
-45.075001 31.111 0.37900001 0
-49.407001 33.875 0.396 0.12
-49.529999 33.845001 0.396 0.16
-49.505001 33.599998 0.39500001 0.1
-49.546001 33.401001 0.39500001 0
-45.381001 30.382999 0.37900001 0.079999998
-46.446999 30.886999 0.38299999 0
-46.292999 30.575001 0.382 0
-45.987999 30.166 0.38 0
-46.117001 30.148001 0.38 0
-45.438999 29.5 0.37799999 0.07
-45.580002 29.389 0.37799999 0.16
-45.472 29.117001 0.377 0.25
-45.511002 28.941 0.377 0
-44.716999 28.239 0.37400001 0.07
-44.730999 28.051001 0.373 0.20999999
-44.817001 28.007 0.373 0
-44.841 27.632 0.373 0
-44.757 27.386 0.37200001 0
-44.794998 27.216999 0.37200001 0
-53.784 32.452999 0.405 0
-45.074001 27.096001 0.373 0
-45.16 26.955 0.373 0
-54.271999 32.168999 0.40599999 0
-45.960999 27.042999 0.375 0.11
-44.890999 26.223 0.37099999 0.25
-45.071999 26.139999 0.37099999 0.19
-45.202 26.025999 0.37099999 0.18000001
-45.210999 25.841999 0.37099999 0
-45.277 25.785999 0.37099999 0
-47.222 26.698 0.37799999 0
-48.755001 27.364 0.38299999 0
-48.737 27.153 0.38299999 0
-51.301998 28.372999 0.39199999 0
-56.817001 31.194 0.41100001 0
-57.321999 31.354 0.41299999 0
-57.269001 31.091999 0.412 0
-50.543999 27.232 0.38800001 0
-48.769001 26.077 0.38100001 0
-49.056 26.032 0.382 0
-48.987 25.799 0.38100001 0.12
-49.004002 25.611 0.38100001 0.27000001
-49.097 25.562 0.38100001 0
-49.144001 25.389999 0.38100001 0
-56.714001 29.080999 0.40799999 0
-52.757999 26.841 0.39300001 0
-52.577999 26.542 0.39199999 0
-55.613998 27.857 0.403 0
-51.977001 25.83 0.38999999 0
-51.891998 25.686001 0.389 0
-51.835999 25.455 0.389 0
-52.194 25.427999 0.38999999 0.12
-52.044998 25.153999 0.389 0.1
-52.195999 25.025 0.389 0.090000004
-52.362999 24.903 0.38999999 0.15000001
-52.599998 24.813 0.38999999 0.1
-52.862 24.834999 0.391 0.079999998
-59.713001 27.829 0.414 0
-59.938999 27.705999 0.41499999 0
-59.804001 27.416 0.414 0
-60.834999 27.658001 0.417 0
-61.159 27.573 0.41800001 0
-60.936001 27.243 0.417 0
-60.972 27.143999 0.417 0
-61.220001 27.024 0.41800001 0
-61.294998 26.827999 0.41800001 0
-61.368 26.629999 0.41800001 0
-72.471001 31.183001 0.456 0
-73.353996 31.291 0.458 0
-73.524002 31.09 0.458 0
-73.767998 28.497 0.456 0
-77.649002 -3.701 0.45199999 0
-75.405998 -4.3070002 0.44499999 0
-75.25 -4.5359998 0.44400001 0
-59.353001 -3.77 0.39399999 0
-75.067001 -4.9980001 0.44400001 0
-75.292 -5.132 0.44499999 0
-78.572998 -5.6030002 0.45500001 0
-69.953003 -5.2119999 0.428 0
-69.961998 -5.4330001 0.428 0
-70.011002 -5.6589999 0.428 0
-70.539001 -5.9239998 0.43000001 0
-70.382004 -6.1339998 0.43000001 0
-67.112999 -5.9559999 0.419 0
-58.042 -5.3390002 0.391 0
-60.882 -5.7909999 0.40000001 0
-60.844002 -5.9809999 0.40000001 0
-56.582001 -5.743 0.38600001 0.050000001
-33.151001 -3.4809999 0.31200001 0
-57.676998 -6.2199998 0.38999999 0
-52.185001 -5.7129998 0.37200001 0
-57.581001 -6.4850001 0.389 0
-57.497002 -6.658 0.389 0
-45.855999 -5.6069999 0.352 0
-52.870998 -6.6300001 0.375 0
-52.841999 -6.7950001 0.375 0
-51.801998 -6.9099998 0.37200001 0
-39.969002 -5.4660001 0.33399999 0
-49.001999 -6.8520002 0.36300001 0
-48.987 -7.006 0.36300001 0.11
-39.637001 -5.8010001 0.333 0
-48.880001 -7.2259998 0.36300001 0.13
-39.509998 -5.973 0.333 0.15000001
-39.331001 -6.073 0.33199999 0.19
-39.312 -6.1960001 0.33199999 0.46000001
-39.396999 -6.336 0.333 0.13
-39.237 -6.4369998 0.33199999 0.16
-34.527 -5.7789998 0.317 0.16
-39.172001 -6.6160002 0.33199999 0.25999999
-39.182999 -6.7449999 0.33199999 0.15000001
-34.325001 -6.0229998 0.317 0.47
-34.457001 -6.158 0.317 0.22
-34.172001 -6.2179999 0.31600001 0.27000001
-34.443001 -6.3790002 0.317 0.16
-34.153999 -6.4359999 0.31600001 0.5
-34.409 -6.54 0.317 0.23999999
-34.203999 -6.6129999 0.317 0.28999999
-34.108002 -6.7059999 0.31600001 0.22
-33.794998 -6.7550001 0.315 0.20999999
-34.015999 -6.9099998 0.31600001 0
-34.863998 -7.1960001 0.31900001 0
-29.346001 -6.1570001 0.301 0.059999999
-30.41 -6.5289998 0.30500001 0
-44.278 -9.6400003 0.34999999 0
-54.032001 -11.936 0.38100001 0
-53.991001 -12.105 0.38100001 0
-53.952999 -12.274 0.38100001 0.14
-28.731001 -6.6440001 0.30000001 0.16
-30.848 -7.1820002 0.30700001 0.30000001
-30.870001 -7.29 0.30700001 0.30000001
-41.196999 -9.8559999 0.34 0
-41.176998 -9.9879999 0.34 0
-41.162998 -10.122 0.34 0.13
-38.424999 -9.5790005 0.33199999 0.12
-28.789 -7.2789998 0.30000001 0
-38.231998 -9.7220001 0.331 0.12
-38.306 -9.8690004 0.331 0.22
-38.348999 -10.008 0.33199999 0.12
-25.792999 -6.8270001 0.29100001 0.25999999
-25.742001 -6.9000001 0.29100001 0.34
-25.753 -6.9899998 0.29100001 0.41
-29.082001 -7.9879999 0.30199999 0.25
-24.073999 -6.658 0.28600001 0.30000001
-24.031 -6.7270002 0.285 0.23999999
-23.983 -6.7950001 0.285 0.40000001
-23.981001 -6.8759999 0.285 0.28999999
-23.961 -6.9520001 0.285 0.28999999
-35.765999 -10.485 0.324 0.13
-31.201 -9.257 0.30899999 0.17
-25.715 -7.678 0.29100001 0.12
-23.805 -7.191 0.285 0.38
-23.719 -7.2470002 0.285 0.38
-23.691999 -7.3200002 0.285 0.25
-23.598 -7.3730001 0.285 0.30000001
-23.431999 -7.402 0.28400001 0.38
-23.872 -7.6230001 0.28600001 0.25
-23.320999 -7.4879999 0.28400001 0.28999999
-23.318001 -7.5679998 0.28400001 0.41
-23.193001 -7.6079998 0.28400001 0.20999999
-23.136999 -7.6700001 0.28400001 0.27000001
-23.219 -7.7779999 0.28400001 0.44999999
-23.139999 -7.8330002 0.28400001 0.16
-24.056 -8.2259998 0.287 0.28
-24.041 -8.2629995 0.287 0.38
-24.042999 -8.3479996 0.287 0.27000001
-24.056 -8.4379997 0.287 0.23
-20.32 -7.2030001 0.27500001 0.30000001
-20.26 -7.2540002 0.27500001 0.41
-20.239 -7.3179998 0.27500001 0.30000001
-20.222 -7.348 0.27500001 0.56999999
-20.492001 -7.5180001 0.27599999 0
-50.52 -18.674999 0.377 0
-17.08 -6.4549999 0.264 0.13
-17.634001 -6.7259998 0.266 0.25999999
-17.546 -6.756 0.266 0.23999999
-17.434 -6.7449999 0.266 0.2
-16.618999 -6.4899998 0.26300001 0.54000002
-17.073 -6.7290001 0.26499999 0.31
-16.240999 -6.461 0.26199999 0.38999999
-16.26 -6.5279999 0.26199999 0.25999999
-16.499001 -6.684 0.26300001 0.34999999
-16.367001 -6.6900001 0.26300001 0.28999999
-16.354 -6.7150002 0.26300001 0.43000001
-16.037001 -6.645 0.26199999 0.25
-16.038 -6.704 0.26199999 0.37
-16.077999 -6.7800002 0.26199999 0.34999999
-16.018 -6.8140001 0.26199999 0.47999999
-16.07 -6.8959999 0.26199999 0.31999999
-15.925 -6.8930001 0.26199999 0.37
-15.916 -6.9190001 0.26199999 0.41
-15.854 -6.9510002 0.26100001 0.28999999
-15.854 -7.0110002 0.26100001 0.43000001
-15.836 -7.0619998 0.26100001 0.38
-15.874 -7.1389999 0.26199999 0.25
-15.848 -7.1869998 0.26199999 0.36000001
-15.891 -7.2670002 0.26199999 0.56999999
-15.759 -7.237 0.26100001 0.25
-15.693 -7.2659998 0.26100001 0.28
-15.967 -7.454 0.26199999 0.27000001
-13.843 -6.5190001 0.255 0.5
-15.942 -7.5640001 0.26199999 0.28
-13.345 -6.388 0.25299999 0.44
-26.909 -12.956 0.301 0.23
-26.84 -12.975 0.301 0.20999999
-15.705 -7.665 0.26199999 0.44999999
-26.684 -13.107 0.301 0.28
-13.438 -6.6669998 0.25400001 0.14
-12.848 -6.4260001 0.252 0.54000002
-26.378 -13.318 0.30000001 0.34
-26.309 -13.388 0.30000001 0.34
-26.229 -13.451 0.30000001 0.34
-26.16 -13.52 0.30000001 0.43000001
-26.087 -13.586 0.30000001 0.36000001
-13.733 -7.2210002 0.25600001 0.25
-25.927 -13.711 0.29899999 0.20999999
-13.737 -7.3060002 0.25600001 0.30000001
-13.767 -7.3769999 0.25600001 0.44
-25.9 -13.957 0.30000001 0.33000001
-25.823999 -14.022 0.29899999 0.34
-25.747 -14.084 0.29899999 0.34999999
-25.672001 -14.149 0.29899999 0.36000001
-25.6 -14.214 0.29899999 0.36000001
-25.541 -14.234 0.29899999 0.34999999
-25.462999 -14.295 0.29899999 0.34
-25.386 -14.357 0.29899999 0.34999999
-25.226 -14.372 0.29800001 0.30000001
-25.051001 -14.377 0.29800001 0.34
-24.981001 -14.441 0.29800001 0.34999999
-24.907 -14.503 0.29800001 0.38
-24.854 -14.577 0.29800001 0.15000001
-14.125 -8.3269997 0.25799999 0.49000001
-14.084 -8.3620005 0.25799999 0.36000001
-14.023 -8.3859997 0.25799999 0.41
-13.981 -8.4209995 0.25799999 0.28999999
-13.968 -8.4729996 0.25799999 0.44
-24.419001 -14.895 0.29699999 0.23999999
-13.7 -8.3990002 0.257 0.54000002
-13.653 -8.4300003 0.257 0.23
-13.606 -8.46 0.257 0.28999999
-24.139999 -15.091 0.29699999 0.27000001
-13.4 -8.4490004 0.257 0.38
-13.366 -8.4870005 0.257 0.16
-13.217 -8.4510002 0.25600001 0.60000002
-13.197 -8.467 0.25600001 0.25
-13.069 -8.4429998 0.25600001 0.17
-12.932 -8.4130001 0.255 0.57999998
-13.347 -8.7419996 0.257 0.14
-13.502 -8.9029999 0.25799999 0.5
-13.434 -8.9189997 0.25799999 0.41
-13.12 -8.7709999 0.257 0.31
-13.041 -8.7480001 0.25600001 0.38
-13.015 -8.79 0.25600001 0.31999999
-13.02 -8.8529997 0.25600001 0.36000001
-13.328 -9.1230001 0.25799999 0.34999999
-13.461 -9.276 0.25799999 0.52999997
-23.823999 -16.503 0.29800001 0.18000001
-23.75 -16.563 0.29800001 0.41
-23.740999 -16.612 0.29800001 0.54000002
-23.790001 -16.757 0.29899999 0.2
-23.75 -16.841 0.29899999 0.36000001
-23.690001 -16.910999 0.29899999 0.17
-23.634001 -16.983 0.29899999 0.41
-23.518999 -17.013 0.29800001 0.23999999
-23.194 -16.945999 0.29699999 0.33000001
-23.131001 -17.011 0.29699999 0.40000001
-23.1 -17.101 0.29699999 0.38999999
-23.021 -17.153999 0.29699999 0.38
-22.952 -17.215 0.29699999 0.41
-22.875999 -17.271 0.29699999 0.40000001
-22.833 -17.294001 0.29699999 0.31
-22.451 -17.117001 0.296 0.47999999
-21.771 -16.708 0.29300001 0.23
-21.608999 -16.691999 0.29300001 0.2
-21.459999 -16.684999 0.292 0.20999999
-21.282 -16.653999 0.292 0.16
-21.25 -16.737 0.292 0.13
-21.357 -16.875 0.29300001 0.28999999
-21.274 -16.919001 0.292 0.55000001
-21.264 -17.02 0.29300001 0.38999999
-21.469999 -17.295 0.294 0.28
-21.679001 -17.576 0.29499999 0.18000001
-21.895 -17.865 0.296 0.25
-21.878 -17.966 0.296 0.37
-21.847 -17.997999 0.296 0.37
-21.784 -18.061001 0.296 0.38
-21.715 -18.118999 0.296 0.38999999
-21.632999 -18.167 0.296 0.41
-21.573 -18.232 0.296 0.34999999
-21.511 -18.296 0.296 0.38
-21.434999 -18.348 0.296 0.38
-21.393 -18.370001 0.296 0.38
