# .PCD v0.7 - Point Cloud Data file format
VERSION 0.7
FIELDS x y z intensity
SIZE 4 4 4 4
TYPE F F F F
COUNT 1 1 1 1
WIDTH 1387
HEIGHT 1
VIEWPOINT 0 0 0 1 0 0 0
POINTS 1387
DATA ascii
1.291 4.9429998 -1.714 0.20999999
1.279 4.96 -1.719 0.18000001
1.258 4.9460001 -1.712 0.27000001
1.245 4.9590001 -1.716 0.23
1.24 4.9699998 -1.719 0.17
1.2180001 4.9520001 -1.711 0.27000001
1.207 4.9720001 -1.717 0.23
1.193 4.9819999 -1.719 0.18000001
1.177 4.987 -1.72 0.28
1.165 5.0040002 -1.724 0.18000001
1.143 4.9819999 -1.715 0.13
1.135 4.9819999 -1.714 0.2
1.1210001 4.994 -1.7180001 0.18000001
1.103 4.9850001 -1.7130001 0.28
1.09 5.0029998 -1.7180001 0.22
1.074 5.0029998 -1.717 0.16
1.057 5.0019999 -1.716 0.28999999
1.044 5.0190001 -1.72 0.22
1.035 5.013 -1.7180001 0.15000001
1.0190001 5.0139999 -1.717 0.28
1.003 5.0190001 -1.7180001 0.22
0.98799998 5.0240002 -1.7180001 0.18000001
0.97100002 5.0219998 -1.716 0.28
0.95700002 5.0339999 -1.72 0.23
0.94 5.033 -1.7180001 0.17
0.93000001 5.0240002 -1.714 0.27000001
0.91600001 5.0320001 -1.716 0.22
0.89999998 5.033 -1.716 0.15000001
0.884 5.0359998 -1.716 0.28
0.87099999 5.0549998 -1.722 0.23
0.85299999 5.0489998 -1.7180001 0.15000001
0.84500003 5.0500002 -1.7180001 0.28999999
0.829 5.0489998 -1.717 0.25
0.81599998 5.0669999 -1.722 0.17
0.79500002 5.0430002 -1.7130001 0.27000001
0.78200001 5.0619998 -1.719 0.23
0.76700002 5.0679998 -1.72 0.14
0.75 5.0609999 -1.717 0.28999999
0.73400003 5.0679998 -1.7180001 0.25
0.72600001 5.0650001 -1.717 0.15000001
0.70899999 5.0599999 -1.714 0.28999999
0.69499999 5.0770001 -1.72 0.25
0.68000001 5.086 -1.722 0.25
0.66299999 5.0809999 -1.72 0.27000001
0.64700001 5.0809999 -1.719 0.17
0.63099998 5.0869999 -1.72 0.28999999
0.62400001 5.0970001 -1.724 0.25
0.60799998 5.092 -1.721 0.18000001
0.59100002 5.0900002 -1.72 0.27000001
0.57599998 5.0970001 -1.722 0.23
0.56 5.099 -1.722 0.16
0.54299998 5.0970001 -1.72 0.28999999
0.52899998 5.112 -1.725 0.23999999
0.51999998 5.1030002 -1.722 0.18000001
0.50400001 5.1090002 -1.723 0.28
0.48899999 5.125 -1.728 0.23999999
0.47400001 5.1290002 -1.729 0.16
0.45500001 5.1040001 -1.72 0.25999999
0.43900001 5.1069999 -1.72 0.23
0.433 5.125 -1.726 0.18000001
0.41600001 5.1149998 -1.722 0.27000001
0.40000001 5.1259999 -1.726 0.23999999
0.38499999 5.1360002 -1.729 0.19
0.368 5.1259999 -1.725 0.28
0.35100001 5.1230001 -1.724 0.23
0.336 5.132 -1.726 0.18000001
0.31900001 5.1269999 -1.724 0.25999999
0.31099999 5.1279998 -1.724 0.16
0.29499999 5.131 -1.725 0.27000001
0.28099999 5.1539998 -1.733 0.23
0.26300001 5.1329999 -1.725 0.17
0.24699999 5.1350002 -1.726 0.28
0.23199999 5.1570001 -1.733 0.25
0.21600001 5.1550002 -1.732 0.18000001
0.206 5.1279998 -1.722 0.28
0.191 5.1399999 -1.726 0.23
0.175 5.1529999 -1.7309999 0.18000001
0.15899999 5.1440001 -1.728 0.27000001
0.14300001 5.1620002 -1.734 0.23
0.126 5.1529999 -1.73 0.15000001
0.118 5.151 -1.73 0.28999999
0.102 5.1479998 -1.728 0.23999999
0.086000003 5.1479998 -1.728 0.18000001
0.07 5.1459999 -1.728 0.25999999
0.054000001 5.1539998 -1.73 0.23
0.037 5.1560001 -1.7309999 0.2
0.021 5.152 -1.73 0.28
0.013 5.1560001 -1.7309999 0.22
-0.003 5.1620002 -1.733 0.18000001
-0.018999999 5.164 -1.734 0.27000001
-0.035999998 5.1820002 -1.7410001 0.23
-0.052000001 5.1620002 -1.733 0.17
-0.068000004 5.1539998 -1.73 0.27000001
-0.083999999 5.1760001 -1.738 0.23999999
-0.092 5.165 -1.734 0.18000001
-0.108 5.1589999 -1.732 0.27000001
-0.125 5.1919999 -1.745 0.2
-0.141 5.158 -1.732 0.25
-0.15700001 5.1669998 -1.7359999 0.23
-0.17399999 5.1739998 -1.738 0.18000001
-0.19 5.158 -1.733 0.25999999
-0.198 5.1599998 -1.734 0.23
-0.214 5.165 -1.7359999 0.19
-0.23 5.1589999 -1.734 0.28
-0.24699999 5.1669998 -1.737 0.22
-0.26300001 5.1760001 -1.7410001 0.17
-0.27900001 5.158 -1.734 0.25999999
-0.29499999 5.1589999 -1.735 0.22
-0.30399999 5.1719999 -1.74 0.18000001
-0.31900001 5.1440001 -1.73 0.27000001
-0.336 5.1599998 -1.7359999 0.23
-0.35299999 5.1739998 -1.742 0.18000001
-0.368 5.151 -1.734 0.27000001
-0.384 5.1479998 -1.733 0.22
-0.40099999 5.1630001 -1.739 0.16
-0.40900001 5.1529999 -1.7359999 0.27000001
-0.42500001 5.1539998 -1.7359999 0.23
-0.442 5.164 -1.7410001 0.18000001
-0.458 5.1550002 -1.738 0.25999999
-0.47499999 5.1630001 -1.7410001 0.20999999
-0.49200001 5.1739998 -1.7460001 0.17
-0.50599998 5.1479998 -1.737 0.27000001
-0.51499999 5.1589999 -1.7410001 0.19
-0.53100002 5.1550002 -1.7410001 0.25
-0.54699999 5.1479998 -1.738 0.23
-0.565 5.165 -1.745 0.17
-0.58099997 5.158 -1.743 0.27000001
-0.59600002 5.1459999 -1.74 0.22
-0.61199999 5.1459999 -1.7410001 0.18000001
-0.62 5.145 -1.7410001 0.25999999
-0.63599998 5.1399999 -1.739 0.22
-0.65200001 5.1409998 -1.7410001 0.17
-0.66900003 5.1409998 -1.7410001 0.25999999
-0.68400002 5.1329999 -1.739 0.18000001
-0.69999999 5.1290002 -1.738 0.25
-0.71899998 5.1479998 -1.7460001 0.18000001
-0.72299999 5.1170001 -1.735 0.25
-0.74299997 5.1420002 -1.745 0.18000001
-0.75700003 5.1269999 -1.7410001 0.25
-0.77399999 5.1259999 -1.7410001 0.22
-0.79000002 5.1220002 -1.7410001 0.18000001
-0.80599999 5.1230001 -1.742 0.25999999
-0.824 5.132 -1.7460001 0.19
-0.829 5.112 -1.739 0.23999999
-0.84799999 5.1279998 -1.7460001 0.19
-0.86199999 5.1090002 -1.74 0.25
-0.87900001 5.1129999 -1.743 0.19
-0.89300001 5.099 -1.738 0.25
-0.912 5.1129999 -1.745 0.19
-0.92699999 5.1069999 -1.743 0.14
-0.93699998 5.1129999 -1.7460001 0.20999999
-0.95300001 5.1110001 -1.747 0.16
-0.96700001 5.0970001 -1.743 0.25999999
-0.98299998 5.092 -1.742 0.23
-1.002 5.1079998 -1.749 0.2
-1.0140001 5.0809999 -1.74 0.25
-1.033 5.0939999 -1.7460001 0.2
-1.039 5.085 -1.743 0.25
-1.058 5.0929999 -1.747 0.22
-1.074 5.0929999 -1.749 0.17
-1.086 5.0689998 -1.7410001 0.25999999
-1.105 5.0809999 -1.747 0.23999999
-1.1210001 5.0749998 -1.7460001 0.17
-1.135 5.066 -1.744 0.25999999
-1.1440001 5.066 -1.745 0.22
-1.16 5.0630002 -1.745 0.17
-1.176 5.059 -1.745 0.27000001
-1.193 5.0609999 -1.747 0.23
-1.2079999 5.0549998 -1.7460001 0.18000001
-1.225 5.053 -1.747 0.28
-1.238 5.0380001 -1.743 0.23
-1.249 5.0489998 -1.747 0.19
-1.2640001 5.0419998 -1.7460001 0.27000001
-1.281 5.0450001 -1.749 0.25
-1.2970001 5.039 -1.748 0.18000001
-1.3099999 5.026 -1.745 0.28
-1.327 5.027 -1.747 0.23
-1.3430001 5.0229998 -1.747 0.17
-1.35 5.0149999 -1.745 0.27000001
-1.37 5.0289998 -1.751 0.23
-1.385 5.0209999 -1.75 0.18000001
-1.398 5.0079999 -1.747 0.27000001
-1.4170001 5.0139999 -1.751 0.18000001
-1.4299999 4.9990001 -1.747 0.25
-1.447 4.9980001 -1.748 0.22
-1.461 4.9899998 -1.747 0.17
-1.467 4.98 -1.744 0.27000001
-1.485 4.9850001 -1.747 0.16
-1.5 4.9780002 -1.747 0.27000001
-1.518 4.9809999 -1.749 0.20999999
-1.5319999 4.9689999 -1.747 0.17
-1.549 4.9710002 -1.749 0.25999999
-1.5700001 4.9809999 -1.755 0.16
-1.575 4.9689999 -1.751 0.25999999
-1.587 4.9549999 -1.748 0.23
-1.603 4.9520001 -1.749 0.18000001
-1.619 4.947 -1.749 0.27000001
-1.64 4.96 -1.755 0.23
-1.654 4.947 -1.753 0.18000001
-1.66 4.9390001 -1.751 0.27000001
-1.677 4.941 -1.753 0.25
-1.6900001 4.927 -1.75 0.19
-1.705 4.9219999 -1.75 0.28
-1.728 4.9359999 -1.757 0.18000001
-1.7359999 4.9109998 -1.75 0.13
-1.7539999 4.9130001 -1.753 0.20999999
-1.767 4.9239998 -1.758 0.18000001
-1.778 4.9060001 -1.753 0.27000001
-1.793 4.9000001 -1.753 0.22
-1.813 4.9070001 -1.758 0.18000001
-1.827 4.8959999 -1.756 0.25999999
-1.841 4.8870001 -1.755 0.23
-1.8559999 4.8790002 -1.7539999 0.18000001
-1.868 4.8889999 -1.7589999 0.27000001
-1.8789999 4.8720002 -1.755 0.22
-1.897 4.8730001 -1.757 0.17
-1.916 4.8759999 -1.761 0.28
-1.928 4.8610001 -1.757 0.22
-1.9349999 4.836 -1.75 0.17
-1.96 4.8530002 -1.7589999 0.27000001
-1.972 4.8390002 -1.756 0.23
-1.978 4.8330002 -1.755 0.18000001
-2.0009999 4.8460002 -1.762 0.14
-2.0120001 4.829 -1.758 0.2
-2.029 4.8280001 -1.76 0.17
-2.046 4.8249998 -1.761 0.28
-2.0639999 4.8260002 -1.7640001 0.18000001
-2.0639999 4.803 -1.757 0.25
-2.0880001 4.8169999 -1.765 0.20999999
-2.0929999 4.7880001 -1.756 0.12
-2.1159999 4.8010001 -1.763 0.15000001
-2.1289999 4.789 -1.761 0.25
-2.1340001 4.7579999 -1.752 0.15000001
-2.154 4.763 -1.757 0.25999999
-2.168 4.776 -1.763 0.18000001
-2.1719999 4.743 -1.753 0.23
-2.1960001 4.757 -1.761 0.18000001
-2.2160001 4.7620001 -1.765 0.13
-2.2260001 4.744 -1.761 0.18000001
-2.2409999 4.7360001 -1.761 0.12
-2.2650001 4.7490001 -1.7690001 0.18000001
-2.263 4.7249999 -1.761 0.20999999
-2.27 4.7010002 -1.7539999 0
-2.293 4.7129998 -1.761 0
-2.2980001 4.6849999 -1.753 0
-2.3210001 4.6950002 -1.76 0
-2.3310001 4.677 -1.756 0
-2.3410001 4.6599998 -1.752 0
-2.3629999 4.6680002 -1.758 0
-2.3670001 4.6570001 -1.755 0
-2.3699999 4.6259999 -1.7460001 0
-2.3900001 4.6300001 -1.751 0
-2.4119999 4.638 -1.757 0
-2.424 4.625 -1.755 0
-2.4330001 4.6059999 -1.75 0
-2.464 4.6300001 -1.763 0
-2.4630001 4.6110001 -1.757 0.02
-2.4860001 4.618 -1.763 0.07
-2.4979999 4.6069999 -1.761 0
-2.5179999 4.6090002 -1.765 0.13
-2.5220001 4.5809999 -1.757 0.050000001
-2.552 4.6030002 -1.77 0.16
-2.553 4.5879998 -1.765 0.2
-2.5639999 4.573 -1.762 0.090000004
-2.5799999 4.5679998 -1.763 0.090000004
-2.5969999 4.5650001 -1.765 0.090000004
-2.619 4.5700002 -1.771 0.15000001
-2.619 4.5359998 -1.76 0.050000001
-2.6400001 4.54 -1.765 0.15000001
-2.6389999 4.5219998 -1.7589999 0.050000001
-2.6589999 4.5229998 -1.763 0.17
-2.675 4.5180001 -1.765 0.11
-2.6949999 4.5190001 -1.7690001 0.16
-2.697 4.4899998 -1.76 0.050000001
-2.7219999 4.5 -1.768 0.16
-2.7309999 4.4840002 -1.765 0.18000001
-2.7379999 4.4780002 -1.7640001 0.18000001
-2.7479999 4.4629998 -1.761 0.18000001
-2.7780001 4.4819999 -1.773 0.16
-2.779 4.4499998 -1.763 0.050000001
-2.8039999 4.4590001 -1.771 0.17
-2.8150001 4.4460001 -1.7690001 0.2
-2.822 4.427 -1.765 0.1
-2.8469999 4.4499998 -1.776 0.17
-2.848 4.4219999 -1.768 0.12
-2.868 4.4219999 -1.772 0.18000001
-2.865 4.3860002 -1.761 0.050000001
-2.892 4.3979998 -1.77 0.17
-2.902 4.382 -1.767 0.2
-2.914 4.3720002 -1.766 0.1
-2.9419999 4.3829999 -1.775 0.16
-2.934 4.3559999 -1.765 0.20999999
-2.9530001 4.355 -1.7690001 0.1
-2.9779999 4.3629999 -1.776 0.14
-2.971 4.322 -1.763 0.050000001
-2.9990001 4.335 -1.772 0.17
-3.0009999 4.3080001 -1.765 0.2
-3.0109999 4.3080001 -1.767 0.090000004
-3.0409999 4.322 -1.777 0.16
-3.0320001 4.2810001 -1.763 0.050000001
-3.0610001 4.2930002 -1.773 0.16
-3.0610001 4.2649999 -1.765 0.19
-3.0810001 4.2649999 -1.7690001 0.1
-3.1029999 4.2659998 -1.774 0.15000001
-3.095 4.2410002 -1.765 0.050000001
-3.115 4.2410002 -1.7690001 0.16
-3.1270001 4.2290001 -1.768 0.2
-3.1359999 4.2129998 -1.765 0.090000004
-3.175 4.2379999 -1.781 0.15000001
-3.1630001 4.1950002 -1.766 0.050000001
-3.188 4.1999998 -1.773 0.17
-3.1889999 4.1880002 -1.77 0.2
-3.2019999 4.178 -1.77 0.18000001
-3.2130001 4.165 -1.768 0.039999999
-3.2249999 4.1529999 -1.768 0.079999998
-3.247 4.1550002 -1.773 0.079999998
-3.2620001 4.1469998 -1.774 0.15000001
-3.276 4.1389999 -1.775 0.16
-3.2679999 4.1139998 -1.766 0.039999999
-3.289 4.1139998 -1.771 0.07
-3.2909999 4.0910001 -1.765 0.039999999
-3.312 4.0910001 -1.77 0.07
-3.329 4.085 -1.772 0.079999998
-3.3380001 4.0700002 -1.77 0.16
-3.352 4.0609999 -1.77 0.17
-3.359 4.0570002 -1.771 0.17
-3.3770001 4.052 -1.774 0.18000001
-3.385 4.0359998 -1.771 0.090000004
-3.392 4.0180001 -1.768 0.090000004
-3.4200001 4.026 -1.776 0.16
-3.431 4.0139999 -1.776 0.050000001
-3.4389999 3.997 -1.773 0.18000001
-3.447 3.993 -1.774 0.2
-3.457 3.9790001 -1.772 0.1
-3.483 3.984 -1.78 0.16
-3.4779999 3.9530001 -1.77 0.050000001
-3.503 3.957 -1.777 0.18000001
-3.503 3.931 -1.77 0.11
-3.5150001 3.9200001 -1.77 0.18000001
-3.53 3.925 -1.775 0.11
-3.55 3.9219999 -1.779 0.18000001
-3.543 3.8900001 -1.7690001 0.23
-3.5810001 3.9070001 -1.7819999 0.2
-3.576 3.8770001 -1.774 0.12
-3.599 3.8770001 -1.779 0.18000001
-3.598 3.852 -1.772 0.12
-3.6029999 3.845 -1.772 0.2
-3.6170001 3.836 -1.773 0.11
-3.642 3.839 -1.78 0.18000001
-3.638 3.809 -1.771 0.12
-3.6630001 3.812 -1.778 0.18000001
-3.668 3.793 -1.774 0.12
-3.675 3.776 -1.772 0.15000001
-3.6860001 3.776 -1.774 0.23
-3.7019999 3.7679999 -1.776 0.17
-3.711 3.7539999 -1.775 0.25
-3.724 3.744 -1.776 0.16
-3.744 3.74 -1.78 0.23
-3.753 3.7260001 -1.778 0.18000001
-3.7539999 3.7030001 -1.773 0.23
-3.79 3.7279999 -1.788 0.2
-3.7750001 3.6889999 -1.775 0.12
-3.799 3.6889999 -1.781 0.18000001
-3.802 3.6700001 -1.777 0.12
-3.829 3.6719999 -1.784 0.18000001
-3.8169999 3.638 -1.773 0.11
-3.8540001 3.651 -1.786 0.2
-3.8369999 3.622 -1.774 0.11
-3.852 3.6140001 -1.776 0.17
-3.872 3.6099999 -1.78 0.20999999
-3.878 3.592 -1.778 0.18000001
-3.888 3.579 -1.777 0.25
-3.915 3.582 -1.785 0.18000001
-3.914 3.5580001 -1.779 0.25
-3.9100001 3.543 -1.774 0.20999999
-3.934 3.5420001 -1.78 0.16
-3.931 3.517 -1.774 0.27000001
-3.9519999 3.5139999 -1.778 0.23
-3.971 3.5090001 -1.7819999 0.17
-3.977 3.4909999 -1.78 0.25999999
-3.98 3.473 -1.776 0.15000001
-3.997 3.4760001 -1.7819999 0.25999999
-4.0079999 3.464 -1.7819999 0.16
-4.0190001 3.451 -1.7819999 0.25999999
-4.0349998 3.4430001 -1.784 0.2
-4.0320001 3.418 -1.778 0.12
-4.0510001 3.4130001 -1.7819999 0.18000001
-4.059 3.398 -1.78 0.20999999
-4.072 3.398 -1.784 0.17
-4.0739999 3.378 -1.78 0.23999999
-4.0939999 3.3729999 -1.784 0.18000001
-4.0960002 3.3529999 -1.78 0.25
-4.1110001 3.3440001 -1.7819999 0.16
-4.1139998 3.325 -1.779 0.23
-4.131 3.3169999 -1.7819999 0.16
-4.1300001 3.306 -1.779 0.23999999
-4.1539998 3.303 -1.785 0.19
-4.1539998 3.2820001 -1.78 0.12
-4.1700001 3.273 -1.783 0.2
-4.177 3.2579999 -1.7819999 0.11
-4.1799998 3.2390001 -1.778 0.18000001
-4.1989999 3.233 -1.7819999 0.11
-4.2189999 3.2379999 -1.789 0.18000001
-4.21 3.21 -1.78 0.12
-4.2270002 3.2019999 -1.784 0.19
-4.2360001 3.188 -1.783 0.11
-4.2529998 3.1800001 -1.786 0.19
-4.2600002 3.164 -1.785 0.11
-4.2740002 3.164 -1.789 0.18000001
-4.2810001 3.1489999 -1.788 0.2
-4.2789998 3.1259999 -1.7819999 0.1
-4.2989998 3.1210001 -1.7869999 0.19
-4.309 3.1070001 -1.7869999 0.11
-4.322 3.096 -1.788 0.18000001
-4.3239999 3.0769999 -1.785 0.11
-4.3330002 3.073 -1.7869999 0.18000001
-4.3379998 3.056 -1.785 0.11
-4.3759999 3.062 -1.7970001 0.18000001
-4.3590002 3.03 -1.786 0.20999999
-4.3720002 3.0179999 -1.7869999 0.1
-4.3870001 3.0090001 -1.79 0.14
-4.3800001 2.983 -1.7819999 0.050000001
-4.395 2.984 -1.7869999 0.17
-4.4120002 2.9760001 -1.79 0.2
-4.415 2.957 -1.788 0.1
-4.4499998 2.96 -1.799 0.17
-4.4369998 2.9319999 -1.789 0.20999999
-4.4520001 2.9219999 -1.7920001 0.16
-4.4489999 2.9000001 -1.786 0.050000001
-4.474 2.8959999 -1.793 0.17
-4.474 2.8859999 -1.791 0.2
-4.48 2.8699999 -1.79 0.1
-4.4970002 2.8610001 -1.793 0.18000001
-4.5019999 2.845 -1.7920001 0.1
-4.5219998 2.8369999 -1.7970001 0.17
-4.507 2.8080001 -1.786 0.050000001
-4.5240002 2.799 -1.79 0.17
-4.5349998 2.796 -1.793 0.2
-4.552 2.7869999 -1.796 0.1
-4.5539999 2.7679999 -1.793 0.19
-4.5710001 2.7590001 -1.7970001 0.1
-4.586 2.7479999 -1.799 0.16
-4.5700002 2.7190001 -1.789 0.050000001
-4.5929999 2.714 -1.795 0.18000001
-4.5929999 2.704 -1.793 0.2
-4.6079998 2.6930001 -1.796 0.1
-4.6110001 2.6760001 -1.794 0.18000001
-4.6279998 2.6659999 -1.7970001 0.11
-4.6389999 2.6530001 -1.799 0.19
-4.6440001 2.6370001 -1.7970001 0.11
-4.671 2.6429999 -1.807 0.18000001
-4.6440001 2.6070001 -1.7920001 0.20999999
-4.6630001 2.599 -1.7970001 0.1
-4.6849999 2.592 -1.802 0.19
-4.678 2.569 -1.796 0.11
-4.7020001 2.563 -1.803 0.18000001
-4.704 2.5450001 -1.8 0.23
-4.7049999 2.536 -1.799 0.1
-4.7189999 2.5250001 -1.801 0.18000001
-4.7220001 2.507 -1.799 0.11
-4.737 2.4960001 -1.802 0.19
-4.7360001 2.477 -1.799 0.11
-4.7540002 2.467 -1.803 0.18000001
-4.7550001 2.448 -1.8 0.11
-4.7670002 2.4449999 -1.803 0.18000001
-4.7729998 2.4300001 -1.803 0.23
-4.7870002 2.418 -1.8049999 0.16
-4.783 2.3970001 -1.801 0.23999999
-4.816 2.395 -1.811 0.19
-4.8049998 2.3699999 -1.803 0.23999999
-4.8260002 2.362 -1.809 0.18000001
-4.823 2.3510001 -1.806 0.25
-4.8319998 2.3369999 -1.807 0.2
-4.8239999 2.3139999 -1.801 0.23
-4.855 2.3099999 -1.8099999 0.18000001
-4.8449998 2.2869999 -1.803 0.23
-4.8639998 2.277 -1.808 0.18000001
-4.8610001 2.257 -1.804 0.23
-4.8709998 2.253 -1.807 0.17
-4.8610001 2.2290001 -1.8 0.23999999
-4.9029999 2.23 -1.813 0.18000001
-4.8839998 2.2030001 -1.803 0.25
-4.8979998 2.191 -1.806 0.19
-4.9029999 2.174 -1.8049999 0.23
-4.8979998 2.154 -1.801 0.1
-4.901 2.1459999 -1.801 0
-4.9419999 2.1459999 -1.814 0
-4.9590001 2.135 -1.818 0
-4.9320002 -1.849 -1.771 0
-4.914 -1.86 -1.766 0
-4.908 -1.8660001 -1.765 0.029999999
-4.9580002 -1.903 -1.786 0.14
-4.9239998 -1.908 -1.776 0.22
-4.8829999 -1.91 -1.762 0.22
-4.914 -1.939 -1.776 0.28
-4.888 -1.947 -1.7690001 0.28
-4.882 -1.962 -1.7690001 0.28999999
-4.8629999 -1.964 -1.763 0.28
-4.8600001 -1.98 -1.7640001 0.36000001
-4.8509998 -1.994 -1.763 0.30000001
-4.8649998 -2.0179999 -1.771 0.31999999
-4.868 -2.0369999 -1.774 0.34
-4.8390002 -2.043 -1.765 0.27000001
-4.8249998 -2.0550001 -1.763 0.34999999
-4.7989998 -2.053 -1.7539999 0.34999999
-4.7410002 -2.046 -1.734 0.28
-4.7309999 -2.0599999 -1.732 0.33000001
-4.7140002 -2.0699999 -1.728 0.31999999
-4.723 -2.0910001 -1.734 0.28
-4.744 -2.118 -1.745 0.31
-4.7509999 -2.1300001 -1.749 0.31999999
-4.75 -2.148 -1.751 0.37
-4.6659999 -2.128 -1.721 0.27000001
-4.6079998 -2.119 -1.701 0.31
-4.5549998 -2.112 -1.682 0.31999999
-4.5500002 -2.128 -1.683 0.34999999
-4.5240002 -2.1329999 -1.676 0.34
-4.454 -2.109 -1.649 0.28
-4.4629998 -2.1300001 -1.655 0.31999999
-4.5380001 -2.1830001 -1.688 0.34
-4.4549999 -2.161 -1.6569999 0.28
-4.4089999 -2.1559999 -1.642 0.30000001
-4.5040002 -2.2190001 -1.682 0.25
-4.5469999 -2.2579999 -1.7029999 0.31999999
-4.5780001 -2.2820001 -1.716 0.37
-4.5840001 -2.303 -1.722 0.34999999
-4.5900002 -2.3239999 -1.727 0.30000001
-4.5640001 -2.329 -1.72 0.31999999
-4.5349998 -2.332 -1.711 0.28999999
-4.598 -2.3829999 -1.739 0.25
-4.7179999 -2.4630001 -1.79 0.27000001
-4.7519999 -2.49 -1.806 0.34
-4.7329998 -2.4990001 -1.801 0.34999999
-4.4980001 -2.395 -1.709 0.23
-4.586 -2.4590001 -1.748 0.23
-4.7319999 -2.556 -1.811 0.27000001
-4.7709999 -2.596 -1.83 0.34999999
-4.7610002 -2.6099999 -1.829 0.37
-4.7519999 -2.6140001 -1.827 0.40000001
-4.7059999 -2.609 -1.811 0.31
-4.7090001 -2.6300001 -1.816 0.38
-4.7010002 -2.6440001 -1.816 0.34
-4.6919999 -2.6589999 -1.816 0.34999999
-4.6939998 -2.6800001 -1.8200001 0.30000001
-4.6690001 -2.6849999 -1.813 0.34999999
-4.6760001 -2.6989999 -1.818 0.31999999
-4.6939998 -2.7290001 -1.829 0.28999999
-4.7059999 -2.756 -1.8380001 0.36000001
-4.7140002 -2.78 -1.845 0.34
-4.757 -2.825 -1.8660001 0.34
-4.7470002 -2.839 -1.865 0.34
-4.7199998 -2.8429999 -1.858 0.34
-4.7020001 -2.8429999 -1.853 0.31999999
-4.6630001 -2.839 -1.84 0.33000001
-4.6269999 -2.8369999 -1.8279999 0.31
-4.573 -2.8239999 -1.809 0.31
-4.6009998 -2.8610001 -1.825 0.31999999
-4.598 -2.8800001 -1.8279999 0.31999999
-4.5949998 -2.888 -1.8279999 0.27000001
-4.5700002 -2.892 -1.822 0.34999999
-4.5349998 -2.891 -1.811 0.34999999
-4.5339999 -2.9100001 -1.814 0.31
-4.4920001 -2.9030001 -1.8 0.33000001
-4.5019999 -2.9289999 -1.808 0.33000001
-4.5289998 -2.967 -1.824 0.31999999
-4.54 -2.984 -1.83 0.38999999
-4.5240002 -2.994 -1.8279999 0.30000001
-4.5669999 -3.043 -1.85 0.31999999
-4.5489998 -3.052 -1.847 0.31999999
-4.5510001 -3.0739999 -1.851 0.28999999
-4.566 -3.105 -1.862 0.38
-4.5760002 -3.1329999 -1.8710001 0.41
-4.546 -3.1329999 -1.862 0.27000001
-4.5440001 -3.1429999 -1.863 0.34999999
-4.5040002 -3.135 -1.85 0.31999999
-4.506 -3.158 -1.855 0.33000001
-4.5040002 -3.178 -1.859 0.33000001
-4.48 -3.1819999 -1.853 0.37
-4.4530001 -3.184 -1.845 0.31
-4.4679999 -3.2049999 -1.854 0.38
-4.4559999 -3.2179999 -1.853 0.30000001
-4.4229999 -3.2160001 -1.8430001 0.38
-4.415 -3.2309999 -1.844 0.31
-4.3829999 -3.2290001 -1.834 0.30000001
-4.3930001 -3.257 -1.8430001 0.31
-4.3870001 -3.2739999 -1.845 0.30000001
-4.4169998 -3.3069999 -1.8609999 0.38999999
-4.4050002 -3.3199999 -1.86 0.28999999
-4.4180002 -3.352 -1.8710001 0.31999999
-4.4060001 -3.365 -1.87 0.33000001
-4.4109998 -3.3900001 -1.877 0.34
-4.3930001 -3.398 -1.874 0.36000001
-4.3670001 -3.4000001 -1.867 0.30000001
-4.368 -3.4119999 -1.87 0.36000001
-4.3779998 -3.4419999 -1.8789999 0.34999999
-4.3889999 -3.473 -1.8890001 0.28999999
-4.3870001 -3.493 -1.893 0.34999999
-4.3629999 -3.497 -1.887 0.28999999
-4.3709998 -3.526 -1.896 0.34999999
-4.3169999 -3.494 -1.874 0.28
-4.2930002 -3.497 -1.867 0.31999999
-4.3119998 -3.5350001 -1.882 0.38999999
-4.2789998 -3.5309999 -1.872 0.28999999
-4.2670002 -3.543 -1.8710001 0.33000001
-4.289 -3.5840001 -1.886 0.30000001
-4.2940001 -3.6110001 -1.8940001 0.36000001
-4.2649999 -3.598 -1.883 0.28
-4.256 -3.6140001 -1.8839999 0.36000001
-4.223 -3.609 -1.874 0.30000001
-4.2360001 -3.6429999 -1.886 0.37
-4.2119999 -3.645 -1.88 0.30000001
-4.2179999 -3.6730001 -1.888 0.34
-4.2329998 -3.71 -1.901 0.34
-4.2360001 -3.7349999 -1.9069999 0.38999999
-4.1729999 -3.6919999 -1.88 0.23
-4.2140002 -3.7520001 -1.905 0.34999999
-4.165 -3.7320001 -1.888 0.28
-4.1560001 -3.7479999 -1.8890001 0.38999999
-4.1599998 -3.7750001 -1.897 0.31999999
-4.1230001 -3.7650001 -1.8839999 0.36000001
-4.0960002 -3.753 -1.874 0.31
-4.0760002 -3.7579999 -1.87 0.30000001
-4.0999999 -3.8039999 -1.888 0.31999999
-4.119 -3.845 -1.903 0.33000001
-4.145 -3.8940001 -1.9220001 0.28999999
-4.1040001 -3.8800001 -1.9069999 0.34999999
-4.1009998 -3.901 -1.9119999 0.31
-4.0780001 -3.891 -1.903 0.41
-4.0349998 -3.875 -1.888 0.23999999
-4.1129999 -3.974 -1.933 0.27000001
-4.1040001 -3.9909999 -1.9349999 0.38
-4.085 -3.997 -1.932 0.34
-4.0549998 -3.993 -1.923 0.27000001
-4.0749998 -4.0370002 -1.939 0.34999999
-4.0580001 -4.033 -1.934 0.30000001
-4.046 -4.0469999 -1.934 0.33000001
-4.0300002 -4.0560002 -1.932 0.30000001
-4.0250001 -4.0760002 -1.936 0.40000001
-4 -4.0770001 -1.9299999 0.31999999
-4.0159998 -4.119 -1.9450001 0.30000001
-4.0190001 -4.1479998 -1.9529999 0.38999999
-4.0450001 -4.1880002 -1.97 0.34
-4.0320001 -4.2010002 -1.97 0.31999999
-3.9879999 -4.1810002 -1.954 0.34
-3.9890001 -4.2080002 -1.961 0.36000001
-3.9549999 -4.1989999 -1.951 0.33000001
-3.9560001 -4.2259998 -1.9579999 0.36000001
-3.9690001 -4.2529998 -1.9680001 0.27000001
-3.967 -4.2779999 -1.974 0.34
-3.9560001 -4.2930002 -1.976 0.41999999
-3.8859999 -4.2449999 -1.946 0.23999999
-3.914 -4.3010001 -1.967 0.37
-3.9100001 -4.3249998 -1.973 0.28999999
-3.888 -4.3270001 -1.9680001 0.33000001
-3.8970001 -4.3639998 -1.98 0.38999999
-3.8740001 -4.3520002 -1.971 0.31999999
-3.852 -4.3559999 -1.967 0.34
-3.8540001 -4.3850002 -1.976 0.28999999
-3.826 -4.382 -1.9680001 0.36000001
-3.779 -4.355 -1.95 0.30000001
-3.747 -4.3460002 -1.9400001 0.36000001
-3.7179999 -4.3260002 -1.928 0.31
-3.7149999 -4.3509998 -1.934 0.27000001
-3.7049999 -4.3670001 -1.936 0.36000001
-3.6900001 -4.3769999 -1.9349999 0.34999999
-3.678 -4.3899999 -1.936 0.33000001
-3.6670001 -4.4060001 -1.938 0.34
-3.6429999 -4.4039998 -1.932 0.31
-3.651 -4.4289999 -1.9400001 0.38
-3.605 -4.401 -1.9220001 0.25
-3.631 -4.46 -1.944 0.31
-3.651 -4.5139999 -1.964 0.34
-3.6570001 -4.5500002 -1.976 0.28999999
-3.642 -4.5599999 -1.975 0.36000001
-3.619 -4.5609999 -1.97 0.30000001
-3.6210001 -4.579 -1.976 0.37
-3.6029999 -4.586 -1.974 0.37
-3.5380001 -4.5320001 -1.944 0.30000001
-3.5580001 -4.5879998 -1.964 0.34
-3.53 -4.5809999 -1.956 0.34
-3.5150001 -4.592 -1.956 0.33000001
-3.5090001 -4.6129999 -1.961 0.30000001
-3.5020001 -4.619 -1.961 0.31999999
-3.4860001 -4.6279998 -1.96 0.33000001
-3.4590001 -4.6230001 -1.9529999 0.33000001
-3.4289999 -4.6129999 -1.943 0.31999999
-3.4159999 -4.6259999 -1.944 0.36000001
-3.427 -4.6700001 -1.959 0.31999999
-3.4100001 -4.678 -1.9579999 0.44
-3.382 -4.6560001 -1.946 0.28999999
-3.369 -4.6680002 -1.946 0.33000001
-3.3629999 -4.691 -1.952 0.34
-3.368 -4.7290001 -1.964 0.34999999
-3.3659999 -4.7579999 -1.972 0.36000001
-3.316 -4.7189999 -1.951 0.31999999
-3.2869999 -4.71 -1.942 0.37
-3.309 -4.756 -1.96 0.30000001
-3.2579999 -4.7140002 -1.937 0.37
-3.244 -4.7259998 -1.938 0.31999999
-3.233 -4.7420001 -1.9400001 0.17
-3.2349999 -4.777 -1.951 0.38999999
-3.125 -4.6469998 -1.89 0.25
-3.0739999 -4.5869999 -1.862 0.20999999
-3.1760001 -4.77 -1.937 0.25999999
-3.1760001 -4.803 -1.947 0.36000001
-3.1589999 -4.8099999 -1.946 0.30000001
-3.1500001 -4.8299999 -1.95 0.31999999
-3.1500001 -4.8610001 -1.959 0.36000001
-3.118 -4.8460002 -1.949 0.30000001
-3.0880001 -4.816 -1.934 0.31
-3.085 -4.8449998 -1.942 0.43000001
-3.0940001 -4.8930001 -1.9579999 0.34999999
-3.043 -4.8470001 -1.934 0.31999999
-3.029 -4.8579998 -1.9349999 0.28
-2.99 -4.829 -1.919 0.38
-2.9790001 -4.8460002 -1.9220001 0.28999999
-2.95 -4.816 -1.9069999 0.31
-2.97 -4.8829999 -1.932 0.31999999
-2.9779999 -4.9289999 -1.947 0.31
-2.9749999 -4.9590001 -1.956 0.37
-2.977 -4.9980001 -1.9680001 0.33000001
-2.9619999 -5.0089998 -1.969 0.34
-2.9349999 -4.9809999 -1.955 0.34999999
-2.9159999 -4.9850001 -1.9529999 0.34
-2.905 -5.0019999 -1.957 0.36000001
-2.8889999 -5.0100002 -1.956 0.38
-2.8629999 -5.0009999 -1.949 0.38
-2.855 -5.0250001 -1.955 0.34
-2.8440001 -5.0419998 -1.9579999 0.38
-2.829 -5.033 -1.9529999 0.34999999
-2.806 -5.0310001 -1.948 0.34
-2.7809999 -5.0209999 -1.9400001 0.33000001
-2.7479999 -5 -1.928 0.41
-2.717 -4.9809999 -1.9170001 0.30000001
-2.727 -5.0359998 -1.936 0.28999999
-2.7060001 -5.0339999 -1.932 0.31999999
-2.7060001 -5.0539999 -1.938 0.34999999
-2.7019999 -5.085 -1.947 0.34
-2.684 -5.0890002 -1.9450001 0.34
-2.655 -5.0739999 -1.936 0.34
-2.645 -5.0939999 -1.9400001 0.33000001
-2.6459999 -5.1339998 -1.9529999 0.33000001
-2.6300001 -5.1420002 -1.9529999 0.31999999
-2.615 -5.1329999 -1.948 0.38
-2.599 -5.1409998 -1.948 0.33000001
-2.589 -5.1630001 -1.9529999 0.34999999
-2.5610001 -5.1469998 -1.944 0.37
-2.55 -5.165 -1.948 0.38
-2.533 -5.1719999 -1.947 0.30000001
-2.5250001 -5.1960001 -1.954 0.37
-2.516 -5.1989999 -1.9529999 0.31999999
-2.4960001 -5.1999998 -1.951 0.37
-2.483 -5.2129998 -1.9529999 0.34
-2.4530001 -5.1929998 -1.942 0.33000001
-2.4549999 -5.2399998 -1.957 0.34
-2.4360001 -5.2410002 -1.955 0.33000001
-2.4200001 -5.2290001 -1.949 0.31999999
-2.4030001 -5.2350001 -1.948 0.31999999
-2.3940001 -5.2579999 -1.954 0.36000001
-2.3729999 -5.2550001 -1.95 0.36000001
-2.3529999 -5.256 -1.947 0.36000001
-2.346 -5.2859998 -1.956 0.34999999
-2.323 -5.2779999 -1.95 0.31
-2.3210001 -5.2969999 -1.956 0.37
-2.2969999 -5.2870002 -1.949 0.33000001
-2.2690001 -5.2659998 -1.938 0.34
-2.2449999 -5.256 -1.932 0.31999999
-2.2279999 -5.263 -1.932 0.31999999
-2.2119999 -5.2719998 -1.932 0.37
-2.1949999 -5.277 -1.932 0.33000001
-2.187 -5.2820001 -1.932 0.33000001
-2.1670001 -5.2800002 -1.929 0.33000001
-2.1440001 -5.2719998 -1.923 0.33000001
-2.1270001 -5.2779999 -1.923 0.38
-2.095 -5.2459998 -1.908 0.28999999
-2.0880001 -5.276 -1.9170001 0.38999999
-2.0739999 -5.289 -1.919 0.28
-2.076 -5.3169999 -1.929 0.40000001
-2.049 -5.2989998 -1.919 0.31
-2.0309999 -5.3000002 -1.9170001 0.34999999
-2.003 -5.2779999 -1.9069999 0.30000001
-1.982 -5.2719998 -1.902 0.31999999
-1.967 -5.2820001 -1.903 0.33000001
-1.9630001 -5.323 -1.9170001 0.31999999
-1.943 -5.2950001 -1.905 0.38
-1.9119999 -5.2620001 -1.89 0.30000001
-1.899 -5.277 -1.893 0.31999999
-1.897 -5.323 -1.909 0.31999999
-1.8839999 -5.342 -1.913 0.38
-1.869 -5.3509998 -1.915 0.28999999
-1.844 -5.3340001 -1.906 0.38
-1.845 -5.3639998 -1.916 0.30000001
-1.837 -5.3959999 -1.926 0.34999999
-1.825 -5.4159999 -1.932 0.34
-1.824 -5.4679999 -1.949 0.31999999
-1.808 -5.4790001 -1.951 0.38
-1.763 -5.3990002 -1.919 0.31
-1.74 -5.3870001 -1.9119999 0.28999999
-1.752 -5.4520001 -1.936 0.34999999
-1.729 -5.4400001 -1.929 0.34999999
-1.707 -5.4289999 -1.923 0.38999999
-1.6720001 -5.3790002 -1.902 0.31999999
-1.635 -5.3189998 -1.878 0.28999999
-1.632 -5.3670001 -1.8940001 0.30000001
-1.6339999 -5.4039998 -1.9069999 0.31999999
-1.618 -5.415 -1.909 0.37
-1.601 -5.4180002 -1.908 0.28999999
-1.587 -5.434 -1.9119999 0.38
-1.574 -5.4530001 -1.9170001 0.30000001
-1.562 -5.474 -1.924 0.36000001
-1.545 -5.4790001 -1.924 0.28999999
-1.534 -5.474 -1.921 0.36000001
-1.5190001 -5.4860001 -1.924 0.38999999
-1.4529999 -5.3150001 -1.858 0.20999999
-1.497 -5.5430002 -1.941 0.28
-1.472 -5.52 -1.931 0.31999999
-1.456 -5.5310001 -1.933 0.27000001
-1.4450001 -5.5570002 -1.941 0.44999999
-1.4299999 -5.5370002 -1.933 0.31999999
-1.402 -5.5 -1.9170001 0.37
-1.383 -5.4970002 -1.915 0.30000001
-1.368 -5.5120001 -1.919 0.34
-1.35 -5.513 -1.9170001 0.31999999
-1.332 -5.5120001 -1.915 0.31999999
-1.318 -5.5300002 -1.921 0.37
-1.311 -5.54 -1.924 0.31
-1.295 -5.5510001 -1.926 0.31999999
-1.275 -5.5419998 -1.9220001 0.31999999
-1.26 -5.5570002 -1.926 0.36000001
-1.245 -5.5739999 -1.9299999 0.33000001
-1.228 -5.5780001 -1.9299999 0.37
-1.221 -5.5869999 -1.933 0.36000001
-1.196 -5.5599999 -1.9220001 0.33000001
-1.177 -5.5539999 -1.918 0.38999999
-1.153 -5.5289998 -1.9069999 0.31999999
-1.136 -5.5320001 -1.9069999 0.33000001
-1.128 -5.5819998 -1.924 0.34
-1.11 -5.5819998 -1.923 0.34999999
-1.097 -5.5650001 -1.916 0.31999999
-1.079 -5.566 -1.915 0.34
-1.057 -5.5479999 -1.9069999 0.33000001
-1.048 -5.5949998 -1.924 0.38999999
-1.031 -5.5970001 -1.923 0.30000001
-1.0190001 -5.6350002 -1.936 0.31999999
-0.99699998 -5.6110001 -1.926 0.31999999
-0.98000002 -5.5689998 -1.91 0.33000001
-0.97100002 -5.6209998 -1.928 0.36000001
-0.954 -5.6240001 -1.928 0.31999999
-0.93099999 -5.6009998 -1.918 0.31999999
-0.917 -5.6240001 -1.926 0.37
-0.89700001 -5.6139998 -1.921 0.34
-0.88200003 -5.6279998 -1.925 0.34
-0.87900001 -5.6680002 -1.939 0.31999999
-0.861 -5.671 -1.939 0.37
-0.83999997 -5.6490002 -1.9299999 0.34
-0.81800002 -5.6259999 -1.921 0.34
-0.80199999 -5.638 -1.924 0.34999999
-0.78600001 -5.6570001 -1.9299999 0.36000001
-0.77899998 -5.6700001 -1.934 0.31999999
-0.76599997 -5.7059999 -1.946 0.38
-0.74400002 -5.6820002 -1.937 0.31
-0.72899997 -5.7010002 -1.943 0.34
-0.71100003 -5.7010002 -1.942 0.34
-0.69300002 -5.7069998 -1.944 0.34999999
-0.676 -5.7150002 -1.946 0.36000001
-0.66900003 -5.7290001 -1.951 0.36000001
-0.64999998 -5.7290001 -1.95 0.36000001
-0.63300002 -5.7329998 -1.951 0.36000001
-0.61299998 -5.7199998 -1.9450001 0.34
-0.59600002 -5.7309999 -1.949 0.38
-0.57499999 -5.7020001 -1.937 0.31999999
-0.55699998 -5.7049999 -1.938 0.38
-0.54699999 -5.6929998 -1.933 0.34
-0.52899998 -5.6950002 -1.933 0.34999999
-0.50999999 -5.691 -1.931 0.31999999
-0.49200001 -5.6849999 -1.928 0.38999999
-0.47299999 -5.6750002 -1.924 0.31999999
-0.45699999 -5.7010002 -1.933 0.34
-0.44 -5.7119999 -1.936 0.36000001
-0.433 -5.7389998 -1.946 0.34999999
-0.41299999 -5.7150002 -1.937 0.31
-0.39500001 -5.7129998 -1.936 0.38
-0.377 -5.7199998 -1.938 0.38
-0.35699999 -5.6830001 -1.924 0.25999999
-0.34200001 -5.7259998 -1.939 0.41999999
-0.32100001 -5.6869998 -1.925 0.28999999
-0.315 -5.7290001 -1.9400001 0.34
-0.29699999 -5.7360001 -1.942 0.33000001
-0.27900001 -5.7270002 -1.938 0.34999999
-0.25999999 -5.7189999 -1.9349999 0.34
-0.243 -5.7309999 -1.939 0.36000001
-0.22499999 -5.7280002 -1.938 0.34
-0.21600001 -5.7379999 -1.941 0.37
-0.197 -5.7210002 -1.9349999 0.36000001
-0.17900001 -5.724 -1.936 0.33000001
-0.162 -5.7579999 -1.948 0.38
-0.14399999 -5.7589998 -1.948 0.31999999
-0.127 -5.7930002 -1.96 0.31999999
-0.109 -5.7820001 -1.956 0.38999999
-0.1 -5.7989998 -1.962 0.38
-0.082000002 -5.7919998 -1.959 0.36000001
-0.063000001 -5.7789998 -1.955 0.36000001
-0.045000002 -5.777 -1.954 0.36000001
-0.027000001 -5.7719998 -1.952 0.36000001
-0.0089999996 -5.7719998 -1.952 0.38
0.0089999996 -5.7810001 -1.955 0.34999999
0.017999999 -5.7719998 -1.952 0.36000001
0.037 -5.7750001 -1.9529999 0.38999999
0.055 -5.7680001 -1.951 0.37
0.072999999 -5.7789998 -1.955 0.38999999
0.090000004 -5.7010002 -1.927 0.31999999
0.108 -5.7199998 -1.934 0.33000001
0.127 -5.7290001 -1.937 0.33000001
0.13500001 -5.7010002 -1.927 0.33000001
0.153 -5.7259998 -1.936 0.31999999
0.171 -5.7179999 -1.934 0.38999999
0.189 -5.697 -1.926 0.31999999
0.207 -5.7020001 -1.928 0.31999999
0.22499999 -5.7049999 -1.9299999 0.31999999
0.235 -5.7270002 -1.938 0.31999999
0.25299999 -5.7399998 -1.942 0.31999999
0.27200001 -5.7620001 -1.951 0.36000001
0.29100001 -5.7680001 -1.9529999 0.34
0.31 -5.796 -1.9630001 0.34
0.329 -5.802 -1.966 0.36000001
0.345 -5.7649999 -1.9529999 0.33000001
0.35299999 -5.7459998 -1.946 0.25
0.37200001 -5.7690001 -1.955 0.23
0.38800001 -5.7270002 -1.9400001 0.039999999
0.403 -5.6799998 -1.924 0
0.41999999 -5.6680002 -1.92 0
0.43599999 -5.6360002 -1.909 0.090000004
0.45899999 -5.704 -1.934 0.050000001
0.47 -5.7360001 -1.946 0.15000001
0.484 -5.6869998 -1.929 0.11
0.50300002 -5.6950002 -1.932 0.18000001
0.52399999 -5.7270002 -1.944 0.20999999
0.53799999 -5.6900001 -1.932 0.13
0.55699998 -5.698 -1.9349999 0
0.57200003 -5.664 -1.924 0
0.58700001 -5.7210002 -1.944 0
0.60500002 -5.7189999 -1.944 0
2.7360001 -5.1079998 -1.96 0
2.7309999 -5.0609999 -1.944 0.02
2.7509999 -5.059 -1.947 0.12
2.7739999 -5.0640001 -1.9529999 0.16
2.7939999 -5.0630002 -1.956 0.22
2.812 -5.0580001 -1.957 0.27000001
2.8340001 -5.0599999 -1.962 0.31
2.8280001 -5.0310001 -1.952 0.23999999
2.8529999 -5.0370002 -1.9579999 0.28999999
2.875 -5.04 -1.9630001 0.28999999
2.8789999 -5.0089998 -1.954 0.36000001
2.8800001 -4.9759998 -1.944 0.31
2.902 -4.9780002 -1.949 0.33000001
2.9230001 -4.9770002 -1.952 0.28999999
2.9189999 -4.9530001 -1.944 0.40000001
2.9130001 -4.9060001 -1.928 0.31999999
2.921 -4.8860002 -1.924 0.34999999
2.9349999 -4.8730001 -1.9220001 0.33000001
2.957 -4.8759999 -1.927 0.33000001
2.9690001 -4.8610001 -1.925 0.37
2.9860001 -4.8540001 -1.926 0.25999999
3.03 -4.908 -1.951 0.31999999
3.0320001 -4.8779998 -1.942 0.38
3.0669999 -4.9000001 -1.955 0.31999999
3.096 -4.9120002 -1.964 0.34
3.1029999 -4.8889999 -1.959 0.30000001
3.1270001 -4.8940001 -1.965 0.38999999
3.128 -4.8600001 -1.955 0.38
3.1199999 -4.8309999 -1.944 0.28999999
3.142 -4.8319998 -1.949 0.36000001
3.152 -4.8150001 -1.946 0.27000001
3.194 -4.8460002 -1.9630001 0.38
3.22 -4.8509998 -1.97 0.31
3.2290001 -4.8319998 -1.966 0.36000001
3.2179999 -4.7989998 -1.954 0.34999999
3.1630001 -4.684 -1.909 0.30000001
3.1989999 -4.7059999 -1.923 0.28999999
3.2309999 -4.7210002 -1.934 0.34999999
3.2119999 -4.6609998 -1.9119999 0.28999999
3.198 -4.6090002 -1.8940001 0.31999999
3.22 -4.6100001 -1.899 0.36000001
3.2249999 -4.6020002 -1.897 0.33000001
3.2609999 -4.6230001 -1.911 0.28999999
3.2720001 -4.6079998 -1.909 0.33000001
3.2690001 -4.573 -1.898 0.34
3.2590001 -4.5289998 -1.883 0.38
3.27 -4.5139999 -1.881 0.31
3.3110001 -4.54 -1.897 0.38
3.3 -4.5110002 -1.886 0.33000001
3.302 -4.4840002 -1.8789999 0.33000001
3.3180001 -4.4749999 -1.88 0.34
3.375 -4.5229998 -1.906 0.30000001
3.3729999 -4.4899998 -1.896 0.34999999
3.3280001 -4.401 -1.8609999 0.33000001
3.293 -4.3400002 -1.836 0.34
3.3399999 -4.3730001 -1.855 0.31999999
3.3640001 -4.3759999 -1.8609999 0.31999999
3.3800001 -4.369 -1.863 0.30000001
3.3759999 -4.336 -1.853 0.34999999
3.358 -4.2849998 -1.834 0.31
3.3770001 -4.2800002 -1.837 0.37
3.3759999 -4.2659998 -1.8329999 0.34
3.3610001 -4.2179999 -1.816 0.28
3.402 -4.243 -1.832 0.38
3.4059999 -4.2210002 -1.827 0.25999999
3.451 -4.25 -1.845 0.37
3.471 -4.2480001 -1.849 0.31
3.448 -4.191 -1.8279999 0.38
3.4779999 -4.2150002 -1.842 0.33000001
3.533 -4.2550001 -1.865 0.30000001
3.5480001 -4.2449999 -1.8660001 0.38
3.552 -4.223 -1.8609999 0.30000001
3.5780001 -4.2270002 -1.868 0.38
3.5250001 -4.1370001 -1.831 0.25999999
3.5550001 -4.1599998 -1.845 0.38
3.5810001 -4.1630001 -1.851 0.33000001
3.589 -4.1459999 -1.849 0.30000001
3.6359999 -4.1750002 -1.867 0.34
3.665 -4.1820002 -1.876 0.34999999
3.6659999 -4.1560001 -1.87 0.34999999
3.6919999 -4.1589999 -1.876 0.34999999
3.678 -4.131 -1.865 0.30000001
3.701 -4.1300001 -1.8710001 0.37
3.697 -4.099 -1.8609999 0.36000001
3.724 -4.1040001 -1.87 0.31999999
3.7079999 -4.0599999 -1.854 0.34999999
3.7249999 -4.053 -1.8559999 0.31
3.763 -4.0689998 -1.87 0.33000001
3.724 -4.013 -1.845 0.36000001
3.6949999 -3.957 -1.824 0.33000001
3.609 -3.839 -1.772 0.31999999
3.654 -3.8640001 -1.789 0.31999999
3.7190001 -3.908 -1.817 0.38999999
3.723 -3.8870001 -1.812 0.30000001
3.717 -3.8559999 -1.803 0.34
3.7460001 -3.875 -1.8150001 0.38999999
3.779 -3.885 -1.826 0.27000001
3.8099999 -3.892 -1.835 0.43000001
3.8269999 -3.885 -1.8380001 0.25999999
3.868 -3.9030001 -1.853 0.30000001
3.8570001 -3.8659999 -1.84 0.43000001
3.8340001 -3.8199999 -1.823 0.30000001
3.898 -3.8710001 -1.852 0.31999999
3.9219999 -3.8710001 -1.858 0.34
3.9449999 -3.869 -1.863 0.41999999
3.9489999 -3.849 -1.859 0.30000001
3.9619999 -3.8369999 -1.86 0.34
4.006 -3.8559999 -1.876 0.34
4.0339999 -3.8710001 -1.887 0.38
4.0180001 -3.8310001 -1.873 0.28999999
4.0339999 -3.822 -1.875 0.34
4.0430002 -3.8069999 -1.874 0.36000001
4.0310001 -3.7709999 -1.8609999 0.31999999
4.0570002 -3.7720001 -1.869 0.34999999
4.0760002 -3.766 -1.872 0.38999999
4.0830002 -3.7609999 -1.873 0.33000001
4.086 -3.7390001 -1.868 0.36000001
4.1110001 -3.7390001 -1.875 0.38
4.145 -3.7460001 -1.886 0.33000001
4.1859999 -3.76 -1.9 0.43000001
4.092 -3.651 -1.849 0.25999999
4.0879998 -3.6240001 -1.841 0.34999999
4.1129999 -3.635 -1.851 0.28999999
4.1529999 -3.648 -1.864 0.30000001
4.105 -3.582 -1.836 0.34
4.1220002 -3.5739999 -1.8380001 0.40000001
4.1370001 -3.5650001 -1.84 0.30000001
4.1599998 -3.562 -1.846 0.33000001
4.164 -3.543 -1.842 0.30000001
4.1609998 -3.529 -1.8380001 0.31999999
4.1459999 -3.494 -1.826 0.34999999
4.1430001 -3.4679999 -1.8200001 0.34999999
4.165 -3.4649999 -1.825 0.33000001
4.1760001 -3.4519999 -1.825 0.37
4.1370001 -3.398 -1.802 0.34999999
4.1149998 -3.3570001 -1.786 0.28999999
4.1339998 -3.3629999 -1.793 0.40000001
4.1550002 -3.358 -1.798 0.31999999
4.145 -3.329 -1.788 0.25
4.1669998 -3.325 -1.794 0.36000001
4.1290002 -3.273 -1.772 0.30000001
4.1279998 -3.2509999 -1.766 0.30000001
4.145 -3.2539999 -1.772 0.34999999
4.1300001 -3.221 -1.76 0.33000001
4.1490002 -3.2149999 -1.7640001 0.31
4.1220002 -3.1730001 -1.747 0.30000001
4.1329999 -3.161 -1.748 0.31999999
4.165 -3.165 -1.758 0.31
4.1500001 -3.1329999 -1.747 0.34
4.1500001 -3.1229999 -1.745 0.28999999
4.0640001 -3.0369999 -1.701 0.23
4.1459999 -3.0780001 -1.734 0.30000001
4.1690001 -3.076 -1.74 0.31999999
4.1199999 -3.0190001 -1.7130001 0.27000001
4.0910001 -2.9779999 -1.697 0.30000001
4.0180001 -2.905 -1.66 0.31999999
4.099 -2.954 -1.694 0.31999999
4.1389999 -2.9630001 -1.707 0.30000001
4.1659999 -2.964 -1.716 0.30000001
4.1830001 -2.9560001 -1.719 0.31
4.1830001 -2.9360001 -1.715 0.34999999
4.165 -2.904 -1.7029999 0.30000001
4.1059999 -2.8429999 -1.673 0.28999999
4.1630001 -2.8729999 -1.696 0.30000001
4.197 -2.8770001 -1.707 0.34999999
4.2030001 -2.862 -1.705 0.34
4.1960001 -2.8380001 -1.699 0.31999999
4.1599998 -2.7939999 -1.679 0.31
4.1890001 -2.7950001 -1.688 0.28
4.223 -2.8080001 -1.701 0.31999999
4.2350001 -2.7969999 -1.702 0.36000001
4.2119999 -2.763 -1.688 0.28
4.256 -2.7720001 -1.7029999 0.36000001
4.283 -2.7709999 -1.711 0.34
4.276 -2.7479999 -1.705 0.33000001
4.244 -2.7079999 -1.687 0.31
4.283 -2.723 -1.702 0.31
4.296 -2.7130001 -1.704 0.30000001
4.2709999 -2.678 -1.6900001 0.30000001
4.2779999 -2.664 -1.689 0.28999999
4.3309999 -2.678 -1.7079999 0.36000001
4.355 -2.675 -1.715 0.31
4.369 -2.664 -1.717 0.36000001
4.3470001 -2.641 -1.706 0.28999999
4.3470001 -2.6229999 -1.7029999 0.36000001
4.335 -2.596 -1.694 0.31
4.3429999 -2.5829999 -1.694 0.36000001
4.2989998 -2.5380001 -1.6720001 0.33000001
4.3460002 -2.5480001 -1.688 0.33000001
4.3470001 -2.539 -1.687 0.28
4.3470001 -2.52 -1.684 0.34999999
4.3400002 -2.4979999 -1.678 0.30000001
4.3330002 -2.4760001 -1.6720001 0.38
4.3899999 -2.4909999 -1.692 0.34
4.3759999 -2.4649999 -1.683 0.36000001
4.3889999 -2.454 -1.6849999 0.30000001
4.3579998 -2.427 -1.671 0.31999999
4.3530002 -2.4059999 -1.666 0.33000001
4.349 -2.3859999 -1.661 0.31999999
4.3330002 -2.3599999 -1.651 0.33000001
4.2319999 -2.2869999 -1.607 0.31999999
4.2069998 -2.256 -1.594 0.30000001
4.158 -2.2130001 -1.571 0.22
4.0089998 -2.1240001 -1.5089999 0.31
4.0570002 -2.1340001 -1.526 0.37
4.0939999 -2.1370001 -1.538 0.31
4.0300002 -2.0869999 -1.51 0.30000001
3.9949999 -2.053 -1.493 0.30000001
3.9159999 -1.9960001 -1.4579999 0.25
3.911 -1.978 -1.4529999 0.36000001
4.0869999 -2.0599999 -1.523 0.25
4.3260002 -2.165 -1.617 0.27000001
4.3769999 -2.174 -1.6339999 0.30000001
4.3839998 -2.1600001 -1.6339999 0.28
4.4159999 -2.1589999 -1.645 0.41
4.2789998 -2.0739999 -1.587 0.25
4.1690001 -2.0039999 -1.541 0.23999999
4.092 -1.959 -1.5089999 0.23999999
4.1149998 -1.954 -1.516 0.36000001
4.381 -2.0650001 -1.619 0.31999999
4.4250002 -2.069 -1.6339999 0.25
4.473 -2.0739999 -1.65 0.27000001
4.5 -2.0699999 -1.658 0.36000001
4.5349998 -2.069 -1.67 0.34999999
4.5089998 -2.049 -1.658 0.34999999
4.5310001 -2.0420001 -1.664 0.33000001
4.5240002 -2.0209999 -1.659 0.34
4.5250001 -2.0050001 -1.6569999 0.30000001
4.5689998 -2.007 -1.6720001 0.28999999
4.5749998 -1.993 -1.6720001 0.41
4.5349998 -1.967 -1.655 0.30000001
4.5609999 -1.961 -1.6619999 0.33000001
4.5409999 -1.9349999 -1.652 0.30000001
4.5549998 -1.925 -1.655 0.27000001
4.5809999 -1.918 -1.663 0.34999999
4.573 -1.898 -1.6569999 0.30000001
4.5890002 -1.888 -1.661 0.38
4.6009998 -1.885 -1.665 0.31999999
4.6079998 -1.8710001 -1.666 0.33000001
4.6090002 -1.854 -1.664 0.34999999
4.599 -1.8329999 -1.6569999 0.31999999
4.6079998 -1.8200001 -1.659 0.33000001
4.6160002 -1.806 -1.659 0.40000001
4.6110001 -1.788 -1.655 0.31
4.6259999 -1.785 -1.66 0.36000001
4.6370001 -1.773 -1.6619999 0.31
4.6409998 -1.758 -1.661 0.28
4.6440001 -1.742 -1.661 0.34999999
4.6799998 -1.739 -1.6720001 0.34
4.6750002 -1.72 -1.668 0.31999999
4.6750002 -1.704 -1.666 0.31999999
4.6999998 -1.705 -1.675 0.34
4.723 -1.697 -1.682 0.31999999
4.776 -1.699 -1.7 0.30000001
4.7639999 -1.678 -1.693 0.37
4.783 -1.668 -1.699 0.33000001
4.8509998 -1.674 -1.722 0.37
4.8740001 -1.665 -1.729 0.31999999
4.8870001 -1.661 -1.733 0.31999999
4.8709998 -1.6390001 -1.725 0.33000001
4.8959999 -1.63 -1.732 0.19
4.9029999 -1.615 -1.733 0.27000001
4.8930001 -1.595 -1.728 0.23
4.9070001 -1.5829999 -1.7309999 0.17
4.8969998 -1.571 -1.726 0.25999999
4.9239998 -1.562 -1.734 0.23
4.9109998 -1.541 -1.728 0.17
4.9169998 -1.526 -1.728 0.28
4.927 -1.513 -1.73 0.23
4.9380002 -1.499 -1.732 0.18000001
4.915 -1.475 -1.722 0.25
4.9369998 -1.473 -1.73 0.34
4.927 -1.4529999 -1.724 0.37
4.934 -1.439 -1.725 0.38
4.9530001 -1.427 -1.73 0.34
4.9499998 -1.41 -1.728 0.38
4.9650002 -1.397 -1.732 0.41
4.9640002 -1.388 -1.73 0.33000001
4.9749999 -1.375 -1.733 0.56999999
4.9819999 -1.36 -1.734 0.25999999
4.9660001 -1.3380001 -1.726 0.28999999
4.9770002 -1.325 -1.729 0.23999999
4.9780002 -1.308 -1.728 0.18000001
4.987 -1.294 -1.73 0.27000001
4.9910002 -1.2869999 -1.73 0.20999999
4.993 -1.271 -1.73 0.16
4.9860001 -1.252 -1.726 0.28999999
5.0050001 -1.24 -1.7309999 0.23999999
4.9959998 -1.221 -1.726 0.18000001
4.9959998 -1.205 -1.725 0.28
5.0050001 -1.1900001 -1.727 0.23
5.0089998 -1.183 -1.728 0.16
5.0110002 -1.1670001 -1.727 0.27000001
5.0089998 -1.15 -1.725 0.22
5.0289998 -1.138 -1.7309999 0.16
5.0219998 -1.119 -1.727 0.27000001
5.02 -1.102 -1.725 0.23
5.0190001 -1.086 -1.724 0.18000001
5.0250001 -1.079 -1.725 0.27000001
5.0450001 -1.066 -1.7309999 0.23
5.0409999 -1.049 -1.728 0.17
5.04 -1.0319999 -1.727 0.27000001
5.053 -1.018 -1.73 0.17
5.0430002 -1 -1.726 0.25
5.0609999 -0.995 -1.732 0.18000001
5.0510001 -0.977 -1.727 0.23
5.0669999 -0.96399999 -1.732 0.16
5.0630002 -0.94599998 -1.729 0.25
5.0770001 -0.93199998 -1.733 0.18000001
5.0500002 -0.91100001 -1.722 0.059999999
5.053 -0.89499998 -1.722 0.18000001
5.0640001 -0.889 -1.726 0.11
5.0700002 -0.87400001 -1.727 0.2
5.0640001 -0.85600001 -1.724 0.11
5.0739999 -0.84100002 -1.726 0.18000001
5.0650001 -0.824 -1.722 0.11
5.086 -0.81099999 -1.729 0.2
5.0760002 -0.79299998 -1.724 0.11
5.0879998 -0.78600001 -1.728 0.19
5.0869999 -0.76999998 -1.727 0.11
5.1020002 -0.75599998 -1.732 0.16
5.0710001 -0.73500001 -1.72 0.050000001
5.092 -0.722 -1.726 0.17
5.0939999 -0.70599997 -1.726 0.11
5.1129999 -0.69199997 -1.732 0.15000001
5.092 -0.68099999 -1.724 0.22
5.0869999 -0.66399997 -1.722 0.090000004
5.1149998 -0.65100002 -1.7309999 0.14
5.085 -0.63099998 -1.72 0.050000001
5.1040001 -0.61699998 -1.726 0.17
5.0890002 -0.59899998 -1.72 0.2
5.0910001 -0.583 -1.72 0.1
5.1269999 -0.579 -1.732 0.15000001
5.0970001 -0.56 -1.721 0.050000001
5.1100001 -0.54500002 -1.725 0.16
5.1160002 -0.52899998 -1.726 0.2
5.1020002 -0.51099998 -1.721 0.090000004
5.1149998 -0.49700001 -1.725 0.090000004
5.1370001 -0.48300001 -1.732 0.15000001
5.1100001 -0.472 -1.722 0.050000001
5.1230001 -0.45699999 -1.726 0.15000001
5.1069999 -0.43900001 -1.72 0.050000001
5.1389999 -0.426 -1.7309999 0.15000001
5.1230001 -0.40799999 -1.725 0.18000001
5.1149998 -0.391 -1.722 0.18000001
5.1170001 -0.38299999 -1.722 0.090000004
5.1490002 -0.37 -1.733 0.14
5.1139998 -0.35100001 -1.72 0.050000001
5.1360002 -0.336 -1.728 0.16
5.1269999 -0.31900001 -1.724 0.2
5.1230001 -0.303 -1.722 0.090000004
5.1459999 -0.28799999 -1.73 0.15000001
5.1220002 -0.27900001 -1.722 0.050000001
5.1290002 -0.26300001 -1.724 0.17
5.1259999 -0.24699999 -1.722 0.2
5.119 -0.23 -1.72 0.090000004
5.1479998 -0.215 -1.73 0.14
5.1149998 -0.198 -1.7180001 0.050000001
5.1300001 -0.182 -1.723 0.17
5.1290002 -0.17399999 -1.722 0.2
5.1370001 -0.15800001 -1.725 0.090000004
5.1339998 -0.142 -1.724 0.14
5.1149998 -0.125 -1.717 0.050000001
5.1290002 -0.11 -1.722 0.17
5.1209998 -0.093000002 -1.719 0.11
5.1440001 -0.078000002 -1.727 0.16
5.1329999 -0.068999998 -1.723 0.11
5.1370001 -0.052999999 -1.724 0.18000001
5.1199999 -0.037 -1.7180001 0.11
5.1350002 -0.021 -1.724 0.18000001
5.1300001 -0.0049999999 -1.722 0.1
4.9660001 0.014 -1.711 0.19
4.9320002 0.028999999 -1.698 0.23
4.9619999 0.045000002 -1.709 0.18000001
4.941 0.059999999 -1.702 0.23999999
4.9629998 0.075999998 -1.71 0.18000001
4.9369998 0.090999998 -1.7 0.050000001
4.954 0.098999999 -1.707 0.18000001
4.9359999 0.115 -1.7 0.11
4.9590001 0.131 -1.709 0.18000001
4.9390001 0.146 -1.702 0.22
4.9520001 0.162 -1.707 0.16
4.9310002 0.176 -1.699 0.25
4.9679999 0.186 -1.7130001 0.17
4.9359999 0.2 -1.701 0.23999999
4.9439998 0.21600001 -1.705 0.17
4.9299998 0.23100001 -1.7 0.23999999
4.9520001 0.24699999 -1.7079999 0.18000001
4.9359999 0.26199999 -1.702 0.25
4.9520001 0.27900001 -1.709 0.18000001
4.9180002 0.28400001 -1.696 0.25
4.9590001 0.30199999 -1.711 0.18000001
4.9289999 0.31600001 -1.701 0.23999999
4.9549999 0.333 -1.711 0.18000001
4.9239998 0.347 -1.7 0.23999999
4.9640002 0.36500001 -1.715 0.18000001
4.9159999 0.377 -1.698 0.23
4.9390001 0.38699999 -1.707 0.18000001
4.9200001 0.40099999 -1.7 0.25
4.941 0.41800001 -1.7079999 0.19
4.9260001 0.433 -1.7029999 0.23
4.9359999 0.449 -1.707 0.17
4.9159999 0.463 -1.7 0.23
4.9310002 0.47999999 -1.707 0.17
4.9039998 0.48500001 -1.697 0.23
4.9310002 0.50300002 -1.707 0.19
4.9120002 0.51700002 -1.701 0.23999999
4.941 0.53600001 -1.712 0.19
4.9070001 0.54799998 -1.7 0.23
4.9260001 0.56599998 -1.7079999 0.16
4.8860002 0.56900001 -1.693 0.050000001
4.9029999 0.58600003 -1.7 0.18000001
4.895 0.60100001 -1.698 0.11
4.9029999 0.61799997 -1.702 0.19
4.8800001 0.63 -1.694 0.11
4.921 0.65100002 -1.71 0.18000001
4.8860002 0.662 -1.698 0.050000001
4.8959999 0.671 -1.702 0.17
4.8969998 0.68699998 -1.7029999 0.2
4.8800001 0.70099998 -1.698 0.090000004
4.8889999 0.71799999 -1.702 0.18000001
4.8610001 0.72899997 -1.692 0.050000001
4.875 0.74699998 -1.698 0.17
4.8730001 0.76200002 -1.698 0.11
4.9070001 0.77499998 -1.711 0.17
4.8769999 0.78600001 -1.701 0.050000001
4.8720002 0.801 -1.7 0.17
4.875 0.81800002 -1.702 0.19
4.8579998 0.82999998 -1.697 0.18000001
4.855 0.84500003 -1.697 0.18000001
4.8509998 0.86000001 -1.696 0.1
4.8860002 0.875 -1.71 0.16
4.8429999 0.88300002 -1.6950001 0.050000001
4.8439999 0.898 -1.696 0.14
4.8429999 0.91399997 -1.697 0.050000001
4.8530002 0.93199998 -1.702 0.15000001
4.848 0.94700003 -1.701 0.19
4.8449998 0.96200001 -1.701 0.1
4.8559999 0.972 -1.706 0.15000001
4.8369999 0.98400003 -1.7 0.050000001
4.8319998 0.99900001 -1.699 0.15000001
4.8119998 1.01 -1.693 0.050000001
4.8379998 1.0319999 -1.704 0.16
4.8200002 1.044 -1.698 0.050000001
4.8210001 1.0599999 -1.7 0.15000001
