# .PCD v0.7 - Point Cloud Data file format
VERSION 0.7
FIELDS x y z intensity
SIZE 4 4 4 4
TYPE F F F F
COUNT 1 1 1 1
WIDTH 1407
HEIGHT 1
VIEWPOINT 0 0 0 1 0 0 0
POINTS 1407
DATA ascii
13.918 9.6219997 -1.878 0.28
13.81 9.6110001 -1.8660001 0.28
13.719 9.6120005 -1.857 0.28999999
13.627 9.6120005 -1.848 0.28
13.55 9.6210003 -1.841 0.27000001
13.488 9.6090002 -1.834 0
14.941 10.718 -2.0580001 0.13
14.772 10.667 -2.0380001 0.16
14.711 10.693 -2.0339999 0.43000001
14.669 10.734 -2.0320001 0.25
14.634 10.779 -2.0320001 0.25
14.611 10.833 -2.0339999 0.25
14.615 10.871 -2.0369999 0.25999999
14.596 10.929 -2.039 0.25999999
14.587 10.994 -2.043 0.28999999
14.557 11.043 -2.0439999 0.38
14.515 11.083 -2.043 0.28999999
14.456 11.11 -2.039 0.25999999
14.308 11.068 -2.0220001 0.51999998
14.277 11.079 -2.0190001 0.25
14.17 11.068 -2.0079999 0.15000001
14.065 11.057 -1.997 0.41999999
13.974 11.057 -1.988 0.25
13.974 11.128 -1.994 0.28999999
13.901 11.142 -1.988 0.28
13.814 11.143 -1.98 0.25999999
13.749 11.126 -1.972 0.27000001
13.666 11.13 -1.965 0.28
13.573 11.125 -1.955 0.28999999
13.498 11.135 -1.949 0.28
13.417 11.139 -1.942 0.28999999
13.324 11.133 -1.932 0.28999999
13.242 11.135 -1.925 0.25999999
13.15 11.093 -1.913 0.18000001
13.069 11.094 -1.905 0.41999999
12.988 11.096 -1.898 0.23
12.919 11.107 -1.892 0.23999999
12.836 11.106 -1.885 0
12.782 11.13 -1.881 0
13.47 11.805 -2 0.090000004
13.478 11.85 -2.0039999 0.16
13.404 11.859 -1.998 0.31999999
13.326 11.866 -1.9910001 0.31
13.239 11.862 -1.983 0.28999999
13.163 11.869 -1.977 0.31
13.077 11.867 -1.969 0.28
12.999 11.87 -1.962 0.28999999
12.938 11.852 -1.955 0.28999999
12.855 11.85 -1.947 0.31
12.773 11.849 -1.9400001 0.31
12.695 11.851 -1.933 0.30000001
12.617 11.853 -1.926 0.31
12.543 11.857 -1.92 0.30000001
12.457 11.849 -1.911 0.25999999
12.398 11.868 -1.908 0.38999999
12.336 11.846 -1.9 0.31999999
12.269 11.856 -1.895 0.36000001
12.202 11.865 -1.89 0.28999999
12.217 11.955 -1.899 0.22
12.309 12.121 -1.9220001 0.25
12.229 12.118 -1.914 0.37
12.13 12.096 -1.904 0.38999999
12.099 12.102 -1.902 0.43000001
12.1 12.18 -1.908 0.33000001
12.066 12.222 -1.909 0.36000001
12.105 12.339 -1.923 0.34
11.997 12.306 -1.911 0.41
11.944 12.329 -1.908 0.34
11.885 12.345 -1.905 0.44
11.867 12.366 -1.905 0.34
11.776 12.348 -1.896 0.41
11.732 12.379 -1.895 0.34999999
11.682 12.404 -1.893 0.41
11.575 12.369 -1.88 0.36000001
11.526 12.393 -1.8789999 0.36000001
11.512 12.457 -1.883 0.44
11.436 12.414 -1.873 0.36000001
11.448 12.505 -1.882 0.36000001
11.373 12.502 -1.876 0.40000001
11.324 12.527 -1.874 0.33000001
11.279 12.556 -1.873 0.43000001
11.121 12.458 -1.851 0.38
11.119 12.535 -1.858 0.30000001
11.023 12.466 -1.844 0.41
10.984 12.501 -1.844 0.36000001
11.116 12.733 -1.876 0.25
10.939 12.608 -1.85 0.51999998
10.991 12.75 -1.867 0.23999999
10.817 12.627 -1.842 0.51999998
10.986 12.908 -1.882 0.33000001
11.001 13.007 -1.892 0.34
10.95 12.988 -1.886 0.31999999
10.9 13.012 -1.885 0.36000001
10.851 13.037 -1.883 0.37
10.728 12.971 -1.867 0.27000001
10.689 13.006 -1.868 0.20999999
10.729 13.14 -1.883 0.50999999
10.713 13.163 -1.8839999 0.25999999
10.728 13.266 -1.895 0.44999999
10.441 12.993 -1.847 0.22
10.612 13.293 -1.8890001 0.30000001
10.222 12.886 -1.8200001 0.20999999
12.587 15.979 -2.2980001 0.17
12.54 16.023001 -2.299 0.18000001
12.529 16.061001 -2.302 0.15000001
9.7790003 12.608 -1.76 0.31
9.6700001 12.631 -1.7539999 0.55000001
12.394 16.306 -2.3150001 0.2
12.344 16.347 -2.3150001 0.20999999
9.599 12.785 -1.763 0.27000001
12.279 16.475 -2.323 0.20999999
12.263 16.507999 -2.325 0.30000001
12.198 16.528999 -2.323 0.25
12.17 16.6 -2.3280001 0.27000001
12.126 16.649 -2.329 0.19
12.112 16.74 -2.3369999 0.20999999
12.058 16.775999 -2.3369999 0.18000001
12.034 16.855 -2.3429999 0.30000001
12.017 16.886 -2.345 0.2
11.965 16.926001 -2.345 0.18000001
11.937 16.999001 -2.3510001 0.28999999
11.896 17.054001 -2.3540001 0.27000001
11.854 17.110001 -2.3559999 0.2
11.811 17.162001 -2.358 0.15000001
11.776 17.226 -2.3629999 0.13
11.753 17.250999 -2.3629999 0.17
11.718 17.316 -2.368 0.20999999
11.67 17.363001 -2.369 0.18000001
11.63 17.421 -2.372 0.22
11.58 17.466 -2.3729999 0.18000001
11.552 17.542 -2.3789999 0.22
11.494 17.575001 -2.3789999 0.2
11.46 17.643999 -2.3840001 0.22
11.439 17.672001 -2.385 0.19
11.393 17.723 -2.3870001 0.20999999
11.352 17.782 -2.391 0.19
11.314 17.844 -2.395 0.23
11.257 17.879999 -2.395 0.19
11.219 17.944 -2.3989999 0.20999999
11.169 17.989 -2.4000001 0.18000001
11.155 18.030001 -2.404 0.31
11.111 18.086 -2.4070001 0.2
11.057 18.125 -2.4070001 0.16
11.017 18.187 -2.411 0.13
10.975 18.247 -2.415 0.17
10.921 18.289 -2.4159999 0.12
10.868 18.33 -2.4170001 0.16
10.86 18.382999 -2.4219999 0.27000001
10.814 18.434999 -2.425 0.27000001
10.771 18.495001 -2.428 0.27000001
10.721 18.544001 -2.431 0.11
10.67 18.59 -2.4319999 0.16
10.618 18.635 -2.434 0.12
10.567 18.683001 -2.4360001 0.15000001
10.524 18.743 -2.4400001 0.12
10.497 18.763 -2.4400001 0.16
10.448 18.815001 -2.4430001 0.12
10.4 18.867001 -2.4460001 0.17
10.36 18.936001 -2.451 0.30000001
10.311 18.988001 -2.4530001 0.20999999
10.251 19.018999 -2.4530001 0.18000001
10.24 19.070999 -2.4579999 0.20999999
10.192 19.125 -2.461 0.18000001
10.144 19.181 -2.4649999 0.33000001
10.088 19.219999 -2.4660001 0.23999999
10.039 19.274 -2.4690001 0.23999999
9.9650002 19.278999 -2.4649999 0.25999999
9.8979998 19.298 -2.4630001 0.31999999
9.8290005 19.313 -2.461 0.30000001
9.7849998 19.299999 -2.457 0.30000001
9.7089996 19.301001 -2.4530001 0.28999999
9.6210003 19.275999 -2.4460001 0.20999999
9.5480003 19.281 -2.4419999 0.38
9.4799995 19.297001 -2.4400001 0.31
9.408 19.302999 -2.437 0.28999999
9.3380003 19.313 -2.434 0.28999999
9.2950001 19.301001 -2.431 0.31
9.2220001 19.305 -2.427 0.28999999
9.1479998 19.305 -2.4230001 0.28999999
9.0799999 19.319 -2.421 0.28999999
9.0080004 19.323 -2.418 0.28999999
8.9359999 19.326 -2.415 0.31
8.8590002 19.319 -2.4100001 0.28
8.8199997 19.313 -2.4070001 0.31999999
8.7460003 19.312 -2.4030001 0.30000001
8.6719999 19.309999 -2.4000001 0.28
8.6040001 19.319 -2.3970001 0.34999999
8.5319996 19.323 -2.3940001 0.31
8.4569998 19.316999 -2.3900001 0.30000001
8.3909998 19.33 -2.388 0.28999999
8.3170004 19.326 -2.3840001 0.28999999
8.2770004 19.316999 -2.381 0.30000001
8.2060003 19.316999 -2.3770001 0.28999999
8.132 19.312 -2.3729999 0.28999999
8.0649996 19.322001 -2.3710001 0.28999999
7.993 19.32 -2.368 0.30000001
7.9260001 19.329 -2.365 0.31999999
7.8569999 19.334999 -2.3629999 0.30000001
7.823 19.336 -2.362 0.31999999
7.7540002 19.341999 -2.359 0.30000001
7.6890001 19.356001 -2.358 0.25999999
7.6230001 19.365 -2.3559999 0.34
7.572 19.415001 -2.359 0.28999999
7.513 19.444 -2.3599999 0.23
7.4520001 19.466999 -2.3599999 0.28999999
7.4200001 19.475 -2.359 0.37
7.3470001 19.469 -2.355 0.31999999
7.2680001 19.443001 -2.349 0.34
7.204 19.459 -2.348 0.37
7.1329999 19.452999 -2.3440001 0.37
7.0700002 19.469999 -2.3440001 0.31999999
7 19.469999 -2.3410001 0.34999999
6.9699998 19.481001 -2.3410001 0.36000001
6.8930001 19.459 -2.335 0.36000001
6.8299999 19.473 -2.3340001 0.36000001
6.7670002 19.490999 -2.3340001 0.38
6.7020001 19.500999 -2.332 0.36000001
6.6300001 19.49 -2.3280001 0.40000001
6.552 19.462 -2.322 0.38
6.507 19.427 -2.316 0.30000001
6.4489999 19.457001 -2.3169999 0.38999999
6.3899999 19.483999 -2.3180001 0.34999999
6.335 19.525 -2.3210001 0.30000001
6.2600002 19.499001 -2.3150001 0.34999999
6.198 19.518999 -2.3150001 0.38
6.1129999 19.461 -2.3050001 0.36000001
6.046 19.462999 -2.303 0.37
6.0170002 19.478001 -2.3039999 0.43000001
5.9569998 19.499001 -2.3039999 0.34
5.8930001 19.507999 -2.303 0.37
5.8410001 19.559 -2.3069999 0.38999999
5.7680001 19.539 -2.302 0.33000001
5.6929998 19.509001 -2.296 0.40000001
5.6389999 19.552 -2.299 0.33000001
5.5819998 19.469 -2.2869999 0.40000001
5.5170002 19.473 -2.286 0.38
5.4640002 19.521 -2.289 0.44999999
5.5339999 20.013 -2.3499999 0.34
5.5929999 20.48 -2.4070001 0.12
5.5900002 20.726 -2.4360001 0.30000001
5.5539999 20.854 -2.45 0.18000001
5.5440001 20.948 -2.461 0.20999999
5.4650002 20.915001 -2.4549999 0.16
5.4239998 21.030001 -2.467 0.33000001
5.3720002 21.103001 -2.474 0.2
5.3189998 21.17 -2.48 0.31
5.2659998 21.243999 -2.4879999 0.11
5.2119999 21.313 -2.494 0.079999998
4.6999998 19.341 -2.244 0.090000004
5.1350002 21.434999 -2.507 0.090000004
5.0760002 21.488001 -2.5109999 0.079999998
5.0100002 21.51 -2.5120001 0.090000004
4.947 21.542999 -2.5139999 0
4.8730001 21.533001 -2.5109999 0.079999998
4.8039999 21.540001 -2.51 0.079999998
4.7729998 21.562 -2.5120001 0
4.7059999 21.582001 -2.513 0.14
4.5380001 21.458 -2.493 0.5
4.5159998 21.688 -2.52 0.25999999
4.4400001 21.667 -2.516 0.27000001
4.402 21.830999 -2.5350001 0.23999999
4.3330002 21.839001 -2.5339999 0.25999999
4.2950001 21.83 -2.5320001 0.12
4.2449999 21.938999 -2.5439999 0.43000001
4.1880002 22.014 -2.552 0.19
4.1220002 22.042999 -2.5539999 0.30000001
4.0650001 22.125999 -2.563 0.25999999
3.9920001 22.121 -2.5599999 0.28
3.9260001 22.150999 -2.563 0.27000001
3.8829999 22.110001 -2.5569999 0.28999999
3.8139999 22.125999 -2.5569999 0.38
3.747 22.152 -2.559 0.31999999
3.674 22.139999 -2.556 0.25999999
3.5899999 22.063 -2.5450001 0.34999999
3.5350001 22.167 -2.5569999 0.38999999
3.474 22.231001 -2.563 0.31
3.441 22.25 -2.5650001 0.27000001
3.369 22.249001 -2.563 0.36000001
3.2980001 22.253 -2.563 0.28999999
3.224 22.236 -2.559 0.38
3.1559999 22.257999 -2.5610001 0.28
3.076 22.193001 -2.5510001 0.28999999
3.0150001 22.268999 -2.5599999 0.36000001
2.9449999 22.275 -2.559 0.34
2.8840001 22.084999 -2.5350001 0.41999999
2.8469999 22.344 -2.566 0.36000001
2.776 22.351999 -2.566 0.33000001
2.7060001 22.355 -2.5650001 0.33000001
2.6400001 22.405001 -2.5699999 0.41
2.5550001 22.285 -2.5550001 0.25999999
2.503 22.451 -2.5739999 0.30000001
2.461 22.399 -2.5669999 0.43000001
2.3889999 22.385 -2.5650001 0.36000001
2.316 22.375 -2.562 0.30000001
2.256 22.483 -2.575 0.38
2.1860001 22.497999 -2.576 0.31999999
2.1140001 22.490999 -2.5739999 0.38999999
2.0469999 22.533001 -2.5780001 0.44999999
2.0150001 22.573 -2.5829999 0.28999999
1.943 22.57 -2.582 0.30000001
1.872 22.58 -2.582 0.28
1.788 22.421 -2.562 0.34
1.728 22.555 -2.5780001 0.38999999
1.654 22.518999 -2.573 0.28
1.581 22.487 -2.5680001 0.41999999
1.515 22.566999 -2.5769999 0.25999999
1.4809999 22.599001 -2.5810001 0.38
1.409 22.587 -2.579 0.30000001
1.339 22.601999 -2.5799999 0.41
1.267 22.594 -2.579 0.27000001
1.194 22.548 -2.573 0.36000001
1.125 22.601 -2.579 0.28
1.054 22.597 -2.5780001 0.28
1.018 22.599001 -2.5780001 0.34
0.94700003 22.601999 -2.5780001 0.46000001
0.87699997 22.628 -2.5810001 0.28999999
0.80500001 22.607 -2.5780001 0.27000001
0.73400003 22.612 -2.5780001 0.38
0.66399997 22.628 -2.5799999 0.23999999
0.59100002 22.548 -2.5699999 0.34999999
0.55699998 22.631001 -2.5799999 0.46000001
0.48500001 22.591999 -2.575 0.34999999
0.41499999 22.634001 -2.5799999 0.2
0.34400001 22.667 -2.5840001 0.41
0.273 22.642 -2.5810001 0.36000001
0.20100001 22.605 -2.576 0.33000001
0.13 22.611 -2.5769999 0.31999999
0.094999999 22.563999 -2.5710001 0.28999999
0.024 22.540001 -2.5680001 0.54000002
-0.046999998 22.655001 -2.582 0.22
-0.119 22.653 -2.582 0.34
-0.19 22.656 -2.582 0.38
-0.26100001 22.667999 -2.5840001 0.20999999
-0.331 22.589001 -2.5739999 0.23999999
-0.36500001 22.476 -2.5599999 0.41999999
-0.43700001 22.587 -2.5739999 0.31
-0.509 22.59 -2.575 0.44
-0.57999998 22.606001 -2.5769999 0.31
-0.65100002 22.6 -2.576 0.31999999
-0.72299999 22.618 -2.579 0.28
-0.79000002 22.518 -2.5669999 0.38
-0.86299998 22.579 -2.575 0.27000001
-0.898 22.558001 -2.572 0.38
-0.96799999 22.528999 -2.569 0.34999999
-1.0369999 22.488001 -2.5650001 0.36000001
-1.108 22.503 -2.5669999 0.28
-1.178 22.478001 -2.5639999 0.33000001
-1.248 22.466 -2.563 0.40000001
-1.3200001 22.486 -2.566 0.27000001
-1.352 22.438 -2.5599999 0.36000001
-1.423 22.434999 -2.5610001 0.37
-1.492 22.403 -2.5569999 0.34
-1.559 22.357 -2.552 0.30000001
-1.631 22.379 -2.556 0.14
-1.694 22.273001 -2.543 0.34999999
-1.781 22.478001 -2.569 0.20999999
-1.817 22.483 -2.5699999 0.23
-1.911 21.943001 -2.5050001 0.57999998
-2.0250001 22.429001 -2.566 0.18000001
-2.095 22.419001 -2.5650001 0.31999999
-2.1630001 22.382 -2.5610001 0.25
-2.23 22.35 -2.5580001 0.34
-2.2609999 22.297001 -2.552 0.23
-2.3150001 22.145 -2.5339999 0.46000001
-2.404 22.313999 -2.556 0.2
-2.4679999 22.254999 -2.55 0.36000001
-2.539 22.257 -2.5510001 0.25
-2.605 22.215 -2.5469999 0.46000001
-2.6589999 22.075001 -2.53 0.34999999
-2.744 22.188 -2.546 0.38
-2.773 22.145 -2.5409999 0.38999999
-2.832 22.052999 -2.53 0.36000001
-2.895 21.997 -2.5250001 0.28
-2.9619999 21.972 -2.523 0.47999999
-3.026 21.921 -2.5179999 0.41
-3.0869999 21.858999 -2.5109999 0.44999999
-3.154 21.837 -2.5090001 0.37
-3.1919999 21.862 -2.513 0.38
-3.2579999 21.83 -2.51 0.30000001
-3.3410001 21.912001 -2.5220001 0.30000001
-3.404 21.868 -2.5179999 0.38999999
-3.473 21.855 -2.5179999 0.30000001
-3.526 21.754 -2.506 0.40000001
-3.599 21.766001 -2.5090001 0.28999999
-3.6270001 21.725 -2.5050001 0.44999999
-3.701 21.745001 -2.5090001 0.34
-3.7720001 21.753 -2.5109999 0.37
-3.8429999 21.753 -2.513 0.31999999
-3.892 21.635 -2.4990001 0.36000001
-3.98 21.733999 -2.513 0.38999999
-4.0489998 21.721001 -2.513 0.34999999
-4.0640001 21.615 -2.5009999 0.38
-4.132 21.605 -2.5009999 0.41
-4.2090001 21.636 -2.507 0.36000001
-4.2579999 21.528 -2.4949999 0.38
-4.3210001 21.493 -2.4920001 0.37
-4.415 21.607 -2.5079999 0.34
-4.4809999 21.586 -2.507 0.34999999
-4.5539999 21.597 -2.51 0.43000001
-4.598 21.634001 -2.516 0.30000001
-4.6599998 21.591999 -2.513 0.41
-4.7399998 21.632 -2.5190001 0.25999999
-4.796 21.566999 -2.513 0.43000001
-4.875 21.601999 -2.5190001 0.34
-4.9349999 21.551001 -2.5150001 0.41999999
-5.006 21.547001 -2.517 0.36000001
-5.033 21.513 -2.513 0.28999999
-5.1009998 21.499001 -2.513 0.5
-5.1729999 21.5 -2.516 0.38999999
-5.2259998 21.426001 -2.5079999 0.27000001
-5.303 21.448 -2.513 0.38999999
-5.3629999 21.402 -2.5090001 0.34
-5.4419999 21.431 -2.5150001 0.33000001
-5.4809999 21.441999 -2.5179999 0.44
-5.552 21.438 -2.5190001 0.36000001
-5.6259999 21.448999 -2.523 0.36000001
-5.6929998 21.429001 -2.523 0.31
-5.763 21.419001 -2.5239999 0.38
-5.8270001 21.389 -2.5220001 0.31999999
-5.8969998 21.381001 -2.5239999 0.34999999
-5.9629998 21.358 -2.523 0.28999999
-5.9980001 21.354 -2.5239999 0.28999999
-6.066 21.339001 -2.5239999 0.51999998
-6.1409998 21.347 -2.5280001 0.37
-6.2049999 21.32 -2.527 0.22
-6.3439999 21.296 -2.529 0.55000001
-6.4169998 21.297001 -2.5309999 0.31
-6.4419999 21.257999 -2.5280001 0.41999999
-6.5029998 21.221001 -2.526 0.28
-6.573 21.209 -2.527 0.38999999
-6.6440001 21.202 -2.5280001 0.40000001
-6.737 21.266001 -2.539 0.25999999
-6.783 21.179001 -2.5309999 0.38999999
-6.8730001 21.229 -2.54 0.40000001
-6.9749999 21.315001 -2.5539999 0.28
-6.9879999 21.242001 -2.546 0.36000001
-7.0780001 21.291 -2.5550001 0.25999999
-7.1659999 21.330999 -2.563 0.34
-7.224 21.282 -2.5599999 0.36000001
-7.3060002 21.304001 -2.566 0.36000001
-7.3730001 21.278999 -2.566 0.28999999
-7.434 21.240999 -2.5639999 0.43000001
-7.4660001 21.226 -2.563 0.38999999
-7.5430002 21.232 -2.5669999 0.30000001
-7.5890002 21.15 -2.559 0.41
-7.6810002 21.195 -2.5680001 0.31999999
-7.7529998 21.188 -2.5710001 0.38999999
-7.8340001 21.202 -2.576 0.34
-7.9260001 21.245001 -2.585 0.31
-7.9699998 21.26 -2.5880001 0.38999999
-8.0340004 21.228001 -2.5869999 0.34999999
-8.1049995 21.212999 -2.589 0.36000001
-8.1990004 21.257999 -2.598 0.41999999
-8.2749996 21.256001 -2.6010001 0.36000001
-8.3380003 21.221001 -2.5999999 0.38
-8.4289999 21.257 -2.608 0.38999999
-8.4659996 21.253 -2.609 0.30000001
-8.5459995 21.257999 -2.6140001 0.37
-8.6230001 21.257 -2.6170001 0.31999999
-8.6599998 21.156 -2.6070001 0.43000001
-8.7580004 21.205999 -2.6170001 0.36000001
-8.8310003 21.195 -2.6199999 0.37
-8.8889999 21.146999 -2.6170001 0.37
-8.9569998 21.122 -2.6170001 0.25999999
-8.9980001 21.125999 -2.6199999 0.44
-9.0690002 21.107 -2.6210001 0.27000001
-9.1529999 21.120001 -2.6270001 0.28999999
-9.1969995 21.041 -2.6199999 0.2
-9.2489996 20.979 -2.615 0.22
-9.2950001 20.906 -2.6099999 0.18000001
-9.3579998 20.870001 -2.609 0.28
-9.3800001 20.832001 -2.605 0.27000001
-9.4320002 20.773001 -2.602 0.25
-9.4829998 20.712999 -2.5969999 0.23999999
-9.5500002 20.686001 -2.598 0.25999999
-9.5959997 20.617001 -2.5929999 0.23999999
-9.658 20.580999 -2.592 0.25999999
-9.7060003 20.514999 -2.5869999 0.1
-9.7299995 20.482 -2.585 0.14
-9.757 20.211 -2.556 0.44999999
-9.8909998 20.325001 -2.576 0.41
-9.96 20.304001 -2.5769999 0.23
-10.008 20.240999 -2.573 0.19
-10.073 20.212999 -2.573 0.41999999
-10.093 20.174 -2.5699999 0.23999999
-10.147 20.122999 -2.5669999 0.2
-10.207 20.084999 -2.5669999 0.14
-10.252 20.018 -2.562 0.17
-10.306 19.968 -2.559 0.12
-10.345 19.889999 -2.553 0.16
-10.402 19.847 -2.552 0.20999999
-10.443 19.773001 -2.546 0.19
-10.44 19.694 -2.5369999 0.20999999
-10.475 19.610001 -2.53 0.23
-10.531 19.569 -2.529 0.30000001
-10.602 19.552999 -2.5309999 0.28999999
-10.669 19.530001 -2.533 0.41
-10.74 19.514 -2.5350001 0.44999999
-10.794 19.466 -2.533 0.43000001
-10.818 19.437 -2.5320001 0.46000001
-10.876 19.396999 -2.5309999 0.56
-10.933 19.356001 -2.53 0.40000001
-10.988 19.312 -2.5280001 0.23999999
-11.019 19.225 -2.5209999 0.14
-11.054 19.148001 -2.5150001 0.16
-11.111 19.108 -2.5139999 0.12
-11.124 19.061001 -2.51 0.16
-11.176 19.011999 -2.5079999 0.28
-11.22 18.952 -2.5050001 0.25999999
-11.266 18.892 -2.5009999 0.27000001
-11.318 18.844999 -2.4990001 0.25999999
-11.362 18.785999 -2.4960001 0.25
-11.406 18.724001 -2.4920001 0.25
-11.423 18.686001 -2.4890001 0.23999999
-11.474 18.638 -2.4879999 0.25
-11.517 18.577 -2.484 0.25
-11.563 18.52 -2.4809999 0.25999999
-11.61 18.466999 -2.4790001 0.25
-11.648 18.399 -2.474 0.25
-11.7 18.354 -2.473 0.27000001
-11.732 18.277 -2.467 0.25999999
-11.759 18.254999 -2.467 0.27000001
-11.802 18.195999 -2.4630001 0.19
-11.84 18.131001 -2.4590001 0.18000001
-11.884 18.073999 -2.4560001 0.16
-11.936 18.028 -2.4549999 0.13
-11.971 17.959 -2.45 0.17
-12.021 17.912001 -2.4489999 0.30000001
-12.025 17.856001 -2.444 0.19
-12.073 17.806999 -2.4419999 0.17
-12.117 17.753 -2.4400001 0.13
-12.153 17.684999 -2.4349999 0.16
-12.195 17.627001 -2.4319999 0.12
-12.238 17.570999 -2.4300001 0.16
-9.0229998 12.838 -1.727 0.19
-12.343 17.429001 -2.4230001 0.14
-9.3459997 13.12 -1.778 0.28999999
-9.1929998 12.822 -1.738 0.23
-12.478 17.271999 -2.4170001 0
-12.53 17.229 -2.4159999 0
-12.564 17.163 -2.4119999 0.11
-12.549 17.087 -2.4030001 0.090000004
-9.2589998 12.536 -1.714 0.079999998
-12.635 16.979 -2.3989999 0.16
-12.68 16.927999 -2.3970001 0.12
-12.709 16.857 -2.392 0.16
-12.755 16.806999 -2.391 0.28999999
-12.78 16.731001 -2.385 0.2
-12.794 16.639999 -2.378 0.18000001
-12.797 16.59 -2.3729999 0.20999999
-12.833 16.530001 -2.3699999 0.23
-12.902 16.511 -2.3729999 0.31999999
-12.951 16.466999 -2.3729999 0.18000001
-12.979 16.396999 -2.368 0.34999999
-9.6350002 12.105 -1.7 0.13
-10.593 13.219 -1.88 0.38999999
-13.033 16.202 -2.3540001 0.25
-13.06 16.131001 -2.349 0.11
-13.082 16.055 -2.3429999 0.16
-10.791 13.166 -1.891 0.23
-10.836 13.137 -1.891 0.15000001
-10.88 13.106 -1.892 0.47999999
-11.088 13.271 -1.924 0.14
-10.977 13.055 -1.895 0.50999999
-10.842 12.853 -1.865 0.16
-11.002 12.96 -1.888 0.14
-11.072 12.96 -1.893 0.5
-10.982 12.773 -1.869 0.23
-10.938 12.643 -1.853 0.25
-11.059 12.701 -1.868 0.40000001
-11.079 12.644 -1.865 0.27000001
-11.158 12.693 -1.876 0.27000001
-11.189 12.648 -1.874 0.41
-11.255 12.642 -1.8789999 0.43000001
-11.389 12.712 -1.896 0.31999999
-11.462 12.713 -1.902 0.38999999
-11.623 12.81 -1.924 0.37
-11.63 12.737 -1.918 0.40000001
-11.658 12.727 -1.92 0.28999999
-11.725 12.72 -1.925 0.36000001
-11.788 12.708 -1.929 0.38
-11.756 12.594 -1.916 0.36000001
-11.869 12.635 -1.929 0.36000001
-11.878 12.566 -1.924 0.31999999
-11.938 12.55 -1.927 0.38
-11.881 12.451 -1.914 0.28
-11.952 12.446 -1.919 0.38999999
-12.056 12.476 -1.931 0.34
-12.073 12.415 -1.927 0.30000001
-12.104 12.369 -1.925 0.38999999
-12.198 12.387 -1.9349999 0.37
-12.22 12.332 -1.932 0.34
-12.269 12.342 -1.937 0.44999999
-12.249 12.245 -1.927 0.25999999
-12.4 12.318 -1.947 0.44
-12.062 11.908 -1.882 0.36000001
-12.237 12.005 -1.905 0.33000001
-12.47 12.156 -1.939 0.34
-12.512 12.121 -1.939 0.38
-12.636 12.164 -1.954 0.37
-12.617 12.107 -1.947 0.38999999
-12.764 12.171 -1.966 0.34
-12.793 12.123 -1.965 0.43000001
-12.868 12.117 -1.971 0.34
-12.893 12.064 -1.9680001 0.36000001
-12.911 12.006 -1.965 0.36000001
-12.898 11.918 -1.957 0.36000001
-12.876 11.86 -1.95 0.43000001
-12.985 11.886 -1.962 0.38999999
-12.974 11.801 -1.954 0.31999999
-12.991 11.743 -1.951 0.28
-13.052 11.723 -1.955 0.28999999
-13.129 11.717 -1.961 0.28999999
-13.213 11.718 -1.969 0.30000001
-13.269 11.73 -1.975 0.28999999
-13.344 11.723 -1.9809999 0.31999999
-13.447 11.738 -1.992 0.33000001
-13.512 11.72 -1.997 0.28999999
-13.599 11.72 -2.0050001 0.30000001
-13.688 11.723 -2.013 0.34
-13.77 11.718 -2.0209999 0.30000001
-13.848 11.71 -2.027 0.30000001
-13.909 11.723 -2.0339999 0.31
-14.013 11.736 -2.0450001 0.30000001
-14.082 11.718 -2.05 0.28
-14.166 11.713 -2.0569999 0.27000001
-14.255 11.711 -2.066 0.30000001
-14.324 11.693 -2.0710001 0
-13.527 10.974 -1.939 0.039999999
-13.564 10.969 -1.942 0.079999998
-13.642 10.961 -1.949 0.17
-13.715 10.949 -1.955 0.18000001
-13.817 10.958 -1.966 0.41
-13.899 10.953 -1.973 0.25
-14.014 10.972 -1.9859999 0.25999999
-14.1 10.968 -1.994 0.28999999
-14.174 10.989 -2.003 0.28
-14.258 10.983 -2.01 0.28
-14.346 10.979 -2.0190001 0.28
-14.432 10.973 -2.026 0.28
-14.54 10.983 -2.0380001 0.25999999
-14.627 10.977 -2.046 0.28
-14.716 10.971 -2.0539999 0.28999999
-14.776 10.98 -2.0610001 0.22
-14.846 10.959 -2.066 0.40000001
-14.838 10.882 -2.0599999 0.23999999
-14.956 10.896 -2.073 0.23
-15.109 10.935 -2.0910001 0.22
-15.242 10.958 -2.105 0.34999999
-15.294 10.923 -2.108 0.27000001
-15.378 10.946 -2.118 0.41
-15.406 10.893 -2.1170001 0.20999999
-15.454 10.855 -2.119 0.37
-15.477 10.798 -2.118 0.25999999
-15.48 10.728 -2.1129999 0.25
-15.489 10.663 -2.109 0.25
-15.501 10.599 -2.1059999 0.28
-15.51 10.534 -2.102 0.30000001
-15.521 10.506 -2.102 0.23999999
-15.575 10.472 -2.105 0
-14.202 9.4870005 -1.898 0.090000004
-14.268 9.4659996 -1.903 0.31
-14.346 9.4530001 -1.91 0.25
-14.431 9.4429998 -1.918 0.27000001
-14.543 9.4519997 -1.9299999 0.27000001
-14.628 9.474 -1.9400001 0.27000001
-14.753 9.4890003 -1.954 0.28
-14.852 9.4870005 -1.964 0.28999999
-14.94 9.4770002 -1.973 0.30000001
-15.037 9.4720001 -1.983 0.28999999
-15.131 9.4650002 -1.992 0.28999999
-15.231 9.4610004 -2.0020001 0.28
-15.324 9.4849997 -2.013 0.25999999
-15.404 9.4680004 -2.0209999 0.19
-15.505 9.4630003 -2.0309999 0.43000001
-15.506 9.3970003 -2.027 0.23999999
-15.578 9.3739996 -2.033 0.27000001
-15.747 9.408 -2.053 0.25
-15.837 9.3940001 -2.0610001 0.19
-15.884 9.3879995 -2.066 0.40000001
-15.934 9.3500004 -2.069 0.28999999
-15.929 9.2799997 -2.0639999 0.25
-15.853 9.1700001 -2.049 0.37
-15.363 8.823 -1.976 0.20999999
-15.31 8.7290001 -1.964 0.25
-15.411 8.7220001 -1.975 0.28999999
-15.437 8.7049999 -1.976 0.23
-15.459 8.6529999 -1.976 0.34
-15.516 8.6210003 -1.98 0.25999999
-15.543 8.5719995 -1.98 0.47999999
-15.641 8.5629997 -1.99 0.31999999
-15.71 8.5360003 -1.9960001 0.31
-15.584 8.4049997 -1.975 0
-15.703 8.4370003 -1.989 0
-14.868 7.9299998 -1.87 0
-14.942 7.9089999 -1.876 0.090000004
-15.041 7.901 -1.887 0.14
-15.177 7.9109998 -1.902 0.36000001
-15.311 7.9200001 -1.9170001 0.25
-15.424 7.9169998 -1.929 0.27000001
-15.532 7.9109998 -1.941 0.27000001
-15.645 7.9369998 -1.955 0.27000001
-15.763 7.934 -1.967 0.25
-15.85 7.9159999 -1.976 0.18000001
-15.978 7.9169998 -1.99 0.44
-16.061001 7.895 -1.998 0.22
-16.157 7.8800001 -2.0079999 0.30000001
-16.17 7.823 -2.006 0.23
-16.205 7.8080001 -2.0090001 0.18000001
-16.320999 7.8010001 -2.0220001 0.41
-16.541 7.842 -2.0480001 0.23
-16.582001 7.7979999 -2.05 0.28999999
-16.615 7.75 -2.052 0.31999999
-16.65 7.7030001 -2.053 0.25
-16.665001 7.6459999 -2.052 0.31999999
-16.641001 7.6030002 -2.0469999 0.30000001
-16.622999 7.5320001 -2.0409999 0.28999999
-16.631001 7.473 -2.039 0.23
-16.646999 7.4169998 -2.0380001 0.36000001
-16.646 7.355 -2.0350001 0.31999999
-16.631001 7.2859998 -2.03 0.25
-16.712 7.2579999 -2.0380001 0.37
-16.702 7.223 -2.0350001 0.22
-16.628 7.1290002 -2.0220001 0.46000001
-16.768999 7.1269999 -2.0380001 0.20999999
-15.224 6.4169998 -1.829 0.17
-15.334 6.4060001 -1.841 0.28999999
-15.457 6.4000001 -1.855 0.31
-15.631 6.415 -1.875 0.28999999
-15.766 6.441 -1.892 0.31
-15.895 6.4349999 -1.906 0.30000001
-16.025999 6.4299998 -1.921 0.30000001
-16.155001 6.4219999 -1.9349999 0.25
-11.78 4.6479998 -1.3559999 0.19
-11.841 4.6290002 -1.362 0.47999999
-11.763 4.5560002 -1.349 0.25999999
-11.765 4.5359998 -1.349 0.28
-11.758 4.4910002 -1.346 0.56999999
-11.739 4.441 -1.342 0.13
-11.779 4.414 -1.345 0.51999998
-15.263 5.6570001 -1.799 0.27000001
-15.131 5.5539999 -1.78 0.28999999
-15.19 5.5219998 -1.785 0.18000001
-11.893 4.2870002 -1.353 0.57999998
-11.851 4.2509999 -1.347 0.28999999
-14.379 5.1009998 -1.674 0.23
-14.121 4.96 -1.638 0.25
-14.409 5.0100002 -1.674 0.38999999
-14.434 4.9679999 -1.675 0.47
-14.015 4.7750001 -1.618 0.34
-13.874 4.6789999 -1.598 0.19
-12.894 4.3280001 -1.471 0.56
-13.732 4.559 -1.577 0.20999999
-14.082 4.6259999 -1.62 0.43000001
-14.406 4.6820002 -1.66 0.31999999
-14.09 4.5310001 -1.618 0.36000001
-14.291 4.5450001 -1.642 0.40000001
-14.425 4.5380001 -1.6569999 0.28999999
-14.165 4.4320002 -1.623 0.41999999
-14.349 4.4400001 -1.645 0.40000001
-14.376 4.3990002 -1.647 0.34
-14.529 4.3959999 -1.664 0.46000001
-14.704 4.3979998 -1.6849999 0.25999999
-14.848 4.3899999 -1.702 0.49000001
-14.839 4.3369999 -1.699 0.28999999
-14.803 4.276 -1.692 0.5
-14.847 4.263 -1.697 0.34
-14.87 4.2189999 -1.698 0.31
-14.931 4.1859999 -1.705 0.54000002
-14.937 4.1370001 -1.704 0.25
-15.003 4.1040001 -1.71 0.36000001
-15.16 4.0960002 -1.729 0.20999999
-15.226 4.0630002 -1.735 0.41
-15.434 4.092 -1.761 0.27000001
-15.537 4.0669999 -1.773 0.36000001
-15.687 4.053 -1.79 0.30000001
-15.921 4.0599999 -1.818 0.38
-16.02 4.0310001 -1.829 0.34
-16.198 4.0219998 -1.85 0.52999997
-16.238001 3.977 -1.853 0.28999999
-16.243999 3.9519999 -1.853 0.27000001
-16.254 3.9000001 -1.853 0.25
-16.249001 3.845 -1.851 0.27000001
-16.253 3.7920001 -1.85 0.30000001
-16.256001 3.7390001 -1.849 0.30000001
-16.268999 3.688 -1.849 0.31
-16.294001 3.6400001 -1.85 0.31999999
-16.292 3.6129999 -1.85 0.31
-16.309 3.563 -1.85 0.30000001
-16.318001 3.5109999 -1.85 0.30000001
-16.327 3.46 -1.85 0.30000001
-16.337999 3.408 -1.85 0.31
-16.351 3.3570001 -1.85 0.30000001
-16.355 3.3050001 -1.849 0.30000001
-16.363001 3.28 -1.85 0.27000001
-16.367001 3.227 -1.849 0.28999999
-16.367001 3.174 -1.848 0.28999999
-16.381001 3.1229999 -1.848 0.28999999
-16.386999 3.0710001 -1.848 0.28999999
-16.395 3.0190001 -1.847 0.28
-16.393999 2.9660001 -1.846 0.28
-16.400999 2.914 -1.846 0.28
-16.408001 2.888 -1.846 0.28
-16.409 2.836 -1.845 0.28999999
-16.426001 2.7850001 -1.846 0.28999999
-16.427 2.7320001 -1.845 0.28999999
-16.433001 2.6800001 -1.845 0.30000001
-16.448999 2.6300001 -1.846 0.27000001
-16.452 2.5769999 -1.845 0.28999999
-16.452 2.5510001 -1.845 0.28
-16.459999 2.4990001 -1.845 0.31
-16.466999 2.448 -1.845 0.28
-16.462999 2.3940001 -1.8430001 0.28999999
-16.482 2.3440001 -1.845 0.30000001
-16.488001 2.2920001 -1.844 0.30000001
-16.500999 2.2409999 -1.845 0.30000001
-16.496 2.214 -1.844 0.30000001
-16.499001 2.1619999 -1.844 0.30000001
-16.51 2.1099999 -1.844 0.30000001
-16.517 2.0580001 -1.844 0.28999999
-16.518999 2.006 -1.844 0.30000001
-16.525 1.954 -1.844 0.28999999
-16.533001 1.902 -1.844 0.28999999
-16.523001 1.849 -1.842 0.30000001
-16.530001 1.823 -1.842 0.28
-16.524 1.77 -1.841 0.28999999
-16.533001 1.719 -1.841 0.28999999
-16.541 1.6670001 -1.842 0.28
-16.544001 1.615 -1.841 0.28
-16.545 1.562 -1.841 0.27000001
-16.556 1.511 -1.842 0.28
-16.549999 1.484 -1.841 0.27000001
-16.545 1.431 -1.84 0.2
-16.542999 1.3789999 -1.839 0.28
-16.538 1.326 -1.8380001 0.28
-16.562 1.276 -1.84 0.55000001
-16.566999 1.224 -1.84 0.23
-16.591 1.173 -1.8430001 0.38999999
-16.584999 1.146 -1.842 0.23
-16.577 1.094 -1.84 0.19
-16.596001 1.0420001 -1.842 0.40000001
-16.584999 0.98900002 -1.841 0.23
-16.584 0.93699998 -1.84 0.18000001
-16.724001 0.89200002 -1.857 0.2
-16.743999 0.83999997 -1.859 0.41
-16.711 0.78600001 -1.855 0.25
-16.716 0.73400003 -1.855 0.25999999
-16.712 0.68099999 -1.854 0.27000001
-16.695999 0.62800002 -1.852 0.27000001
-16.691999 0.57499999 -1.851 0.28999999
-16.701 0.54900002 -1.852 0.25999999
-16.687 0.49599999 -1.85 0.27000001
-16.698 0.44400001 -1.851 0.27000001
-16.676001 0.391 -1.849 0.30000001
-16.683001 0.33899999 -1.849 0.27000001
-16.676001 0.28600001 -1.848 0.28999999
-16.691999 0.234 -1.85 0.28
-16.667 0.18099999 -1.847 0.28
-16.684999 0.155 -1.849 0.27000001
-16.674 0.103 -1.848 0.30000001
-16.662001 0.050999999 -1.846 0.27000001
-16.67 -0.0020000001 -1.847 0.25
-16.662001 -0.054000001 -1.846 0.17
-16.666 -0.106 -1.847 0.43000001
-16.652 -0.15899999 -1.845 0.25
-16.665001 -0.185 -1.847 0.23
-16.641001 -0.237 -1.844 0.18000001
-16.672001 -0.28999999 -1.848 0.41999999
-16.659 -0.34200001 -1.846 0.25
-16.642 -0.39399999 -1.844 0.19
-16.662001 -0.447 -1.847 0.41
-16.653 -0.49900001 -1.846 0.23999999
-16.65 -0.52499998 -1.846 0.2
-16.664 -0.57800001 -1.848 0.41999999
-16.636 -0.62900001 -1.845 0.25
-16.634001 -0.68099999 -1.845 0.25999999
-16.629999 -0.73400003 -1.844 0.25999999
-16.625999 -0.78600001 -1.844 0.27000001
-16.627001 -0.838 -1.845 0.27000001
-16.618 -0.86400002 -1.844 0.27000001
-16.632999 -0.917 -1.846 0.25999999
-16.625999 -0.96899998 -1.845 0.27000001
-16.632999 -1.022 -1.847 0.27000001
-16.645 -1.075 -1.849 0.28
-16.65 -1.128 -1.85 0.27000001
-16.684 -1.183 -1.854 0.23999999
-16.694 -1.21 -1.8559999 0.34
-16.705999 -1.2640001 -1.858 0.18000001
-16.621 -1.3099999 -1.848 0.30000001
-16.552999 -1.357 -1.84 0.47
-16.365 -1.393 -1.817 0.34
-15.906 -1.403 -1.761 0.22
-15.458 -1.4119999 -1.706 0.30000001
-15.347 -1.45 -1.693 0.33000001
-15.307 -1.471 -1.689 0.31999999
-14.246 -1.4119999 -1.558 0.22
-14.34 -1.467 -1.5700001 0.30000001
-15.19 -1.604 -1.676 0.27000001
-14.315 -1.556 -1.569 0.34
-14.292 -1.599 -1.566 0.36000001
-15.086 -1.737 -1.665 0.30000001
-15.081 -1.76 -1.665 0.31999999
-15.071 -1.807 -1.664 0.33000001
-15.03 -1.85 -1.66 0.31999999
-15.012 -1.896 -1.658 0.30000001
-14.997 -1.942 -1.6569999 0.34
-14.959 -1.984 -1.653 0.30000001
-14.939 -2.03 -1.652 0.30000001
-14.932 -2.052 -1.651 0.34999999
-14.89 -2.0940001 -1.647 0.28999999
-14.879 -2.141 -1.646 0.33000001
-14.859 -2.1849999 -1.645 0.31
-14.836 -2.23 -1.643 0.30000001
-14.796 -2.2709999 -1.638 0.28999999
-14.79 -2.3180001 -1.6390001 0.33000001
-14.771 -2.3380001 -1.637 0.31999999
-14.75 -2.3829999 -1.635 0.31
-14.735 -2.428 -1.6339999 0.31
-14.709 -2.471 -1.632 0.31999999
-14.688 -2.5150001 -1.63 0.31999999
-14.676 -2.5599999 -1.63 0.31
-14.633 -2.5999999 -1.625 0.31999999
-14.623 -2.622 -1.625 0.30000001
-14.605 -2.6659999 -1.623 0.31999999
-14.577 -2.7079999 -1.6210001 0.30000001
-14.562 -2.753 -1.62 0.31999999
-14.532 -2.7939999 -1.618 0.31999999
-14.511 -2.8380001 -1.6160001 0.31999999
-14.487 -2.8800001 -1.614 0.31
-14.469 -2.9000001 -1.612 0.31999999
-14.442 -2.9419999 -1.61 0.31999999
-14.407 -2.9820001 -1.607 0.28999999
-14.396 -3.027 -1.607 0.33000001
-14.369 -3.0680001 -1.605 0.31999999
-14.332 -3.108 -1.601 0.28999999
-14.326 -3.1530001 -1.602 0.34999999
-14.297 -3.194 -1.599 0.25
-14.278 -3.2130001 -1.598 0.18000001
-14.131 -3.227 -1.58 0.46000001
-14.051 -3.2550001 -1.571 0.37
-13.923 -3.2709999 -1.557 0.47
-13.822 -3.293 -1.545 0.43000001
-13.721 -3.3139999 -1.534 0.41999999
-13.454 -3.2939999 -1.501 0.31
-13.715 -3.381 -1.535 0.31
-13.66 -3.4130001 -1.529 0.44999999
-13.572 -3.437 -1.52 0.47999999
-13.403 -3.438 -1.5 0.28999999
-13.225 -3.437 -1.478 0.40000001
-12.931 -3.4030001 -1.442 0.31
-12.13 -3.2309999 -1.342 0.41
-12.374 -3.3180001 -1.374 0.28
-12.237 -3.322 -1.357 0.44999999
-11.858 -3.2579999 -1.3099999 0.28999999
-11.841 -3.2939999 -1.3099999 0.5
-12.329 -3.4719999 -1.373 0.33000001
-12.347 -3.5190001 -1.377 0.34
-12.304 -3.549 -1.373 0.36000001
-12.067 -3.5009999 -1.3430001 0.25999999
-12.134 -3.562 -1.353 0.47
-12.017 -3.5680001 -1.34 0.33000001
-12.1 -3.6340001 -1.352 0.47
-12.427 -3.776 -1.395 0.33000001
-12.167 -3.7379999 -1.363 0.30000001
-11.884 -3.691 -1.3279999 0.25
-12.234 -3.8429999 -1.375 0.38
-12.316 -3.891 -1.386 0.44999999
-11.72 -3.7409999 -1.311 0.31999999
-12.297 -3.97 -1.387 0.31999999
-12.557 -4.0970001 -1.4220001 0.46000001
-10.867 -3.5799999 -1.205 0.23
-11.925 -3.973 -1.344 0.30000001
-11.998 -4.04 -1.355 0.31
-11.947 -4.0430002 -1.349 0.47999999
-11.812 -4.039 -1.3329999 0.28999999
-11.933 -4.1220002 -1.351 0.41
-11.936 -4.1659999 -1.353 0.2
-11.828 -4.1690001 -1.34 0.52999997
-11.804 -4.2020001 -1.339 0.44999999
-9.7440004 -3.4990001 -1.072 0.31999999
-10.224 -3.691 -1.135 0.28999999
-11.731 -4.2800002 -1.334 0.2
-11.745 -4.3280001 -1.337 0.54000002
-9.6529999 -3.586 -1.0650001 0.27000001
-9.6309996 -3.612 -1.064 0.19
-9.757 -3.6949999 -1.082 0.38
-11.766 -4.5040002 -1.347 0.43000001
-10.252 -3.9389999 -1.149 0.28
-11.745 -4.5599999 -1.347 0.31999999
-11.704 -4.586 -1.344 0.37
-11.756 -4.6490002 -1.353 0.46000001
-11.733 -4.6830001 -1.352 0.34
-11.738 -4.7280002 -1.354 0.49000001
-11.773 -4.7849998 -1.3609999 0.23
-11.796 -4.816 -1.365 0.31999999
-11.889 -4.8979998 -1.3789999 0.49000001
-11.803 -4.9050002 -1.37 0.30000001
-11.911 -4.9949999 -1.386 0.38999999
-12.02 -5.085 -1.403 0.34
-12.028 -5.1329999 -1.406 0.38
-12.046 -5.1859999 -1.411 0.44999999
-11.939 -5.184 -1.399 0.25999999
-12.221 -5.3299999 -1.438 0.27000001
-12.107 -5.3249998 -1.424 0.55000001
-12.048 -5.3449998 -1.419 0.30000001
-10.753 -4.8080001 -1.247 0.28
-12.103 -5.46 -1.431 0.36000001
-11.015 -5.0089998 -1.286 0.38999999
-11.861 -5.441 -1.403 0.41
-10.197 -4.6929998 -1.179 0.28
-11.609 -5.3909998 -1.372 0.31
-11.795 -5.5229998 -1.4 0.44999999
-11.044 -5.2119999 -1.3 0.23
-11.935 -5.6810002 -1.424 0.41
-11.976 -5.7470002 -1.432 0.36000001
-11.73 -5.6729999 -1.4 0.38
-11.628 -5.6459999 -1.388 0.31999999
-11.724 -5.7389998 -1.403 0.40000001
-11.654 -5.75 -1.396 0.28999999
-11.668 -5.803 -1.401 0.44999999
-11.538 -5.783 -1.385 0.23
-11.497 -5.8080001 -1.382 0.15000001
-10.887 -5.5409999 -1.3 0.57999998
-12.155 -6.2140002 -1.477 0.2
-12.146 -6.257 -1.478 0.23
-12.2 -6.3340001 -1.488 0.20999999
-11.131 -5.8210001 -1.3430001 0.27000001
-12.195 -6.4289999 -1.493 0.25999999
-12.187 -6.474 -1.495 0.28999999
-12.172 -6.5149999 -1.4960001 0.25999999
-12.149 -6.527 -1.494 0.28999999
-12.11 -6.5549998 -1.4910001 0.27000001
-12.08 -6.5879998 -1.49 0.28999999
-12.039 -6.6149998 -1.487 0.28
-9.2329998 -5.1420002 -1.098 0.55000001
-9.3570004 -5.25 -1.118 0.19
-11.917 -6.7189999 -1.48 0.30000001
-11.901 -6.7600002 -1.4809999 0.25
-11.874 -6.7940001 -1.48 0.34
-11.824 -6.8140001 -1.476 0.22
-11.795 -6.848 -1.475 0.23
-8.7270002 -5.0949998 -1.041 0.41999999
-11.73 -6.908 -1.472 0.22
-11.684 -6.9310002 -1.469 0.27000001
-11.667 -6.9450002 -1.4680001 0.25999999
-8.6990004 -5.2080002 -1.046 0.33000001
-8.5670004 -5.1659999 -1.029 0.20999999
-8.5550003 -5.1939998 -1.029 0.40000001
-8.6899996 -5.3150001 -1.051 0.44
-11.521 -7.1059999 -1.4630001 0.27000001
-11.483 -7.132 -1.46 0.28
-11.479 -7.1550002 -1.461 0.31999999
-11.443 -7.1820002 -1.459 0.19
-11.408 -7.211 -1.4579999 0.30000001
-11.349 -7.223 -1.452 0.20999999
-11.338 -7.2659998 -1.454 0.36000001
-11.3 -7.2919998 -1.452 0.23999999
-11.267 -7.3210001 -1.45 0.30000001
-11.224 -7.3179998 -1.446 0.31
-11.191 -7.3470001 -1.444 0.46000001
-11.163 -7.3779998 -1.444 0.25
-11.095 -7.3839998 -1.437 0.62
-11.035 -7.3940001 -1.432 0.37
-10.971 -7.401 -1.425 0.33000001
-10.92 -7.4159999 -1.421 0.34
-10.889 -7.4200001 -1.418 0.43000001
-10.834 -7.4330001 -1.414 0.34999999
-10.834 -7.4829998 -1.4170001 0.34999999
-10.776 -7.493 -1.4119999 0.47999999
-10.705 -7.493 -1.405 0.34
-10.609 -7.4749999 -1.3940001 0.5
-10.554 -7.487 -1.3890001 0.36000001
-10.523 -7.4899998 -1.386 0.33000001
-10.477 -7.506 -1.383 0.40000001
-10.457 -7.5419998 -1.3839999 0.41
-10.316 -7.4889998 -1.3660001 0.44999999
-10.291 -7.52 -1.3660001 0.38999999
-10.399 -7.6500001 -1.386 0.31
-10.222 -7.5689998 -1.362 0.41
-10.223 -7.5949998 -1.364 0.41
-10.093 -7.5469999 -1.348 0.43000001
-10.148 -7.6389999 -1.36 0.27000001
-10.055 -7.618 -1.349 0.47999999
-9.9989996 -7.625 -1.345 0.38
-9.9390001 -7.6279998 -1.339 0.43000001
-9.9219999 -7.665 -1.34 0.38
-9.8470001 -7.6570001 -1.332 0.41999999
-9.9370003 -7.7519999 -1.348 0.2
-9.6549997 -7.5799999 -1.308 0.57999998
-9.6940002 -7.6599998 -1.318 0.23
-9.5780001 -7.6170001 -1.303 0.31
-9.474 -7.5819998 -1.29 0.46000001
-9.4940004 -7.6479998 -1.298 0.41
-9.4729996 -7.6810002 -1.298 0.38999999
-9.7810001 -7.9569998 -1.349 0.36000001
-9.5780001 -7.8410001 -1.3200001 0.27000001
-9.4130001 -7.7550001 -1.298 0.34999999
-9.3439999 -7.7470002 -1.291 0.37
-9.1929998 -7.671 -1.271 0.43000001
-9.427 -7.9169998 -1.312 0.33000001
-9.0559998 -7.6529999 -1.256 0.36000001
-9.342 -7.9200001 -1.304 0.36000001
-9.1759996 -7.8299999 -1.2819999 0.31999999
-9.1800003 -7.8829999 -1.286 0.31
-9.1140003 -7.875 -1.279 0.40000001
-9.177 -7.9809999 -1.294 0.40000001
-9.1029997 -7.967 -1.286 0.41
-9.0489998 -7.9699998 -1.281 0.31
-9.2639999 -8.1859999 -1.318 0.28999999
-9.1140003 -8.1040001 -1.298 0.25
-8.9549999 -8.0129995 -1.276 0.37
-8.5740004 -7.7189999 -1.217 0.28999999
-8.6110001 -7.802 -1.227 0.44999999
-9.0889997 -8.2889996 -1.311 0.33000001
-9.0699997 -8.3240004 -1.312 0.2
-8.5209999 -7.842 -1.222 0.34
-8.2659998 -7.6560001 -1.184 0.38999999
-8.6709995 -8.0830002 -1.256 0.27000001
-8.6339998 -8.099 -1.2539999 0.41
-9.0380001 -8.5340004 -1.327 0.28999999
-8.4239998 -8.0010004 -1.227 0.38999999
-8.934 -8.5419998 -1.318 0.13
-8.0380001 -7.7059999 -1.168 0.19
-8.4049997 -8.1099997 -1.235 0.57999998
-12.087 -11.753 -1.87 0.25
-8.3380003 -8.1470003 -1.232 0.12
-7.9819999 -7.8470001 -1.175 0.43000001
-13.079 -12.963 -2.062 0.18000001
-12.856 -12.822 -2.03 0.34
-12.907 -12.914 -2.0420001 0.38
-12.786 -12.872 -2.0280001 0.25999999
-12.716 -12.883 -2.023 0.31999999
-8.217 -8.3640003 -1.24 0.27000001
-8.1009998 -8.2980003 -1.224 0.25999999
-8.1619997 -8.4130001 -1.24 0.31999999
-11.251 -11.685 -1.7920001 0.17
-7.6539998 -7.9619999 -1.1569999 0.57999998
-8.0710001 -8.4510002 -1.235 0.2
-11.2 -11.891 -1.806 0.55000001
-11.151 -11.914 -1.804 0.38
-10.451 -11.234 -1.6849999 0.2
-7.8369999 -8.4689999 -1.217 0.28999999
-10.366 -11.284 -1.682 0.28999999
-10.348 -11.3 -1.682 0.28999999
-10.271 -11.287 -1.674 0.28999999
-10.217 -11.299 -1.671 0.47
-10.338 -11.505 -1.7 0.44
-10.543 -11.809 -1.744 0.34
-10.786 -12.159 -1.796 0.19
-10.107 -11.463 -1.677 0.44999999
-10.088 -11.478 -1.677 0.37
-10.032 -11.487 -1.673 0.41
-9.9750004 -11.494 -1.669 0.54000002
-7.0450001 -8.158 -1.124 0.36000001
-9.8669996 -11.514 -1.6619999 0.30000001
-9.8100004 -11.521 -1.658 0.27000001
-9.8079996 -11.593 -1.665 0.38
-7.2659998 -8.6049995 -1.183 0.20999999
-9.7189999 -11.598 -1.658 0.41
-9.6750002 -11.619 -1.6569999 0.5
-9.6639996 -11.68 -1.6619999 0.37
-10.003 -12.17 -1.735 0.16
-9.9610004 -12.196 -1.734 0.56999999
-9.9189997 -12.223 -1.733 0.44999999
-6.3000002 -7.7740002 -1.029 0.2
-9.8290005 -12.229 -1.727 0.31
-9.7679996 -12.232 -1.723 0.38
-9.7150002 -12.244 -1.72 0.34
-9.6870003 -12.289 -1.722 0.38999999
-9.6219997 -12.285 -1.716 0.41
-9.5600004 -12.285 -1.712 0.44999999
-9.559 -12.323 -1.715 0.34
-9.4910002 -12.316 -1.71 0.41
-9.4650002 -12.361 -1.712 0.25
-9.4110003 -12.372 -1.709 0.47999999
-9.3999996 -12.438 -1.715 0.28999999
-9.3450003 -12.447 -1.712 0.58999997
-9.493 -12.728 -1.75 0.49000001
-12.991 -17.490999 -2.4760001 0.14
-9.1859999 -12.437 -1.699 0.38
-9.1040001 -12.406 -1.6900001 0.46000001
-9.0489998 -12.414 -1.687 0.25999999
-8.9989996 -12.426 -1.684 0.5
-8.9490004 -12.44 -1.682 0.38
-8.9020004 -12.456 -1.6799999 0.38999999
-8.8780003 -12.464 -1.679 0.44999999
-8.7469997 -12.362 -1.66 0.28999999
-8.6859999 -12.357 -1.655 0.5
-8.5959997 -12.311 -1.6440001 0.41999999
-8.5480003 -12.325 -1.642 0.40000001
-8.5100002 -12.353 -1.642 0.38999999
-8.5 -12.422 -1.649 0.38
-8.4589996 -12.403 -1.6440001 0.47999999
-8.3859997 -12.38 -1.637 0.28999999
-8.3360004 -12.39 -1.6339999 0.49000001
-8.3199997 -12.451 -1.6390001 0.23
-8.2460003 -12.424 -1.631 0.60000002
-8.1949997 -12.431 -1.6289999 0.38
-8.0419998 -12.368 -1.612 0.63999999
-8.1780005 -12.62 -1.647 0.31999999
-8.224 -12.78 -1.666 0.28
-8.191 -12.817 -1.668 0.44
-8.1829996 -12.893 -1.676 0.51999998
-9.8649998 -15.662 -2.073 0.30000001
-8.2069998 -13.113 -1.7 0.16
-8.1750002 -13.154 -1.702 0.34
-8.1590004 -13.175 -1.7029999 0.30000001
-8.099 -13.17 -1.699 0.62
-8.2200003 -13.462 -1.737 0.19
-7.9349999 -13.086 -1.6799999 0.38
-7.8400002 -13.021 -1.6670001 0.31
-7.8109999 -13.066 -1.67 0.51999998
-7.9260001 -13.354 -1.707 0.30000001
-7.9200001 -13.392 -1.711 0.27000001
-7.4569998 -12.697 -1.608 0.49000001
-7.4180002 -12.722 -1.609 0.27000001
-7.3759999 -12.742 -1.608 0.51999998
-7.3439999 -12.779 -1.61 0.31999999
-7.2909999 -12.779 -1.607 0.56
-7.2529998 -12.806 -1.608 0.31999999
-7.1830001 -12.729 -1.595 0.5
-7.2189999 -12.888 -1.614 0.19
-6.987 -12.565 -1.566 0.23
-6.9380002 -12.57 -1.563 0.44999999
-6.9229999 -12.635 -1.5700001 0.41
-6.948 -12.777 -1.586 0.51999998
-6.9990001 -12.969 -1.61 0.23
-6.5440001 -12.167 -1.497 0.5
-6.507 -12.19 -1.497 0.38999999
-6.6469998 -12.549 -1.544 0.27000001
-6.7080002 -12.762 -1.571 0.28
-6.5840001 -12.622 -1.549 0.49000001
-6.573 -12.698 -1.556 0.33000001
-6.4949999 -12.644 -1.546 0.34
-6.533 -12.767 -1.561 0.33000001
-6.5009999 -12.804 -1.564 0.60000002
-6.4889998 -12.881 -1.571 0.34999999
-6.533 -13.072 -1.595 0.18000001
-6.3870001 -12.879 -1.566 0.46000001
-6.3660002 -12.94 -1.571 0.31
-6.3150001 -12.938 -1.568 0.46000001
-6.2649999 -12.938 -1.566 0.41999999
-6.2350001 -12.927 -1.563 0.41999999
-6.0170002 -12.575 -1.512 0.31
-5.9619999 -12.562 -1.508 0.31999999
-5.9250002 -12.584 -1.508 0.63
-5.902 -12.639 -1.513 0.31
-5.9039998 -12.749 -1.526 0.50999999
-5.9169998 -12.829 -1.535 0.23
-5.8670001 -12.825 -1.5319999 0.63
-5.8639998 -12.927 -1.543 0.31
-5.7950001 -12.882 -1.535 0.30000001
-5.7449999 -12.878 -1.5319999 0.56
-5.8119998 -13.142 -1.5650001 0.44999999
-5.8060002 -13.24 -1.576 0.14
-5.619 -12.867 -1.524 0.23
-6.1659999 -14.248 -1.707 0.60000002
-6.085 -14.183 -1.6950001 0.34
-5.7849998 -13.718 -1.628 0.57999998
-5.6719999 -13.569 -1.6059999 0.23
-5.6290002 -13.585 -1.6059999 0.25
-5.5869999 -13.604 -1.6059999 0.55000001
-5.6199999 -13.747 -1.624 0.23999999
-5.579 -13.771 -1.625 0.58999997
-5.6259999 -14.015 -1.655 0.27000001
-5.6399999 -14.178 -1.674 0.38999999
-5.6350002 -14.297 -1.687 0.31
-5.3130002 -13.601 -1.5930001 0.36000001
-5.2810001 -13.647 -1.597 0.54000002
-5.3449998 -13.878 -1.627 0.19
-5.1539998 -13.505 -1.575 0.38
-5.2379999 -13.859 -1.62 0.30000001
-5.1919999 -13.868 -1.619 0.5
-5.1890001 -13.994 -1.633 0.22
-5.1570001 -14.042 -1.637 0.58999997
-5.1220002 -14.084 -1.641 0.23999999
-5.099 -14.091 -1.64 0.43000001
-5.1370001 -14.337 -1.67 0.20999999
-5.0170002 -14.141 -1.643 0.49000001
-5.1550002 -14.68 -1.711 0.28
-4.79 -13.773 -1.591 0.34999999
-4.7670002 -13.848 -1.599 0.51999998
-4.7519999 -13.945 -1.609 0.28999999
-4.7389998 -13.979 -1.613 0.28999999
-4.7150002 -14.056 -1.6210001 0.55000001
-4.7509999 -14.314 -1.652 0.36000001
-4.6919999 -14.284 -1.647 0.17
-5.5300002 -17.032 -1.999 0.31999999
-4.7540002 -14.789 -1.7079999 0.40000001
-5.5739999 -17.542999 -2.0610001 0.33000001
-5.4790001 -17.34 -2.033 0.37
-5.4759998 -17.521999 -2.0539999 0.33000001
-5.4720001 -17.704 -2.076 0.38999999
-5.4109998 -17.704 -2.073 0.36000001
-5.3109999 -17.573999 -2.0550001 0.27000001
-5.2800002 -17.671 -2.0650001 0.46000001
-5.2509999 -17.778999 -2.0769999 0.30000001
-5.211 -17.747 -2.072 0.33000001
-5.1139998 -17.620001 -2.053 0.38999999
-5.0739999 -17.688 -2.0599999 0.25999999
-5 -17.639 -2.052 0.41
-7.0089998 -25.068001 -2.9960001 0.18000001
-4.9330001 -17.830999 -2.072 0.38
-4.875 -17.837999 -2.0710001 0.28999999
-4.862 -17.902 -2.0780001 0.28
-6.7249999 -25.113001 -2.9920001 0.38999999
-6.6160002 -25.021 -2.9779999 0.2
-6.5500002 -25.09 -2.984 0.23
-6.4720001 -25.114 -2.9849999 0.31
-6.3850002 -25.1 -2.98 0.52999997
-6.3039999 -25.114 -2.98 0.52999997
-6.2610002 -25.106001 -2.977 0
-5.46 -22.486 -2.642 0.1
-5.3829999 -22.474001 -2.638 0.13
-5.3099999 -22.483 -2.6370001 0.38
-5.2379999 -22.492001 -2.6359999 0.2
-5.1609998 -22.481001 -2.6329999 0.18000001
-5.0879998 -22.488001 -2.631 0.16
-5.0479999 -22.476 -2.6289999 0.16
-4.9759998 -22.483999 -2.628 0.16
-4.902 -22.486 -2.6259999 0
-4.8260002 -22.476 -2.6229999 0.12
-3.677 -17.635 -2.0120001 0.36000001
-3.6099999 -17.59 -2.0050001 0.31
-3.585 -17.608999 -2.007 0.54000002
-3.533 -17.636 -2.0090001 0.25999999
-2.0250001 -10.218 -1.08 0.33000001
-1.975 -10.133 -1.068 0.47
-1.954 -10.196 -1.075 0.27000001
-1.925 -10.218 -1.077 0.47
-1.874 -10.124 -1.0650001 0.28999999
-1.854 -10.102 -1.062 0.27000001
-1.822 -10.109 -1.062 0.33000001
-1.758 -10.113 -1.061 0.34
-1.725 -10.112 -1.0599999 0.25
-1.679 -10.031 -1.049 0.55000001
-1.676 -10.215 -1.072 0
-1.602 -10.056 -1.051 0.18000001
-1.5650001 -10.024 -1.046 0.47999999
-1.543 -10.093 -1.054 0.14
-1.5 -10.024 -1.045 0.58999997
-1.4680001 -10.022 -1.044 0
-3.4489999 -25.198999 -2.9230001 0.31999999
-3.3670001 -25.191999 -2.921 0.51999998
-3.2869999 -25.197001 -2.9200001 0.34
-3.207 -25.195 -2.9189999 0.57999998
-3.1129999 -25.087 -2.904 0.31999999
-3.039 -25.136 -2.9089999 0.44999999
-3.003 -25.169001 -2.9130001 0.31
-2.9230001 -25.176001 -2.9119999 0.47999999
-2.8469999 -25.212999 -2.9159999 0.31999999
-2.766 -25.202 -2.9130001 0.50999999
-2.6830001 -25.179001 -2.9089999 0.37
-1.285 -12.298 -1.319 0.37
-1.256 -12.396 -1.33 0.43000001
-1.237 -12.41 -1.332 0.54000002
-0.426 -4.3860002 -0.34200001 0.11
-1.193 -12.353 -1.324 0.12
-0.41100001 -4.3709998 -0.34 0.31999999
-0.39500001 -4.3470001 -0.33700001 0.27000001
-0.38 -4.3299999 -0.33399999 0.17
-0.36500001 -4.3169999 -0.333 0.34999999
-0.35800001 -4.3119998 -0.33199999 0.11
-0.34200001 -4.283 -0.32800001 0.15000001
-0.33000001 -4.3000002 -0.33000001 0.20999999
-0.315 -4.2779999 -0.32699999 0.15000001
-0.303 -4.2979999 -0.33000001 0.34999999
-0.28799999 -4.2849998 -0.32800001 0.23999999
-0.27599999 -4.3039999 -0.33000001 0.2
-0.26800001 -4.2750001 -0.32699999 0.16
-0.25400001 -4.2779999 -0.32699999 0.13
-0.242 -4.2919998 -0.329 0.14
-0.228 -4.2849998 -0.32800001 0.20999999
-0.215 -4.2940001 -0.329 0.28999999
-0.20200001 -4.3099999 -0.331 0.2
-0.18700001 -4.2729998 -0.32600001 0.20999999
-0.18000001 -4.2649999 -0.32499999 0.19
-0.167 -4.2919998 -0.32800001 0.38999999
-0.153 -4.2779999 -0.32600001 0.22
-0.14 -4.277 -0.32600001 0.18000001
-0.127 -4.2989998 -0.329 0.28999999
-0.113 -4.2779999 -0.32600001 0.2
-0.1 -4.2979999 -0.329 0.27000001
-0.093999997 -4.3299999 -0.33199999 0.20999999
-0.079999998 -4.336 -0.333 0.25
-0.066 -4.3280001 -0.33199999 0.18000001
-0.052999999 -4.3340001 -0.333 0.1
-0.057999998 -10.471 -1.086 0.30000001
-0.025 -10.483 -1.0880001 0.52999997
0.013 -12.017 -1.276 0.22
0.034000002 -12.452 -1.329 0.56
0.175 -25.289 -2.905 0.25999999
0.255 -25.302 -2.9070001 0.31999999
0.33399999 -25.297001 -2.9070001 0.46000001
0.191 -12.464 -1.331 0.15000001
0.235 -12.741 -1.365 0.47999999
0.252 -11.764 -1.245 0.34999999
0.271 -11.752 -1.244 0.31999999
0.31299999 -11.938 -1.267 0.38
0.34900001 -11.895 -1.262 0.38999999
0.417 -12.779 -1.37 0.41
0.45300001 -12.678 -1.358 0.44
0.5 -12.833 -1.377 0.23999999
0.54299998 -12.899 -1.386 0.46000001
0.58499998 -12.937 -1.391 0.25999999
0.58700001 -12.563 -1.345 0.47999999
0.625 -12.526 -1.34 0.18000001
