# .PCD v0.7 - Point Cloud Data file format
VERSION 0.7
FIELDS x y z intensity
SIZE 4 4 4 4
TYPE F F F F
COUNT 1 1 1 1
WIDTH 1443
HEIGHT 1
VIEWPOINT 0 0 0 1 0 0 0
POINTS 1443
DATA ascii
-10.543 -6.3189998 -1.686 0.36000001
-10.64 -6.4000001 -1.705 0.47999999
-10.75 -6.5120001 -1.728 0.30000001
-10.451 -6.3759999 -1.678 0.43000001
-10.577 -6.4990001 -1.704 0.31999999
-10.52 -6.5089998 -1.698 0.43000001
-10.545 -6.5700002 -1.706 0.41
-10.479 -6.5749998 -1.698 0.40000001
-10.38 -6.5359998 -1.682 0.38
-10.379 -6.5809999 -1.6849999 0.41
-10.392 -6.6350002 -1.691 0.46000001
-10.308 -6.6269999 -1.6799999 0.31999999
-10.308 -6.6729999 -1.684 0.38
-10.299 -6.7129998 -1.686 0.40000001
-10.263 -6.7360001 -1.683 0.27000001
-10.105 -6.6550002 -1.656 0.56
-9.9849997 -6.6220002 -1.638 0.19
-10.142 -6.7709999 -1.671 0.44
-10.035 -6.7459998 -1.655 0.27000001
-10.185 -6.8920002 -1.686 0.47999999
-10.206 -6.9530001 -1.694 0.41
-9.9940004 -6.8559999 -1.659 0.28999999
-10.044 -6.9130001 -1.67 0.38
-10.004 -6.9320002 -1.6670001 0.36000001
-9.9580002 -6.947 -1.663 0.47999999
-9.8970003 -6.9510002 -1.655 0.31
-9.9420004 -7.0279999 -1.668 0.37
-9.8730001 -7.026 -1.659 0.38
-9.8889999 -7.085 -1.666 0.41999999
-9.9940004 -7.1830001 -1.688 0.38999999
-9.8620005 -7.1360002 -1.6670001 0.36000001
-9.79 -7.131 -1.658 0.30000001
-9.9540005 -7.2979999 -1.693 0.27000001
-9.8900003 -7.2989998 -1.686 0.44999999
-9.3039999 -6.914 -1.5779999 0.37
-10.003 -7.4549999 -1.714 0.20999999
-9.7959995 -7.349 -1.679 0.51999998
-9.9180002 -7.4889998 -1.706 0.25
-9.7559996 -7.415 -1.6799999 0.34
-10.124 -7.744 -1.755 0.25999999
-10.081 -7.7620001 -1.752 0.51999998
-9.4949999 -7.3600001 -1.643 0.25
-9.7930002 -7.6139998 -1.7029999 0.41
-9.441 -7.3899999 -1.6390001 0.38
-9.368 -7.3800001 -1.63 0.23
-9.651 -7.651 -1.689 0.28999999
-9.7410002 -7.7719998 -1.712 0.31999999
-9.7379999 -7.8200002 -1.716 0.44999999
-9.5690002 -7.7340002 -1.687 0.44
-9.2489996 -7.5009999 -1.627 0.31999999
-9.5780001 -7.8169999 -1.696 0.34
-9.5710001 -7.8600001 -1.7 0.31
-9.007 -7.447 -1.5930001 0.40000001
-9.2119999 -7.664 -1.638 0.25999999
-9.5340004 -7.9819999 -1.707 0.38
-9.474 -7.9829998 -1.7 0.31999999
-9.427 -7.9679999 -1.693 0.27000001
-9.441 -8.0310001 -1.701 0.54000002
-9.5889997 -8.2080002 -1.7359999 0.28999999
-8.9809999 -7.7389998 -1.619 0.38999999
-8.684 -7.5320001 -1.564 0.20999999
-9.2559996 -8.0760002 -1.684 0.34
-9.2959995 -8.1630001 -1.698 0.30000001
-9.0719995 -7.9920001 -1.655 0.51999998
-9.1730003 -8.132 -1.6799999 0.28999999
-9.0389996 -8.0649996 -1.658 0.18000001
-9.3909998 -8.4300003 -1.7359999 0.54000002
-9.1789999 -8.2930002 -1.698 0.38999999
-9.3170004 -8.4709997 -1.732 0.30000001
-8.8579998 -8.1059999 -1.642 0.30000001
-8.5679998 -7.8660002 -1.584 0.43000001
-8.9569998 -8.2729998 -1.67 0.36000001
-8.9809999 -8.3479996 -1.681 0.23999999
-9.0450001 -8.46 -1.7 0.33000001
-8.9490004 -8.4239998 -1.6849999 0.38
-9.0430002 -8.566 -1.711 0.28
-8.5010004 -8.0799999 -1.599 0.41
-8.7440004 -8.3610001 -1.656 0.34999999
-8.7840004 -8.4530001 -1.67 0.27000001
-8.783 -8.5050001 -1.676 0.25
-8.3520002 -8.1409998 -1.589 0.44
-8.5740004 -8.408 -1.642 0.31999999
-8.5900002 -8.4770002 -1.651 0.25999999
-8.4569998 -8.3719997 -1.626 0.34999999
-8.2950001 -8.2639999 -1.596 0.2
-8.1029997 -8.125 -1.5599999 0.41
-8.2860003 -8.3590002 -1.6059999 0.27000001
-8.0979996 -8.2220001 -1.5700001 0.2
-7.9229999 -8.0950003 -1.538 0.57999998
-10.199 -10.476 -2.0420001 0.19
-7.9330001 -8.1820002 -1.548 0.13
-7.9039998 -8.2040005 -1.548 0.47999999
-10.112 -10.552 -2.0420001 0.25999999
-10.083 -10.588 -2.0420001 0.38999999
-10.007 -10.575 -2.033 0.20999999
-9.9610004 -10.592 -2.03 0.23999999
-9.8769999 -10.57 -2.0190001 0.49000001
-9.8710003 -10.597 -2.0209999 0.28999999
-9.8179998 -10.606 -2.017 0.51999998
-9.7860003 -10.638 -2.017 0.28999999
-9.6960001 -10.608 -2.0039999 0.41999999
-9.651 -10.625 -2.0020001 0.40000001
-9.5819998 -10.616 -1.993 0.23999999
-9.5690002 -10.669 -1.998 0.41
-9.5500002 -10.681 -1.998 0.34999999
-9.4689999 -10.658 -1.987 0.41
-9.4250002 -10.676 -1.984 0.34
-9.3369999 -10.643 -1.972 0.41999999
-9.3030005 -10.672 -1.972 0.47
-9.2880001 -10.723 -1.976 0.30000001
-9.2019997 -10.692 -1.964 0.40000001
-9.1999998 -10.723 -1.967 0.28
-9.1850004 -10.774 -1.972 0.43000001
-9.0489998 -10.682 -1.947 0.41999999
-9.0019999 -10.696 -1.944 0.27000001
-8.96 -10.713 -1.942 0.47999999
-8.9300003 -10.746 -1.943 0.36000001
-8.8620005 -10.733 -1.9349999 0.41999999
-8.7950001 -10.686 -1.923 0.38
-8.7510004 -10.701 -1.92 0.41
-8.7150002 -10.726 -1.92 0.41999999
-8.6689997 -10.738 -1.9170001 0.38
-8.6339998 -10.763 -1.916 0.41
-8.5880003 -10.775 -1.913 0.43000001
-8.4969997 -10.696 -1.895 0.34
-8.441 -10.694 -1.89 0.44999999
-8.415 -10.73 -1.892 0.33000001
-8.4160004 -10.802 -1.9 0.37
-8.2869997 -10.705 -1.876 0.41999999
-8.2819996 -10.768 -1.8839999 0.34999999
-8.2200003 -10.758 -1.877 0.40000001
-8.177 -10.736 -1.87 0.37
-8.1339998 -10.75 -1.868 0.41
-8.1020002 -10.778 -1.868 0.41
-8.0579996 -10.789 -1.8660001 0.41
-7.9850001 -10.762 -1.8559999 0.41
-7.9229999 -10.749 -1.848 0.33000001
-7.8920002 -10.743 -1.845 0.44
-7.8610001 -10.772 -1.846 0.34
-7.8140001 -10.778 -1.842 0.44
-7.7950001 -10.823 -1.846 0.38999999
-7.7189999 -10.789 -1.835 0.37
-7.697 -10.83 -1.8380001 0.38
-7.6350002 -10.815 -1.831 0.41
-7.5999999 -10.838 -1.83 0.38999999
-7.6030002 -10.879 -1.836 0.43000001
-7.5219998 -10.834 -1.823 0.38999999
-7.5029998 -10.881 -1.827 0.40000001
-7.4390001 -10.86 -1.819 0.36000001
-7.4419999 -10.937 -1.829 0.34999999
-7.3979998 -10.948 -1.827 0.44
-7.3829999 -10.962 -1.827 0.41
-7.3759999 -11.027 -1.835 0.38999999
-7.296 -10.981 -1.822 0.38
-7.256 -10.995 -1.821 0.41999999
-7.1890001 -10.969 -1.812 0.40000001
-7.1420002 -10.973 -1.808 0.36000001
-7.0580001 -10.919 -1.794 0.38
-7.0380001 -10.925 -1.793 0.37
-6.9559999 -10.874 -1.78 0.38
-6.7140002 -10.569 -1.721 0.41
-6.7259998 -10.662 -1.734 0.34
-6.7420001 -10.762 -1.748 0.44999999
-6.7059999 -10.779 -1.747 0.37
-6.671 -10.799 -1.747 0.37
-6.7329998 -10.937 -1.77 0.23
-6.7340002 -11.015 -1.78 0.51999998
-6.71 -11.053 -1.783 0.38999999
-6.605 -10.959 -1.763 0.33000001
-6.5689998 -10.977 -1.762 0.37
-6.5190001 -10.972 -1.758 0.34999999
-6.5139999 -11.042 -1.766 0.47999999
-6.4310002 -10.941 -1.747 0.36000001
-6.4050002 -10.975 -1.749 0.38999999
-6.3579998 -10.974 -1.7460001 0.44
-6.2950001 -10.945 -1.737 0.30000001
-6.0929999 -10.673 -1.6849999 0.46000001
-6.1859999 -10.914 -1.724 0.33000001
-6.1339998 -10.902 -1.719 0.41
-5.9920001 -10.689 -1.6799999 0.34
-6.066 -10.902 -1.714 0.38999999
-5.9099998 -10.701 -1.675 0.52999997
-5.9629998 -10.877 -1.7029999 0.19
-5.8899999 -10.825 -1.6900001 0.43000001
-5.8670001 -10.864 -1.694 0.43000001
-5.7309999 -10.652 -1.656 0.23999999
-5.6090002 -10.505 -1.627 0.41999999
-5.5370002 -10.449 -1.614 0.36000001
-5.5089998 -10.477 -1.6160001 0.43000001
-5.4829998 -10.506 -1.618 0.41
-5.5359998 -10.69 -1.647 0.38
-5.7119999 -11.111 -1.716 0.28999999
-5.6420002 -11.018 -1.699 0.46000001
-5.6199999 -11.063 -1.7029999 0.31
-5.5619998 -11.033 -1.6950001 0.43000001
-5.4829998 -10.963 -1.6799999 0.34
-5.4390001 -10.961 -1.677 0.44999999
-5.4840002 -11.138 -1.704 0.44
-5.3210001 -10.896 -1.66 0.31
-5.3559999 -11.009 -1.678 0.46000001
-5.2919998 -10.967 -1.668 0.25
-5.2709999 -11.01 -1.673 0.47999999
-5.2399998 -11.034 -1.674 0.40000001
-5.197 -11.034 -1.671 0.38
-5.1370001 -10.997 -1.6619999 0.44999999
-5.1199999 -11.049 -1.668 0.28999999
-5.0310001 -10.904 -1.642 0.44999999
-5.0380001 -11.01 -1.6569999 0.38
-5.0110002 -11.042 -1.66 0.38999999
-4.9580002 -11.016 -1.653 0.43000001
-4.994 -11.188 -1.6799999 0.34
-4.9679999 -11.226 -1.683 0.38
-4.941 -11.212 -1.6799999 0.43000001
-4.8920002 -11.197 -1.674 0.34
-4.8800001 -11.264 -1.683 0.31999999
-4.7709999 -11.109 -1.655 0.54000002
-4.7930002 -11.259 -1.677 0.17
-4.4860001 -10.633 -1.5700001 0.52999997
-4.7030001 -11.241 -1.669 0.31999999
-4.4499998 -10.687 -1.576 0.38999999
-4.4029999 -10.67 -1.571 0.33000001
-4.3520002 -10.641 -1.564 0.38999999
-4.329 -10.681 -1.568 0.47999999
-4.5229998 -11.257 -1.661 0.31
-4.2459998 -10.667 -1.561 0.31
-4.191 -10.627 -1.553 0.46000001
-4.1789999 -10.645 -1.554 0.36000001
-4.4460001 -11.426 -1.681 0.27000001
-4.2360001 -10.99 -1.607 0.51999998
-4.112 -10.771 -1.569 0.37
-4.0879998 -10.809 -1.573 0.34
-4.072 -10.87 -1.581 0.33000001
-4.0040002 -10.794 -1.566 0.43000001
-4.0050001 -10.847 -1.574 0.36000001
-4.0019999 -10.945 -1.5880001 0.31
-3.924 -10.838 -1.568 0.30000001
-4.1040001 -11.444 -1.665 0.43000001
-4.0170002 -11.313 -1.642 0.31999999
-4.0310001 -11.465 -1.664 0.37
-3.9460001 -11.338 -1.642 0.36000001
-3.9070001 -11.285 -1.632 0.36000001
-3.8729999 -11.299 -1.632 0.55000001
-4.1339998 -12.181 -1.773 0.25999999
-4.085 -12.16 -1.768 0.47999999
-3.964 -11.927 -1.728 0.27000001
-4.0219998 -12.227 -1.774 0.38
-4.5739999 -13.968 -2.0539999 0.31999999
-4.5219998 -13.958 -2.05 0.25999999
-4.4749999 -13.962 -2.049 0.41
-3.7219999 -11.752 -1.691 0.38
-3.73 -11.905 -1.714 0.34
-4.335 -13.976 -2.0439999 0.30000001
-4.29 -13.985 -2.0439999 0.20999999
-4.263 -13.977 -2.0409999 0.46000001
-4.2129998 -13.97 -2.0380001 0.28
-4.165 -13.971 -2.036 0.34
-3.4660001 -11.776 -1.683 0.38
-3.4089999 -11.717 -1.6720001 0.46000001
-3.3410001 -11.619 -1.655 0.36000001
-3.2249999 -11.354 -1.6109999 0.37
-3.224 -11.418 -1.62 0.33000001
-3.177 -11.387 -1.613 0.18000001
-3.2130001 -11.657 -1.655 0.58999997
-3.0320001 -11.139 -1.571 0.27000001
-2.9530001 -10.989 -1.546 0.5
-3 -11.301 -1.594 0.2
-2.8429999 -10.852 -1.521 0.44
-2.8299999 -10.87 -1.523 0.43000001
-2.8239999 -10.99 -1.541 0.2
-2.77 -10.92 -1.528 0.47999999
-2.7479999 -10.979 -1.536 0.33000001
-2.717 -11.001 -1.538 0.44
-2.684 -11.015 -1.539 0.34
-2.8099999 -11.607 -1.632 0.30000001
-2.6960001 -11.296 -1.582 0.5
-2.5650001 -10.903 -1.518 0.25
-2.553 -11.003 -1.533 0.54000002
-2.6819999 -11.722 -1.645 0.25
-2.45 -10.873 -1.51 0.36000001
-2.3940001 -10.78 -1.494 0.57999998
-2.385 -10.822 -1.5 0.20999999
-2.51 -11.552 -1.613 0.23
-2.312 -10.814 -1.497 0.44999999
-2.3280001 -11.053 -1.533 0.47999999
-2.329 -11.232 -1.5599999 0.25999999
-2.2390001 -10.975 -1.518 0.36000001
-2.2309999 -11.113 -1.539 0.28999999
-2.177 -10.936 -1.511 0.50999999
-2.1589999 -11.023 -1.523 0.18000001
-2.3139999 -12.002 -1.675 0.2
-2.26 -11.923 -1.6619999 0.38
-2.234 -11.995 -1.6720001 0.46000001
-2.1930001 -11.982 -1.669 0.41
-2.566 -14.245 -2.02 0.19
-2.0050001 -11.265 -1.5549999 0.44999999
-1.967 -11.253 -1.553 0.18000001
-1.892 -11.034 -1.517 0.54000002
-2.404 -14.245 -2.016 0.34
-1.829 -11.08 -1.523 0.23
-1.781 -11.01 -1.511 0.47999999
-1.862 -11.616 -1.605 0.38
-1.766 -11.249 -1.5470001 0.44
-1.801 -11.701 -1.6160001 0.31999999
-1.691 -11.234 -1.543 0.34
-1.702 -11.542 -1.59 0.30000001
-1.592 -11.047 -1.512 0.31999999
-2.0090001 -14.204 -2 0.38
-1.984 -14.192 -1.998 0.41999999
-1.948 -14.261 -2.0079999 0.20999999
-1.939 -14.531 -2.0480001 0.56999999
-1.864 -14.314 -2.0139999 0.22
-1.814 -14.282 -2.0079999 0.44999999
-1.801 -14.541 -2.0469999 0.28999999
-1.807 -14.965 -2.112 0.36000001
-1.375 -11.59 -1.59 0.31
-1.673 -14.437 -2.029 0.27000001
-1.6289999 -14.448 -2.03 0.38
-1.556 -14.21 -1.992 0.38
-1.511 -14.212 -1.992 0.33000001
-1.469 -14.245 -1.9960001 0.36000001
-1.449 -14.267 -1.999 0.23999999
-1.4 -14.228 -1.993 0.41
-1.351 -14.193 -1.987 0.61000001
-1.336 -14.51 -2.0350001 0.22
-1.261 -14.191 -1.985 0.47999999
-1.209 -14.112 -1.972 0.28
-1.158 -14.037 -1.96 0.31
-1.135 -14.023 -1.9579999 0.28999999
-1.09 -14.019 -1.957 0.34
-1.045 -14.006 -1.954 0.41999999
-1.003 -14.033 -1.9579999 0.47999999
-0.95999998 -14.06 -1.962 0.34999999
-0.91799998 -14.095 -1.966 0.31
-0.89499998 -14.417 -2.0150001 0.36000001
-0.87300003 -14.442 -2.0190001 0.38
-0.81599998 -14.243 -1.988 0.25999999
-0.773 -14.274 -1.992 0.63
-0.722 -14.155 -1.974 0.30000001
-0.68000001 -14.211 -1.982 0.23999999
-0.66500002 -14.849 -2.0799999 0.51999998
-0.625 -14.475 -2.0220001 0.27000001
-0.56699997 -14.188 -1.978 0.22
-0.59299999 -16.004999 -2.256 0.23999999
-0.528 -15.596 -2.1930001 0.16
-0.47499999 -15.477 -2.175 0.49000001
-0.42699999 -15.522 -2.181 0.40000001
-0.35800001 -14.733 -2.0599999 0.37
-0.33199999 -14.601 -2.04 0.30000001
-0.28799999 -14.693 -2.0539999 0.47999999
-0.23999999 -14.611 -2.0409999 0.23
-0.193 -14.55 -2.0320001 0.56999999
-0.15000001 -14.786 -2.0680001 0.31999999
-0.112 -15.696 -2.207 0.27000001
-0.061000001 -15.423 -2.165 0.30000001
-0.037 -15.409 -2.1630001 0.56999999
0.012 -15.417 -2.164 0.27000001
0.059999999 -15.312 -2.148 0.23
0.107 -15.229 -2.1359999 0.60000002
0.155 -15.14 -2.122 0.34999999
0.199 -14.914 -2.0880001 0.18000001
0.243 -14.7 -2.0550001 0.55000001
0.264 -14.563 -2.0339999 0.30000001
0.31099999 -14.605 -2.0409999 0.51999998
0.35600001 -14.6 -2.04 0.31
0.33899999 -12.131 -1.6619999 0.41
0.454 -14.803 -2.0710001 0.23999999
0.498 -14.705 -2.0569999 0.38999999
0.52700001 -14.908 -2.0880001 0.23999999
0.56300002 -14.606 -2.0420001 0.46000001
0.611 -14.642 -2.0480001 0.33000001
0.64999998 -14.495 -2.0250001 0.38999999
0.57599998 -11.902 -1.628 0.18000001
0.61000001 -11.833 -1.618 0.47999999
0.64499998 -11.78 -1.61 0.38
0.662 -11.757 -1.607 0.41
0.69700003 -11.714 -1.6 0.41
0.73100001 -11.678 -1.595 0.41999999
0.76700002 -11.66 -1.5930001 0.23999999
0.80199999 -11.63 -1.5880001 0.50999999
0.838 -11.617 -1.587 0.40000001
0.87400001 -11.611 -1.586 0.38999999
0.89200002 -11.605 -1.586 0.37
0.93000001 -11.62 -1.5880001 0.44
0.96799999 -11.643 -1.592 0.30000001
1.0089999 -11.691 -1.6 0.38999999
1.053 -11.768 -1.613 0.54000002
1.097 -11.844 -1.625 0.22
1.442 -15.127 -2.131 0.31999999
1.467 -15.135 -2.132 0.58999997
1.527 -15.264 -2.1530001 0.28999999
1.5599999 -15.11 -2.1300001 0.51999998
1.5829999 -14.871 -2.0940001 0.31999999
1.6289999 -14.858 -2.092 0.37
1.665 -14.754 -2.0769999 0.43000001
1.651 -14.422 -2.026 0.28
1.682 -14.293 -2.007 0.28999999
1.738 -14.386 -2.0220001 0.30000001
1.767 -14.25 -2.0020001 0.36000001
1.813 -14.253 -2.0039999 0.36000001
1.863 -14.284 -2.0090001 0.36000001
1.914 -14.323 -2.016 0.36000001
1.927 -14.256 -2.006 0.41
1.9680001 -14.216 -2.0009999 0.37
2.016 -14.239 -2.006 0.38
2.053 -14.174 -1.997 0.33000001
2.0999999 -14.185 -1.999 0.31
2.1429999 -14.171 -1.998 0.43000001
2.1860001 -14.152 -1.9960001 0.40000001
2.21 -14.161 -1.998 0.36000001
2.2579999 -14.179 -2.0020001 0.38999999
2.3010001 -14.16 -2 0.38
2.3469999 -14.161 -2.0020001 0.34999999
2.395 -14.173 -2.0050001 0.38999999
2.4389999 -14.163 -2.0039999 0.41999999
2.4849999 -14.163 -2.0050001 0.37
2.5079999 -14.167 -2.007 0.38
2.553 -14.163 -2.007 0.38
2.6010001 -14.174 -2.01 0.41999999
2.648 -14.176 -2.0120001 0.41
2.6919999 -14.165 -2.0120001 0.36000001
2.7379999 -14.163 -2.0120001 0.46000001
2.7650001 -14.186 -2.017 0.41
2.8110001 -14.187 -2.0179999 0.28999999
2.8529999 -14.164 -2.016 0.54000002
2.9030001 -14.182 -2.02 0.27000001
2.938 -14.127 -2.013 0.49000001
2.9879999 -14.144 -2.017 0.34999999
3.0350001 -14.146 -2.0190001 0.38999999
3.0569999 -14.14 -2.0190001 0.41
3.1059999 -14.149 -2.0220001 0.43000001
3.1589999 -14.178 -2.0280001 0.41
3.194 -14.126 -2.0209999 0.44999999
3.2490001 -14.164 -2.029 0.31
3.2969999 -14.169 -2.0309999 0.58999997
3.3410001 -14.159 -2.0309999 0.27000001
3.365 -14.161 -2.0320001 0.44999999
3.4170001 -14.181 -2.0369999 0.34999999
3.454 -14.138 -2.0320001 0.54000002
3.5109999 -14.179 -2.04 0.31999999
3.559 -14.181 -2.0420001 0.47
3.602 -14.166 -2.0420001 0.34999999
3.6289999 -14.175 -2.0439999 0.38
3.678 -14.181 -2.0469999 0.36000001
3.7219999 -14.17 -2.0469999 0.52999997
3.773 -14.183 -2.0510001 0.25999999
3.8210001 -14.182 -2.053 0.44
3.8659999 -14.174 -2.053 0.30000001
3.9070001 -14.146 -2.0510001 0.56999999
3.9460001 -14.201 -2.0610001 0.23999999
3.9890001 -14.183 -2.0599999 0.47999999
4.0310001 -14.161 -2.0580001 0.38999999
4.0830002 -14.175 -2.062 0.38
4.1220002 -14.143 -2.059 0.38999999
4.1690001 -14.139 -2.0610001 0.38999999
4.2199998 -14.149 -2.0650001 0.31999999
4.2329998 -14.11 -2.059 0.63
4.2839999 -14.121 -2.063 0.25
4.3280001 -14.104 -2.063 0.47999999
4.3730001 -14.094 -2.063 0.31
4.4159999 -14.077 -2.063 0.46000001
4.4640002 -14.074 -2.0650001 0.34999999
4.5149999 -14.081 -2.0680001 0.41
4.5380001 -14.077 -2.0680001 0.38
4.5770001 -14.048 -2.066 0.49000001
4.6230001 -14.037 -2.0669999 0.2
4.664 -14.013 -2.0650001 0.46000001
4.704 -13.987 -2.063 0.36000001
4.7519999 -13.984 -2.0650001 0.38
4.7729998 -13.974 -2.0650001 0.43000001
4.8119998 -13.944 -2.062 0.33000001
4.8470001 -13.905 -2.0580001 0.36000001
4.8909998 -13.891 -2.059 0.41
4.948 -13.913 -2.0650001 0.34
4.9920001 -13.9 -2.0650001 0.25999999
5.04 -13.895 -2.0669999 0.54000002
5.0640001 -13.893 -2.0680001 0.23999999
5.1100001 -13.882 -2.069 0.41
5.1570001 -13.875 -2.0699999 0.33000001
5.1960001 -13.848 -2.0680001 0.44999999
5.2309999 -13.809 -2.0650001 0.30000001
5.257 -13.747 -2.0569999 0.43000001
5.3010001 -13.732 -2.0580001 0.50999999
5.342 -13.775 -2.066 0.28
5.3870001 -13.762 -2.0669999 0.19
5.4439998 -13.78 -2.072 0.44999999
5.4819999 -13.75 -2.0699999 0.28
5.5250001 -13.731 -2.0699999 0.31
5.5370002 -13.638 -2.0580001 0.27000001
5.5879998 -13.703 -2.0699999 0.28999999
5.6329999 -13.689 -2.0699999 0.30000001
5.6729999 -13.664 -2.069 0.23
5.711 -13.635 -2.0669999 0.46000001
5.7220001 -13.54 -2.0550001 0.22
5.4970002 -12.893 -1.95 0.18000001
5.2379999 -12.174 -1.8329999 0.15000001
5.4790001 -12.683 -1.919 0.57999998
5.7859998 -13.283 -2.0220001 0.23
5.4749999 -12.456 -1.887 0.2
5.9790001 -13.494 -2.0639999 0.19
6.02 -13.471 -2.063 0.47999999
6.0380001 -13.4 -2.0539999 0.23
6.098 -13.421 -2.0610001 0.23
6.1490002 -13.476 -2.072 0.38999999
6.1409998 -13.347 -2.053 0.28999999
6.1810002 -13.324 -2.053 0.25
6.2719998 -13.41 -2.0710001 0.31999999
6.3080001 -13.376 -2.0680001 0.23
6.3379998 -13.331 -2.0639999 0.30000001
5.8769999 -12.307 -1.892 0.25999999
5.8899999 -12.235 -1.883 0.31999999
6.0430002 -12.455 -1.923 0.31999999
6.0700002 -12.409 -1.919 0.23999999
6.1919999 -12.56 -1.948 0.23
6.0209999 -12.116 -1.875 0.34999999
6.1989999 -12.376 -1.923 0.38999999
6.138 -12.207 -1.896 0.20999999
6.2820001 -12.396 -1.932 0.50999999
6.1989999 -12.137 -1.89 0.27000001
6.329 -12.297 -1.921 0.34
6.29 -12.126 -1.895 0.25999999
6.375 -12.197 -1.911 0.40000001
6.487 -12.317 -1.9349999 0.33000001
6.5050001 -12.305 -1.9349999 0.41999999
6.5019999 -12.206 -1.921 0.31999999
6.5700002 -12.241 -1.931 0.38
6.5760002 -12.16 -1.92 0.31999999
6.6110001 -12.134 -1.919 0.38999999
6.586 -11.997 -1.899 0.33000001
6.572 -11.882 -1.883 0.38
6.6339998 -11.95 -1.896 0.38999999
6.6950002 -11.972 -1.904 0.34999999
6.7249999 -11.937 -1.902 0.34999999
6.803 -11.988 -1.914 0.41
6.8210001 -11.933 -1.908 0.37
6.8530002 -11.901 -1.906 0.34999999
6.8889999 -11.921 -1.9119999 0.38
6.96 -11.956 -1.9220001 0.40000001
6.9889998 -11.92 -1.919 0.38999999
7.0469999 -11.932 -1.925 0.34
7.0669999 -11.881 -1.92 0.44
7.0609999 -11.786 -1.9069999 0.33000001
7.158 -11.864 -1.925 0.31
7.2090001 -11.906 -1.9349999 0.38999999
7.2449999 -11.882 -1.9349999 0.43000001
7.2659998 -11.832 -1.9299999 0.34
7.2740002 -11.762 -1.921 0.38
7.3109999 -11.739 -1.921 0.41
7.349 -11.718 -1.9220001 0.38999999
7.3299999 -11.606 -1.905 0.40000001
7.3060002 -11.528 -1.893 0.31
7.3410001 -11.503 -1.893 0.47
7.369 -11.467 -1.891 0.31
7.4109998 -11.453 -1.892 0.47999999
7.474 -11.472 -1.9 0.30000001
7.5279999 -11.476 -1.905 0.47
7.5650001 -11.454 -1.905 0.31999999
7.5770001 -11.432 -1.904 0.51999998
7.6160002 -11.413 -1.905 0.30000001
7.684 -11.437 -1.913 0.30000001
7.7340002 -11.434 -1.9170001 0.38999999
7.7529998 -11.385 -1.913 0.28999999
7.7729998 -11.338 -1.909 0.43000001
7.8200002 -11.368 -1.916 0.34
7.8720002 -11.366 -1.921 0.46000001
7.8920002 -11.319 -1.916 0.41999999
7.9749999 -11.362 -1.929 0.38
8.0100002 -11.337 -1.929 0.33000001
8.0500002 -11.318 -1.9299999 0.47
8.0769997 -11.28 -1.928 0.36000001
8.0860004 -11.256 -1.926 0.43000001
8.1379995 -11.253 -1.9299999 0.38
8.1669998 -11.219 -1.929 0.43000001
8.2250004 -11.224 -1.934 0.41999999
8.2849998 -11.231 -1.941 0.37
8.3290005 -11.218 -1.943 0.38999999
8.3570004 -11.219 -1.946 0.47999999
8.4119997 -11.218 -1.951 0.41999999
8.4490004 -11.195 -1.951 0.34
8.5050001 -11.195 -1.956 0.43000001
8.5459995 -11.176 -1.9579999 0.41
8.6070004 -11.184 -1.965 0.28
8.651 -11.168 -1.967 0.47999999
8.6949997 -11.189 -1.973 0.36000001
8.7410002 -11.175 -1.976 0.43000001
8.7969999 -11.174 -1.9809999 0.41
8.8310003 -11.145 -1.9809999 0.41999999
8.8850002 -11.142 -1.9859999 0.38
8.9200001 -11.114 -1.9859999 0.36000001
8.9860001 -11.124 -1.993 0.43000001
9.0270004 -11.139 -1.999 0.30000001
9.0609999 -11.11 -1.999 0.51999998
9.0930004 -11.078 -1.998 0.34
9.1289997 -11.051 -1.998 0.25999999
9.1590004 -11.016 -1.997 0.51999998
9.1960001 -10.99 -1.998 0.33000001
9.1999998 -10.925 -1.9910001 0.28999999
9.1949997 -10.885 -1.985 0.25
7.5079999 -8.8240004 -1.577 0.44999999
9.2349997 -10.794 -1.979 0.28
9.2469997 -10.739 -1.974 0.23999999
7.6199999 -8.7860003 -1.584 0.15000001
7.9349999 -9.0930004 -1.651 0.43000001
7.6009998 -8.6809998 -1.5700001 0.27000001
7.9860001 -9.0640001 -1.653 0.25999999
7.882 -8.8900003 -1.623 0.57999998
7.9819999 -8.9460001 -1.6390001 0.33000001
9.3579998 -10.429 -1.949 0.20999999
8.125 -8.993 -1.659 0.27000001
8.0220003 -8.8219995 -1.6289999 0.33000001
7.947 -8.7110004 -1.609 0.43000001
8.026 -8.743 -1.6210001 0.28
8.0179996 -8.6789999 -1.613 0.36000001
8.0780001 -8.6899996 -1.62 0.41999999
7.9910002 -8.5410004 -1.594 0.23999999
8.1680002 -8.6759996 -1.628 0.33000001
8.2519999 -8.7110004 -1.641 0.38
8.2670002 -8.6999998 -1.641 0.41
8.2709999 -8.6490002 -1.636 0.37
8.3970003 -8.7259998 -1.658 0.37
8.2989998 -8.5699997 -1.63 0.36000001
8.3760004 -8.5950003 -1.641 0.34
8.4219999 -8.5880003 -1.645 0.38
8.342 -8.4790001 -1.625 0.34
6.8210001 -6.8829999 -1.2869999 0.47
6.8169999 -6.836 -1.281 0.20999999
8.4280005 -8.4069996 -1.626 0.36000001
8.5150003 -8.441 -1.6390001 0.38
8.6199999 -8.4919996 -1.656 0.38
8.5609999 -8.3800001 -1.638 0.34
8.434 -8.2299995 -1.608 0.38
8.5959997 -8.335 -1.637 0.44
8.5950003 -8.2819996 -1.631 0.20999999
8.6520004 -8.2849998 -1.638 0.38
8.6719999 -8.2530003 -1.637 0.37
8.6850004 -8.2130003 -1.6339999 0.44
8.4840002 -7.9710002 -1.586 0.20999999
8.7180004 -8.1669998 -1.633 0.44999999
8.7320004 -8.1280003 -1.63 0.41
8.7119999 -8.0579996 -1.62 0.31999999
8.7030001 -8 -1.613 0.33000001
8.809 -8.0459995 -1.63 0.31999999
8.8730001 -8.0539999 -1.638 0.41999999
8.8540001 -8.0109997 -1.632 0.38999999
8.8660002 -7.9710002 -1.6289999 0.31999999
8.8509998 -7.908 -1.6210001 0.36000001
8.9879999 -7.98 -1.6440001 0.34
9.0190001 -7.9569998 -1.645 0.38
8.941 -7.8379998 -1.624 0.44999999
9.073 -7.9039998 -1.646 0.27000001
9.1479998 -7.9439998 -1.659 0.44999999
9.1280003 -7.8759999 -1.65 0.43000001
9.0670004 -7.7740002 -1.632 0.25
9.2779999 -7.9050002 -1.67 0.36000001
9.283 -7.8590002 -1.666 0.41
9.3430004 -7.8590002 -1.673 0.38
9.302 -7.7750001 -1.66 0.34999999
9.3389997 -7.7810001 -1.665 0.31999999
9.3129997 -7.71 -1.655 0.41
9.2650003 -7.6209998 -1.64 0.36000001
9.3240004 -7.6209998 -1.647 0.28999999
9.3470001 -7.5910001 -1.647 0.50999999
9.3859997 -7.5739999 -1.65 0.28
9.4139996 -7.5479999 -1.651 0.41
9.3850002 -7.5 -1.643 0.31
9.4250002 -7.4840002 -1.646 0.46000001
9.4779997 -7.4770002 -1.652 0.28999999
9.4870005 -7.4359999 -1.649 0.44999999
9.5109997 -7.4070001 -1.649 0.41
9.4759998 -7.3319998 -1.638 0.33000001
9.4280005 -7.2709999 -1.627 0.47999999
9.5509996 -7.3179998 -1.646 0.25999999
9.573 -7.2870002 -1.646 0.34999999
9.698 -7.335 -1.665 0.38999999
9.5410004 -7.1690001 -1.631 0.41999999
8.2869997 -6.1810002 -1.386 0.38999999
9.1499996 -6.7839999 -1.5470001 0.23
9.5270004 -7.0419998 -1.617 0.20999999
9.6350002 -7.0749998 -1.6339999 0.57999998
8.71 -6.3509998 -1.454 0.22
9.7819996 -7.0890002 -1.653 0.33000001
9.6610003 -6.9549999 -1.626 0.2
9.7810001 -6.9949999 -1.645 0.57999998
9.5410004 -6.777 -1.595 0.23
9.9200001 -7.0240002 -1.665 0.41999999
9.6990004 -6.8210001 -1.619 0.33000001
9.8319998 -6.869 -1.64 0.44
9.8950005 -6.8670001 -1.648 0.28
9.8649998 -6.8000002 -1.638 0.38999999
9.9169998 -6.79 -1.6440001 0.30000001
9.9200001 -6.7690001 -1.642 0.43000001
9.9689999 -6.757 -1.647 0.31
10.129 -6.8200002 -1.673 0.34
10.096 -6.7509999 -1.663 0.44
10.088 -6.6999998 -1.658 0.31
10.142 -6.6900001 -1.664 0.34999999
10.083 -6.6059999 -1.649 0.44999999
10.009 -6.5349998 -1.6339999 0.34
10.048 -6.5149999 -1.637 0.34
10.112 -6.5110002 -1.645 0.38999999
10.049 -6.4260001 -1.63 0.23
10.159 -6.4520001 -1.646 0.56999999
9.9259996 -6.2589998 -1.6 0.18000001
10.261 -6.427 -1.6569999 0.50999999
10.305 -6.4320002 -1.663 0.28999999
10.283 -6.3730001 -1.656 0.40000001
10.264 -6.3169999 -1.649 0.37
10.342 -6.3200002 -1.659 0.44
10.388 -6.3039999 -1.664 0.36000001
10.31 -6.2119999 -1.647 0.31999999
10.39 -6.2160001 -1.6569999 0.46000001
10.298 -6.1389999 -1.6390001 0.37
10.307 -6.0999999 -1.637 0.38
10.427 -6.1269999 -1.655 0.34
10.264 -5.9879999 -1.623 0.44999999
10.373 -6.0079999 -1.6390001 0.30000001
10.467 -6.0190001 -1.652 0.40000001
10.312 -5.908 -1.623 0.38999999
10.444 -5.9400001 -1.643 0.34
10.567 -5.967 -1.6619999 0.38999999
10.471 -5.869 -1.641 0.37
10.282 -5.7199998 -1.605 0.43000001
10.443 -5.7670002 -1.63 0.31999999
10.558 -5.7880001 -1.647 0.41
10.569 -5.7719998 -1.647 0.44
10.506 -5.6939998 -1.633 0.36000001
10.652 -5.7309999 -1.656 0.36000001
10.58 -5.6490002 -1.64 0.43000001
10.549 -5.5900002 -1.631 0.38999999
10.699 -5.6269999 -1.654 0.34
10.713 -5.5910001 -1.654 0.47999999
10.666 -5.5450001 -1.6440001 0.37
10.804 -5.5739999 -1.665 0.30000001
10.85 -5.5549998 -1.67 0.37
10.818 -5.4949999 -1.661 0.41
10.648 -5.3670001 -1.6289999 0.31
10.718 -5.3600001 -1.638 0.36000001
10.931 -5.4460001 -1.673 0.41999999
10.863 -5.369 -1.659 0.28999999
10.825 -5.3080001 -1.65 0.44
10.826 -5.2659998 -1.647 0.43000001
10.828 -5.2249999 -1.6440001 0.31999999
10.987 -5.2600002 -1.669 0.31
10.946 -5.198 -1.659 0.38999999
10.821 -5.1170001 -1.636 0.30000001
10.978 -5.1500001 -1.66 0.36000001
11.026 -5.1300001 -1.666 0.41999999
10.214 -4.711 -1.526 0.40000001
10.712 -4.901 -1.607 0.25
10.911 -4.9510002 -1.638 0.38
10.921 -4.915 -1.637 0.41
10.981 -4.921 -1.646 0.23
11.095 -4.9310002 -1.663 0.25
11.21 -4.9400001 -1.679 0.44999999
11.195 -4.8909998 -1.674 0.14
10.037 -4.3449998 -1.478 0.55000001
11.238 -4.8260002 -1.676 0.22
11.238 -4.8060002 -1.675 0.49000001
11.282 -4.783 -1.6799999 0.36000001
11.317 -4.756 -1.683 0.43000001
11.332 -4.7199998 -1.683 0.40000001
11.4 -4.7059999 -1.692 0.31
11.407 -4.6680002 -1.691 0.5
11.246 -4.5599999 -1.6619999 0.25999999
11.373 -4.5910001 -1.681 0.38999999
11.343 -4.5370002 -1.674 0.49000001
11.133 -4.4120002 -1.637 0.23999999
11.25 -4.4180002 -1.654 0.41999999
11.4 -4.4359999 -1.676 0.38
11.397 -4.3940001 -1.674 0.31999999
10.75 -4.1040001 -1.5650001 0.34999999
10.899 -4.1409998 -1.589 0.25
11.213 -4.2210002 -1.638 0.40000001
11.193 -4.1739998 -1.633 0.34999999
11.18 -4.1290002 -1.628 0.33000001
11.325 -4.1420002 -1.65 0.43000001
11.208 -4.059 -1.6289999 0.33000001
11.07 -3.9690001 -1.604 0.38999999
11.154 -3.98 -1.617 0.18000001
11.014 -3.891 -1.592 0.54000002
11.06 -3.868 -1.597 0.34
11.111 -3.8469999 -1.604 0.37
11.076 -3.796 -1.596 0.41
11.002 -3.7320001 -1.582 0.27000001
11.229 -3.789 -1.618 0.34
11.166 -3.7290001 -1.6059999 0.36000001
11.13 -3.678 -1.598 0.30000001
11.065 -3.618 -1.586 0.38999999
11.178 -3.6159999 -1.602 0.37
11.04 -3.533 -1.5779999 0.36000001
11.116 -3.5190001 -1.589 0.25999999
11.349 -3.5739999 -1.625 0.49000001
11.136 -3.4679999 -1.589 0.23
11.194 -3.447 -1.597 0.44999999
11.235 -3.421 -1.602 0.23999999
10.148 -3.053 -1.426 0.41
11.349 -3.378 -1.617 0.47999999
11.293 -3.323 -1.6059999 0.30000001
11.471 -3.3559999 -1.633 0.38
9.0620003 -2.615 -1.247 0.2
11.359 -3.2460001 -1.612 0.31999999
11.563 -3.2650001 -1.643 0.33000001
11.546 -3.221 -1.6390001 0.47
11.695 -3.224 -1.661 0.44999999
11.913 -3.244 -1.694 0.31999999
12.048 -3.2609999 -1.715 0.5
12.075 -3.2279999 -1.717 0.34
11.883 -3.1359999 -1.6849999 0.34999999
11.69 -3.0450001 -1.653 0.25999999
12.237 -3.148 -1.738 0.36000001
11.539 -2.928 -1.626 0.28999999
11.267 -2.8399999 -1.5829999 0.19
11.562 -2.8759999 -1.628 0.38999999
11.529 -2.829 -1.6210001 0.36000001
11.597 -2.8069999 -1.63 0.38
11.442 -2.7320001 -1.605 0.27000001
11.441 -2.6930001 -1.603 0.47
11.581 -2.688 -1.624 0.28999999
11.698 -2.6960001 -1.642 0.38999999
11.663 -2.6489999 -1.635 0.44
11.796 -2.641 -1.654 0.31
11.895 -2.6240001 -1.669 0.38
11.882 -2.582 -1.665 0.41
11.842 -2.5339999 -1.658 0.31999999
11.857 -2.4990001 -1.659 0.38
11.944 -2.4979999 -1.6720001 0.40000001
11.991 -2.4679999 -1.678 0.34
12.003 -2.431 -1.679 0.43000001
12.256 -2.4430001 -1.717 0.38
12.227 -2.398 -1.711 0.36000001
12.116 -2.336 -1.693 0.41999999
12.337 -2.359 -1.727 0.33000001
12.203 -2.293 -1.705 0.31
12.19 -2.2509999 -1.702 0.44
12.164 -2.207 -1.696 0.37
12.08 -2.152 -1.682 0.36000001
12.067 -2.1110001 -1.679 0.30000001
12.05 -2.069 -1.676 0.31999999
12.104 -2.059 -1.683 0.44
12.066 -2.013 -1.676 0.37
12.146 -1.987 -1.688 0.38
12.24 -1.9630001 -1.702 0.36000001
12.291 -1.932 -1.709 0.47999999
12.401 -1.91 -1.725 0.23999999
12.315 -1.857 -1.71 0.5
12.243 -1.826 -1.699 0.34999999
12.188 -1.779 -1.6900001 0.38
12.047 -1.719 -1.6670001 0.41999999
11.99 -1.6720001 -1.6569999 0.31999999
11.954 -1.6289999 -1.651 0.40000001
12.084 -1.608 -1.67 0.31
12.218 -1.607 -1.6900001 0.43000001
12.151 -1.559 -1.679 0.36000001
12.116 -1.516 -1.673 0.41
12.043 -1.4680001 -1.661 0.36000001
12.055 -1.431 -1.6619999 0.41999999
12.11 -1.399 -1.67 0.25
12.223 -1.374 -1.687 0.46000001
12.457 -1.381 -1.723 0.34999999
12.563 -1.353 -1.738 0.37
12.601 -1.317 -1.743 0.28
12.613 -1.278 -1.745 0.41999999
12.634 -1.24 -1.747 0.63999999
12.666 -1.2029999 -1.752 0.70999998
12.607 -1.1569999 -1.742 0.31999999
12.606 -1.137 -1.742 0.30000001
12.62 -1.099 -1.743 0.36000001
12.623 -1.059 -1.743 0.31999999
12.626 -1.0190001 -1.743 0.33000001
12.624 -0.97899997 -1.742 0.34
12.631 -0.94 -1.743 0.33000001
12.628 -0.89999998 -1.742 0.34
12.635 -0.88 -1.743 0.33000001
12.638 -0.84100002 -1.743 0.37
12.642 -0.801 -1.743 0.30000001
12.662 -0.76300001 -1.7460001 0.34999999
12.645 -0.722 -1.743 0.31
12.655 -0.68199998 -1.744 0.31
12.66 -0.66299999 -1.745 0.31999999
12.654 -0.62199998 -1.743 0.31999999
12.658 -0.583 -1.744 0.27000001
12.654 -0.54299998 -1.743 0.28
12.636 -0.50199997 -1.74 0
12.639 -0.463 -1.74 0.12
12.668 -0.42399999 -1.744 0.23
12.651 -0.403 -1.742 0.2
12.664 -0.36399999 -1.743 0.47999999
12.646 -0.324 -1.74 0.22
12.67 -0.28400001 -1.744 0.27000001
12.657 -0.244 -1.742 0.30000001
12.666 -0.205 -1.743 0.28
12.67 -0.16500001 -1.744 0.27000001
12.678 -0.145 -1.745 0.27000001
12.665 -0.105 -1.743 0.27000001
12.667 -0.064999998 -1.743 0.28
12.665 -0.026000001 -1.743 0.27000001
11.615 0.0070000002 -1.719 0.23999999
11.615 0.044 -1.719 0.19
11.615 0.079999998 -1.719 0.25
11.609 0.097999997 -1.7180001 0.19
11.626 0.13500001 -1.721 0.23999999
11.616 0.171 -1.72 0.19
11.614 0.208 -1.719 0.23999999
11.611 0.244 -1.719 0.19
11.606 0.28099999 -1.7180001 0.23999999
11.607 0.317 -1.719 0.18000001
11.609 0.336 -1.719 0.23
11.598 0.37200001 -1.717 0.18000001
11.598 0.40799999 -1.7180001 0.25
11.591 0.44400001 -1.717 0.19
11.603 0.48100001 -1.719 0.25
11.588 0.51700002 -1.717 0.23
11.582 0.55299997 -1.716 0.18000001
11.593 0.57200003 -1.7180001 0.25999999
11.58 0.60799998 -1.716 0.23
11.578 0.64399999 -1.716 0.18000001
11.58 0.68099999 -1.717 0.27000001
11.57 0.71700001 -1.716 0.23999999
11.573 0.75400001 -1.716 0.19
11.581 0.79100001 -1.7180001 0.25999999
11.562 0.80800003 -1.715 0.22
11.557 0.84399998 -1.715 0.18000001
11.572 0.88099998 -1.7180001 0.25999999
11.555 0.917 -1.716 0.23
11.558 0.95300001 -1.716 0.18000001
11.553 0.99000001 -1.716 0.25999999
11.556 1.008 -1.717 0.22
11.545 1.044 -1.716 0.2
11.553 1.081 -1.717 0.25
11.534 1.1160001 -1.715 0.2
11.544 1.153 -1.717 0.25
11.538 1.189 -1.717 0.18000001
11.546 1.227 -1.719 0.23
11.556 1.2460001 -1.721 0.19
11.537 1.281 -1.7180001 0.12
11.534 1.317 -1.7180001 0.2
11.536 1.354 -1.719 0.11
11.534 1.391 -1.72 0.18000001
11.524 1.426 -1.719 0.12
11.529 1.464 -1.72 0.18000001
11.528 1.482 -1.721 0.22
11.516 1.517 -1.719 0.17
11.525 1.5549999 -1.721 0.23
11.512 1.59 -1.72 0.19
11.517 1.628 -1.722 0.23
11.504 1.663 -1.721 0.20999999
11.498 1.699 -1.721 0.12
11.478 1.715 -1.7180001 0.20999999
11.471 1.75 -1.717 0.18000001
11.477 1.788 -1.719 0.25999999
11.463 1.823 -1.7180001 0.18000001
11.46 1.859 -1.7180001 0.25
11.446 1.8940001 -1.717 0.19
11.44 1.9299999 -1.717 0.23999999
11.423 1.9450001 -1.715 0.22
11.409 1.98 -1.714 0.17
11.413 2.0179999 -1.715 0.25999999
11.401 2.052 -1.714 0.25
11.398 2.089 -1.715 0.25999999
11.395 2.125 -1.716 0.25999999
11.394 2.1440001 -1.716 0.27000001
11.383 2.1789999 -1.715 0.27000001
11.392 2.2179999 -1.7180001 0.27000001
11.377 2.2520001 -1.716 0.28
11.356 2.2850001 -1.714 0.27000001
11.353 2.3210001 -1.715 0.27000001
11.346 2.3570001 -1.715 0.25999999
11.342 2.375 -1.715 0.22
11.354 2.414 -1.7180001 0.13
11.331 2.447 -1.716 0.19
11.323 2.4820001 -1.716 0.050000001
11.305 2.516 -1.714 0.16
11.288 2.549 -1.712 0.11
11.276 2.5840001 -1.712 0.20999999
11.276 2.602 -1.712 0.27000001
11.273 2.6389999 -1.7130001 0.23
11.274 2.677 -1.715 0.2
11.272 2.7130001 -1.716 0.18000001
11.209 2.7360001 -1.707 0.57999998
11.068 2.7379999 -1.6849999 0.18000001
11.198 2.789 -1.707 0
11.233 2.835 -1.715 0
11.217 2.869 -1.7130001 0.050000001
11.25 2.915 -1.72 0
11.202 2.9400001 -1.714 0
11.212 2.98 -1.717 0.039999999
11.22 3.02 -1.72 0.11
11.206 3.0350001 -1.7180001 0.27000001
11.183 3.0669999 -1.716 0.25
11.16 3.098 -1.714 0.18000001
11.154 3.1340001 -1.715 0.27000001
11.127 3.164 -1.712 0.25
11.119 3.2 -1.712 0.18000001
11.114 3.2360001 -1.7130001 0.25999999
11.088 3.2479999 -1.71 0.19
11.082 3.2839999 -1.71 0.25
11.068 3.3169999 -1.71 0.19
11.063 3.3540001 -1.71 0.25
11.045 3.3859999 -1.709 0.19
11.03 3.4200001 -1.709 0.25
11.01 3.451 -1.707 0.19
11.005 3.4690001 -1.707 0.23
10.982 3.5 -1.705 0.18000001
10.979 3.5369999 -1.706 0.25
10.964 3.5699999 -1.706 0.2
10.953 3.6040001 -1.706 0.23
10.936 3.6370001 -1.705 0.19
10.932 3.654 -1.705 0.12
10.905 3.684 -1.7029999 0.20999999
10.881 3.7130001 -1.7 0.17
10.891 3.7550001 -1.704 0.25999999
10.87 3.786 -1.7029999 0.22
10.854 3.819 -1.702 0.18000001
10.846 3.855 -1.7029999 0.25999999
10.84 3.872 -1.7029999 0.2
10.82 3.9030001 -1.701 0
8.2539997 3.03 -1.271 0.050000001
8.191 3.0350001 -1.262 0
7.8990002 2.954 -1.214 0
7.823 2.954 -1.202 0
7.756 2.9419999 -1.192 0
7.6999998 2.9489999 -1.184 0
7.6760001 2.967 -1.181 0.059999999
7.6360002 2.9790001 -1.176 0
7.5910001 2.9890001 -1.17 0
7.5229998 2.9890001 -1.16 0
7.474 2.997 -1.153 0
7.4050002 2.9820001 -1.142 0
7.3369999 2.9820001 -1.132 0
7.2859998 2.987 -1.125 0
7.2160001 2.9849999 -1.115 0
7.165 2.99 -1.107 0
7.1040001 2.9909999 -1.099 0
7.0419998 2.977 -1.089 0
6.9829998 2.9779999 -1.08 0
6.947 2.9879999 -1.075 0
6.8670001 2.9790001 -1.063 0
6.8140001 2.9820001 -1.056 0
6.7519999 2.98 -1.0470001 0
6.6890001 2.977 -1.0369999 0
6.6409998 2.9679999 -1.03 0
6.592 2.971 -1.023 0
6.5560002 2.9790001 -1.018 0
6.5159998 2.9849999 -1.013 0.079999998
6.5029998 3.0039999 -1.012 0.11
6.711 3.1270001 -1.05 0.31999999
6.7259998 3.1470001 -1.054 0.36000001
6.7290001 3.174 -1.056 0.28999999
6.7280002 3.1989999 -1.058 0.40000001
6.7249999 3.224 -1.059 0.30000001
6.7389998 3.257 -1.063 0.43000001
6.6329999 3.2309999 -1.046 0
6.0339999 2.96 -0.94199997 0
5.96 2.9349999 -0.93000001 0
5.8709998 2.914 -0.91500002 0
5.8379998 2.9200001 -0.91100001 0
5.7969999 2.9219999 -0.90499997 0
5.7490001 2.921 -0.898 0
5.71 2.9230001 -0.89300001 0
5.6599998 2.9200001 -0.88599998 0
5.6290002 2.915 -0.88099998 0
5.5960002 2.9200001 -0.87699997 0
5.553 2.9200001 -0.87099999 0
5.5339999 2.9319999 -0.86900002 0.1
5.5159998 2.9449999 -0.86699998 0.18000001
5.487 2.9519999 -0.86400002 0
5.447 2.9519999 -0.85799998 0
5.4180002 2.947 -0.85399997 0
5.3860002 2.9519999 -0.85000002 0
5.348 2.9519999 -0.84399998 0
5.316 2.9560001 -0.83999997 0
5.277 2.9560001 -0.83499998 0
5.2410002 2.957 -0.82999998 0
5.2059999 2.9590001 -0.82499999 0
5.1750002 2.9519999 -0.82099998 0
5.1339998 2.95 -0.815 0
5.0949998 2.9489999 -0.80900002 0
5.0710001 2.9560001 -0.80699998 0
5.027 2.9519999 -0.80000001 0
4.993 2.9519999 -0.796 0
4.954 2.9400001 -0.78899997 0
4.9419999 2.9530001 -0.78899997 0
4.895 2.9460001 -0.78200001 0
4.869 2.951 -0.77899998 0
4.8309999 2.9489999 -0.773 0
4.803 2.9530001 -0.76999998 0
4.7589998 2.9460001 -0.76300001 0
4.7290001 2.938 -0.759 0
4.7030001 2.9419999 -0.755 0
4.671 2.9419999 -0.75099999 0
4.6430001 2.9449999 -0.74800003 0
4.6139998 2.9460001 -0.74400002 0
4.5700002 2.938 -0.73699999 0
4.5500002 2.9360001 -0.73400003 0
4.5180001 2.9349999 -0.73000002 0
4.4970002 2.941 -0.72799999 0
4.4530001 2.9319999 -0.72100002 0
4.434 2.9400001 -0.71899998 0
4.3969998 2.9349999 -0.71399999 0
4.3779998 2.9419999 -0.71200001 0
4.3509998 2.9330001 -0.708 0
4.3140001 2.928 -0.70200002 0
4.2979999 2.937 -0.70099998 0
4.2610002 2.931 -0.69599998 0
4.237 2.9349999 -0.69300002 0
4.2069998 2.9330001 -0.68900001 0
4.1799998 2.934 -0.685 0
4.1630001 2.931 -0.68300003 0
4.1329999 2.9289999 -0.67900002 0
4.1030002 2.927 -0.67500001 0
4.0739999 2.9260001 -0.671 0
4.052 2.9300001 -0.66799998 0
4.0300002 2.9330001 -0.66600001 0
4.0040002 2.9330001 -0.66299999 0
3.9749999 2.921 -0.65799999 0
3.9519999 2.9230001 -0.65499997 0
3.928 2.925 -0.65200001 0
3.9000001 2.9230001 -0.648 0
3.872 2.921 -0.64499998 0
3.8629999 2.9330001 -0.64499998 0
3.835 2.931 -0.64099997 0
3.812 2.9219999 -0.63700002 0
3.7839999 2.9189999 -0.63300002 0
3.7679999 2.9260001 -0.63200003 0
3.7449999 2.927 -0.62900001 0
3.724 2.9289999 -0.62699997 0
3.6930001 2.924 -0.62199998 0
3.681 2.9230001 -0.62099999 0
3.6559999 2.9219999 -0.61799997 0
3.638 2.9260001 -0.616 0
3.6129999 2.925 -0.61299998 0
3.595 2.9289999 -0.611 0
3.576 2.9330001 -0.60900003 0
3.563 2.9400001 -0.60799998 0
3.5350001 2.927 -0.60299999 0
3.517 2.9300001 -0.60100001 0
3.4879999 2.925 -0.597 0
3.471 2.9289999 -0.59600002 0
3.4489999 2.928 -0.59299999 0
3.434 2.934 -0.59200001 0
3.3959999 2.9200001 -0.58600003 0
3.365 2.902 -0.57999998 0
3.3469999 2.905 -0.57800001 0
3.342 2.9189999 -0.579 0
3.3429999 2.9389999 -0.58099997 0
3.346 2.96 -0.58399999 0.1
3.388 3.017 -0.59500003 0.050000001
3.358 3.0090001 -0.58999997 0
3.3469999 3.0090001 -0.58899999 0
3.335 3.017 -0.588 0
3.3110001 3.0139999 -0.58499998 0
3.2969999 3.02 -0.58399999 0
3.2820001 3.0250001 -0.583 0
3.253 3.0179999 -0.579 0
3.2349999 3.02 -0.57700002 0
3.2219999 3.017 -0.57499999 0
3.1989999 3.0150001 -0.57200003 0
3.177 3.0120001 -0.56999999 0
3.171 3.0250001 -0.56999999 0
3.1429999 3.017 -0.56599998 0
3.1159999 3.01 -0.56199998 0
3.1140001 3.0179999 -0.56300002 0
3.098 3.0209999 -0.56099999 0
3.0840001 3.026 -0.56099999 0
3.0510001 3.0120001 -0.55500001 0
3.03 3.0109999 -0.55299997 0
3.016 3.016 -0.55199999 0
3.0009999 3.02 -0.55000001 0
2.9820001 3.0090001 -0.54699999 0
2.9619999 3.0079999 -0.54500002 0
2.9449999 3.0090001 -0.54299998 0
2.928 3.0109999 -0.54100001 0
2.9089999 3.01 -0.53899997 0
2.8959999 3.0150001 -0.53799999 0
2.8740001 3.0109999 -0.53500003 0
2.859 3.0039999 -0.53299999 0
2.8440001 3.0079999 -0.53200001 0
2.825 3.006 -0.52899998 0
2.8069999 3.007 -0.528 0
2.7950001 3.0120001 -0.52700001 0
2.7709999 3.0050001 -0.52399999 0
2.7679999 3.0109999 -0.52399999 0
2.7479999 3.0079999 -0.52100003 0
2.7260001 3.003 -0.51800001 0
2.7179999 3.013 -0.51899999 0
2.6930001 3.0039999 -0.51499999 0
2.678 3.007 -0.514 0
2.6659999 3.0120001 -0.51300001 0
2.6589999 3.013 -0.51300001 0
2.6329999 3.0020001 -0.50800002 0
2.618 3.0039999 -0.50700003 0
2.6099999 3.0139999 -0.50800002 0
2.586 3.006 -0.50400001 0
2.563 2.997 -0.50099999 0
2.5569999 3.01 -0.50199997 0
2.54 2.9990001 -0.498 0
2.527 3.0020001 -0.49700001 0
2.516 3.0079999 -0.49700001 0
2.49 2.9960001 -0.493 0
2.4820001 3.006 -0.493 0
2.474 3.0150001 -0.49399999 0
2.4519999 3.0079999 -0.491 0
2.434 2.994 -0.48699999 0
2.421 2.997 -0.486 0
2.4059999 2.9990001 -0.48500001 0
2.398 3.0079999 -0.48500001 0
2.3759999 3 -0.48199999 0
2.3629999 3.003 -0.48100001 0
2.348 3.0020001 -0.47999999 0
2.335 2.9949999 -0.477 0
2.3199999 2.9960001 -0.47600001 0
2.309 3 -0.47499999 0
2.2909999 2.9960001 -0.47299999 0
2.2809999 3.003 -0.47299999 0
2.2539999 2.987 -0.46900001 0
2.24 2.9879999 -0.46700001 0
2.2249999 2.977 -0.465 0
2.2130001 2.9809999 -0.46399999 0
2.198 2.9790001 -0.46200001 0
2.1760001 2.9690001 -0.45899999 0
2.1630001 2.971 -0.458 0
2.1600001 2.9860001 -0.45899999 0
2.142 2.971 -0.456 0
2.119 2.9590001 -0.45199999 0
2.109 2.964 -0.45199999 0
2.1099999 2.9849999 -0.45500001 0
2.0910001 2.9779999 -0.45199999 0
2.0710001 2.9690001 -0.449 0
2.063 2.977 -0.449 0
2.0580001 2.98 -0.449 0
2.0450001 2.9820001 -0.449 0
2.0309999 2.9809999 -0.447 0
2.0109999 2.971 -0.44400001 0
2.0020001 2.9779999 -0.44400001 0
1.975 2.9579999 -0.43900001 0
1.983 2.99 -0.44400001 0
1.964 2.9719999 -0.44 0
1.956 2.98 -0.44 0
1.939 2.974 -0.43799999 0
1.924 2.97 -0.43599999 0
1.9170001 2.9809999 -0.43700001 0
1.905 2.9820001 -0.43599999 0
1.89 2.98 -0.435 0
1.8789999 2.973 -0.433 0
1.868 2.9749999 -0.43200001 0
1.858 2.9809999 -0.43200001 0
1.844 2.9790001 -0.43099999 0
1.834 2.983 -0.43000001 0
1.813 2.97 -0.42699999 0
1.808 2.9820001 -0.428 0
1.799 2.9779999 -0.42699999 0
1.7920001 2.987 -0.42699999 0
1.773 2.9779999 -0.42500001 0
1.758 2.973 -0.42300001 0
1.755 2.9890001 -0.42500001 0
1.7460001 2.9960001 -0.42500001 0
1.723 2.977 -0.421 0
1.72 2.983 -0.421 0
1.712 2.9909999 -0.42199999 0
1.7 2.9909999 -0.421 0
1.682 2.98 -0.41800001 0
1.674 2.9890001 -0.41800001 0
1.6670001 2.9979999 -0.419 0
1.6569999 2.9920001 -0.417 0
1.645 2.9920001 -0.417 0
1.635 2.9949999 -0.41600001 0
1.625 3 -0.41600001 0
1.613 3 -0.41499999 0
1.604 3.007 -0.41600001 0
1.596 3.0139999 -0.41600001 0
1.59 3.0150001 -0.41600001 0
1.584 3.0250001 -0.417 0
1.572 3.026 -0.41600001 0
1.559 3.0239999 -0.41499999 0
1.553 3.036 -0.41600001 0
1.552 3.0569999 -0.419 0
1.541 3.0599999 -0.41800001 0
1.546 3.082 -0.42199999 0
1.535 3.085 -0.42199999 0
1.5369999 3.1129999 -0.426 0
1.53 3.125 -0.42699999 0
1.522 3.1329999 -0.42699999 0
1.518 3.1489999 -0.42899999 0
1.521 3.1819999 -0.43399999 0
1.516 3.184 -0.43399999 0
1.5190001 3.2179999 -0.43900001 0
1.511 3.2260001 -0.44 0
1.5089999 3.2490001 -0.44299999 0
1.501 3.2590001 -0.44400001 0
1.495 3.273 -0.44600001 0
1.497 3.3039999 -0.44999999 0
1.498 3.3210001 -0.45300001 0
1.4910001 3.335 -0.454 0
1.489 3.358 -0.458 0
1.488 3.3840001 -0.461 0
1.475 3.385 -0.461 0
1.474 3.4119999 -0.465 0
1.472 3.438 -0.46799999 0
1.472 3.451 -0.47 0
1.472 3.483 -0.47499999 0
1.47 3.51 -0.479 0
1.47 3.5420001 -0.48300001 0
1.47 3.5739999 -0.48800001 0
1.461 3.582 -0.48899999 0
1.472 3.6270001 -0.49599999 0
1.465 3.642 -0.498 0
1.4680001 3.684 -0.50400001 0
1.472 3.7290001 -0.51099998 0
1.455 3.721 -0.509 0
1.4630001 3.777 -0.51800001 0
1.461 3.8069999 -0.52200001 0
1.462 3.8299999 -0.52499998 0
1.4680001 3.8829999 -0.53399998 0
1.452 3.8759999 -0.53200001 0.059999999
1.446 3.937 -0.54000002 0.31
1.443 3.9679999 -0.54500002 0.36000001
1.447 4.0170002 -0.55199999 0.51999998
1.403 3.9130001 -0.53399998 0
1.439 4.0549998 -0.55800003 0
1.454 4.1420002 -0.57200003 0
1.456 4.1900001 -0.579 0
1.4579999 4.2389998 -0.58600003 0
1.4630001 4.3000002 -0.59600002 0
1.464 4.348 -0.60299999 0
1.476 4.408 -0.61299998 0
1.479 4.4629998 -0.62099999 0
1.4809999 4.5190001 -0.63 0
1.478 4.559 -0.63599998 0
1.9809999 6.2729998 -0.91900003 0.27000001
1.964 6.2909999 -0.921 0.38999999
1.9529999 6.29 -0.92000002 0.28999999
1.927 6.2740002 -0.917 0.31999999
1.905 6.2719998 -0.91500002 0.33000001
1.8890001 6.2909999 -0.91799998 0.38
1.864 6.2779999 -0.91399997 0.31999999
1.8430001 6.2820001 -0.91399997 0.37
1.825 6.2919998 -0.91500002 0.30000001
1.808 6.2719998 -0.91100001 0.31
1.79 6.2810001 -0.912 0.38999999
1.772 6.2919998 -0.91299999 0.31
1.744 6.2690001 -0.90799999 0.36000001
1.726 6.2810001 -0.90899998 0.30000001
1.7079999 6.2919998 -0.91000003 0.34999999
1.684 6.2820001 -0.90700001 0.34
1.671 6.2750001 -0.90600002 0.28999999
1.654 6.29 -0.90700001 0.31999999
1.63 6.2779999 -0.90399998 0.28999999
1.6109999 6.2859998 -0.90499997 0.37
1.5880001 6.2779999 -0.903 0.41
1.561 6.2519999 -0.898 0.27000001
1.54 6.2529998 -0.89700001 0.30000001
1.535 6.2729998 -0.89999998 0.28999999
1.512 6.2659998 -0.898 0.43000001
1.494 6.2789998 -0.89899999 0.31999999
1.475 6.2870002 -0.89999998 0.34999999
1.452 6.2750001 -0.89700001 0.28999999
1.431 6.2750001 -0.89700001 0.36000001
1.411 6.2800002 -0.89700001 0.30000001
1.399 6.2719998 -0.89499998 0.31999999
1.3789999 6.2729998 -0.89399999 0.25999999
1.358 6.2709999 -0.89300001 0.46000001
1.339 6.2789998 -0.89399999 0.34999999
1.318 6.276 -0.89300001 0.31999999
1.3 6.2909999 -0.89499998 0.33000001
1.278 6.2820001 -0.89200002 0.31999999
1.266 6.2719998 -0.89099997 0.28999999
1.2460001 6.2779999 -0.89099997 0.31999999
1.226 6.276 -0.88999999 0.27000001
1.204 6.27 -0.88800001 0.44
1.183 6.2639999 -0.88700002 0.34
1.164 6.2719998 -0.88700002 0.31999999
1.146 6.289 -0.88999999 0.38
1.1339999 6.2789998 -0.88800001 0.30000001
1.114 6.2810001 -0.88700002 0.31999999
1.0930001 6.2750001 -0.88599998 0.30000001
1.073 6.2800002 -0.88599998 0.40000001
1.054 6.283 -0.88599998 0.28
1.031 6.2709999 -0.884 0.38999999
1.022 6.277 -0.884 0.31999999
1.003 6.2800002 -0.884 0.33000001
0.98199999 6.2789998 -0.884 0.31999999
0.96100003 6.2719998 -0.88200003 0.31999999
0.94199997 6.277 -0.88200003 0.31999999
0.92199999 6.2839999 -0.88300002 0.38
0.90100002 6.2750001 -0.88099998 0.30000001
0.889 6.2610002 -0.87900001 0.36000001
0.86699998 6.2459998 -0.87599999 0.25
0.84899998 6.2610002 -0.87800002 0.22
0.829 6.2649999 -0.87800002 0.52999997
0.81099999 6.277 -0.88 0.33000001
0.79100001 6.2779999 -0.87900001 0.36000001
0.77100003 6.2810001 -0.87900001 0.31
0.76099998 6.276 -0.87800002 0.36000001
0.74199998 6.2839999 -0.87900001 0.34
0.72100002 6.2800002 -0.87800002 0.28999999
0.704 6.3080001 -0.88200003 0.18000001
0.68000001 6.2649999 -0.875 0.51999998
0.66100001 6.2729998 -0.87599999 0.41
0.64200002 6.2810001 -0.87699997 0.30000001
0.63099998 6.2719998 -0.87599999 0.34999999
0.611 6.2779999 -0.87599999 0.31
0.59200001 6.2880001 -0.87699997 0.37
0.57099998 6.2740002 -0.875 0.30000001
0.55199999 6.276 -0.875 0.28999999
0.53399998 6.309 -0.88 0.17
0.51099998 6.263 -0.87199998 0.56999999
0.50199997 6.2800002 -0.875 0.36000001
0.48100001 6.2659998 -0.87199998 0.36000001
0.46200001 6.2670002 -0.87199998 0.33000001
0.44299999 6.2789998 -0.87400001 0.33000001
0.42300001 6.276 -0.87300003 0.33000001
0.403 6.2810001 -0.87400001 0.34
0.38299999 6.2670002 -0.87099999 0.28
0.373 6.2649999 -0.87099999 0.38
0.35299999 6.2620001 -0.87099999 0.44999999
0.33399999 6.2810001 -0.87300003 0.33000001
0.31400001 6.2719998 -0.87199998 0.36000001
0.294 6.2729998 -0.87199998 0.34
0.27399999 6.2719998 -0.87099999 0.36000001
0.255 6.277 -0.87199998 0.36000001
0.245 6.2810001 -0.87300003 0.30000001
0.226 6.302 -0.87599999 0.16
0.205 6.2529998 -0.86799997 0.58999997
0.185 6.256 -0.86799997 0.31999999
0.16500001 6.2579999 -0.86900002 0.30000001
0.146 6.2729998 -0.87099999 0.38999999
0.126 6.2750001 -0.87099999 0.38
0.117 6.2789998 -0.87199998 0.34999999
0.097000003 6.276 -0.87099999 0.34999999
0.077 6.2779999 -0.87099999 0.31999999
0.057 6.27 -0.87 0.33000001
0.037999999 6.2680001 -0.87 0.33000001
0.017999999 6.2800002 -0.87199998 0.34999999
-0.0020000001 6.2550001 -0.86799997 0.36000001
-0.012 6.2740002 -0.87099999 0.31999999
-0.030999999 6.276 -0.87099999 0.34
-0.050999999 6.27 -0.87 0.33000001
-0.071000002 6.2719998 -0.87099999 0.34
-0.090000004 6.2719998 -0.87099999 0.34
-0.11 6.2670002 -0.87 0.34
-0.12 6.2789998 -0.87199998 0.38
-0.14 6.2729998 -0.87099999 0.31
-0.15899999 6.2589998 -0.86900002 0.36000001
-0.17900001 6.276 -0.87099999 0.36000001
