# .PCD v0.7 - Point Cloud Data file format
VERSION 0.7
FIELDS x y z intensity
SIZE 4 4 4 4
TYPE F F F F
COUNT 1 1 1 1
WIDTH 1552
HEIGHT 1
VIEWPOINT 0 0 0 1 0 0 0
POINTS 1552
DATA ascii
33.632999 6.302 -1.515 0
33.075001 6.3039999 -1.487 0
32.647999 6.276 -1.466 0
32.234001 6.3010001 -1.446 0
31.868999 6.3330002 -1.428 0
31.326 6.3270001 -1.401 0
35.014999 7.1900001 -1.591 0
34.879002 7.276 -1.585 0
34.817001 7.3200002 -1.5829999 0
34.765999 7.4239998 -1.581 0
34.730999 7.5310001 -1.581 0
34.702 7.638 -1.581 0
34.598999 7.73 -1.576 0
34.213001 7.756 -1.558 0
33.987999 7.8169999 -1.548 0
33.544998 7.7709999 -1.525 0
33.330002 7.8309999 -1.516 0
32.933998 7.8470001 -1.4960001 0
32.525002 7.8569999 -1.477 0
32.044998 7.848 -1.4529999 0
31.599001 7.8429999 -1.431 0
33.556 8.4989996 -1.534 0
33.138 8.5039997 -1.5140001 0
32.742001 8.5109997 -1.495 0
32.313999 8.5080004 -1.474 0
31.936001 8.5159998 -1.456 0
31.544001 8.5170002 -1.437 0
31.209 8.5319996 -1.421 0
31.098 8.5539999 -1.416 0
31.094 8.658 -1.4170001 0
33.306 9.3879995 -1.534 0
32.984001 9.4099998 -1.5190001 0
32.597 9.4099998 -1.5 0
32.178001 9.3979998 -1.48 0
31.802 9.3970003 -1.461 0
35.618 10.588 -1.6619999 0
35.429001 10.653 -1.654 0
35.264 10.724 -1.647 0
35.216999 10.831 -1.646 0
34.682999 10.786 -1.62 0
34.530998 10.857 -1.614 0
34.205002 10.873 -1.599 0
33.890999 10.89 -1.584 0
33.710999 10.891 -1.575 0
33.337002 10.885 -1.557 0
33.057999 10.909 -1.544 0
32.688 10.901 -1.527 0
32.335999 10.896 -1.51 0
32.009998 10.898 -1.494 0
33.882 11.715 -1.596 0
33.830002 11.817 -1.596 0
33.710999 11.894 -1.591 0
36.900002 13.152 -1.763 0
36.909 13.286 -1.766 0
36.876999 13.406 -1.767 0
36.902 13.481 -1.7690001 0
36.932999 13.624 -1.773 0
36.917999 13.75 -1.774 0
36.914001 13.881 -1.777 0
36.976002 14.037 -1.7819999 0
36.973 14.169 -1.784 0
36.969002 14.301 -1.7869999 0
36.990002 14.376 -1.789 0
37.009998 14.517 -1.7920001 0
37.047001 14.667 -1.7970001 0
37.068001 14.81 -1.801 0
37.066002 14.944 -1.803 0
37.167999 15.122 -1.811 0
37.363998 15.339 -1.824 0
37.396 15.42 -1.827 0
37.307999 15.521 -1.825 0
37.436001 15.713 -1.835 0
37.716 15.97 -1.853 0
37.798 16.145 -1.86 0
37.868 16.316 -1.867 0
37.972 16.503 -1.875 0
38.042 16.676001 -1.882 0
38.134998 16.788 -1.888 0
38.186001 16.954 -1.8940001 0
35.651001 16.094999 -1.76 0
35.405998 16.118 -1.75 0
35.386002 16.243999 -1.751 0
38.111 17.642 -1.905 0
38.514 17.903 -1.929 0
38.592999 18.087 -1.936 0
38.616001 18.246 -1.941 0
38.612 18.393 -1.944 0
38.467999 18.473 -1.939 0
38.521 18.646999 -1.9450001 0
38.591999 18.757 -1.951 0
35.473 17.514999 -1.783 0
35.368 17.601 -1.78 0
37.988998 19.056999 -1.9299999 0
37.740002 19.080999 -1.92 0
37.472 19.093 -1.908 0
37.319 19.089001 -1.901 0
37.182999 19.167 -1.897 0
37.082001 19.261999 -1.8940001 0
36.972 19.353001 -1.892 0
36.874001 19.448999 -1.89 0
36.792999 19.555 -1.888 0
36.763 19.687 -1.89 0
36.757999 19.759001 -1.892 0
36.683998 19.868 -1.891 0
36.632999 19.99 -1.892 0
36.569 20.104 -1.892 0
36.529999 20.232 -1.893 0.14
35.855999 20.006001 -1.858 0
36.393002 20.455999 -1.893 0
36.379002 20.523001 -1.8940001 0
36.323002 20.642 -1.8940001 0
36.265999 20.761 -1.895 0
34.549 19.921 -1.799 0
34.502998 20.040001 -1.8 0
36.091 21.115 -1.896 0
36.022999 21.228001 -1.896 0
35.963001 21.344999 -1.896 0
35.946999 21.412001 -1.897 0.13
33.227001 19.931 -1.742 0
35.786999 21.622999 -1.896 0
35.662998 21.701 -1.892 0
35.584999 21.806 -1.892 0
35.594002 21.966 -1.896 0
35.551998 22.094999 -1.898 0.059999999
31.934 19.913 -1.686 0
35.469002 22.275999 -1.899 0
35.414001 22.396999 -1.9 0
35.344002 22.507999 -1.9 0
35.276001 22.621 -1.9 0
35.205002 22.732 -1.9 0
35.129002 22.761 -1.898 0.050000001
30.525999 19.910999 -1.626 0
29.794001 19.566 -1.586 0.1
29.604 19.575001 -1.5779999 0.20999999
29.406 19.577 -1.5700001 0.18000001
29.202 19.573 -1.562 0.18000001
29.033001 19.591999 -1.5549999 0.22
28.868999 19.548 -1.5470001 0.18000001
28.677999 19.549999 -1.539 0.31999999
28.490999 19.554001 -1.531 0.16
28.305 19.556999 -1.524 0.36000001
28.117001 19.558001 -1.516 0.19
27.944 19.568001 -1.5089999 0.23999999
27.761999 19.57 -1.502 0.19
27.627001 19.540001 -1.495 0.31
27.459 19.551001 -1.489 0.27000001
27.313 19.577 -1.484 0.11
27.156 19.594 -1.478 0.15000001
27.011999 19.618999 -1.473 0.28
26.844 19.625999 -1.466 0.2
26.681 19.635 -1.46 0.18000001
26.538 19.594 -1.4529999 0.22
26.379999 19.606001 -1.447 0.19
26.211 19.608 -1.4400001 0.20999999
26.034 19.604 -1.433 0.18000001
25.857 19.598 -1.425 0.28
25.671 19.584 -1.418 0.27000001
25.472 19.559 -1.409 0.19
25.302999 19.555 -1.402 0.14
25.169001 19.516001 -1.396 0.34999999
24.999001 19.51 -1.3890001 0.18000001
24.844 19.514 -1.383 0.37
24.698 19.525 -1.377 0.19
24.538 19.524 -1.3710001 0.38
24.389 19.531 -1.365 0.23
24.231001 19.530001 -1.359 0.18000001
24.115 19.499001 -1.354 0.40000001
23.973 19.509001 -1.348 0.22
23.820999 19.509001 -1.342 0.25
23.674999 19.514 -1.337 0.17
23.533001 19.521999 -1.332 0.31999999
23.398001 19.534 -1.327 0.2
23.25 19.534 -1.321 0
23.15 19.513 -1.317 0
23.049 19.552 -1.314 0
22.979 19.615999 -1.313 0
27.076 23.268 -1.589 0
26.906 23.268999 -1.5829999 0
26.738001 23.271 -1.576 0
26.57 23.271999 -1.5700001 0
26.452999 23.242001 -1.564 0
26.275999 23.233999 -1.558 0
26.127001 23.247999 -1.552 0
25.962 23.247999 -1.546 0
25.801001 23.25 -1.54 0
25.629999 23.242001 -1.534 0
25.486 23.257999 -1.529 0
25.348 23.205 -1.522 0
25.195999 23.211 -1.517 0
25.056 23.228001 -1.512 0
24.893999 23.223 -1.506 0
24.743 23.229 -1.5 0
24.59 23.231001 -1.495 0
24.427999 23.223 -1.489 0
24.319 23.191999 -1.484 0
24.181 23.205999 -1.479 0
24.006001 23.183001 -1.472 0
23.853001 23.181 -1.466 0
23.469 23.240999 -1.455 0
23.347 23.193001 -1.449 0
23.186001 23.177999 -1.443 0
23.054001 23.191 -1.438 0
22.676001 23.245001 -1.427 0
22.530001 23.24 -1.4220001 0
22.416 23.195 -1.416 0
22.275 23.195 -1.411 0
22.136999 23.197001 -1.406 0
21.983999 23.181999 -1.401 0
21.747999 23.224001 -1.3940001 0
21.615 23.226999 -1.39 0
21.514 23.191 -1.385 0
21.379 23.191 -1.38 0
21.225 23.169001 -1.374 0
21.087 23.165001 -1.369 0
20.989 23.202999 -1.367 0
20.858999 23.205 -1.363 0
20.711 23.187 -1.357 0
20.537001 23.211 -1.353 0
20.396999 23.198999 -1.347 0
20.247999 23.174999 -1.342 0
20.113001 23.167999 -1.337 0
19.906 23.222 -1.332 0
19.801001 23.173 -1.327 0
19.667 23.164 -1.322 0
19.459 23.212 -1.317 0
19.315001 23.188 -1.312 0
19.190001 23.186001 -1.308 0
18.885 23.184999 -1.298 0
18.725 23.136 -1.291 0
18.652 23.194 -1.291 0
18.528999 23.190001 -1.2869999 0
18.382999 23.156 -1.281 0
18.222 23.177 -1.277 0
18.096001 23.166 -1.272 0
17.764 23.188 -1.263 0
17.639999 23.177 -1.2589999 0
17.468 23.177 -1.2539999 0
17.336 23.150999 -1.249 0
17.135 23.186001 -1.244 0
17.014 23.174 -1.24 0
16.813 23.204 -1.235 0
16.688999 23.184999 -1.2309999 0
16.382 23.139999 -1.22 0
16.312 23.195999 -1.22 0
16.186001 23.17 -1.216 0
16.056999 23.139999 -1.211 0
15.902 23.148001 -1.207 0
15.792 23.143 -1.2029999 0
15.589 23.158001 -1.198 0
15.472 23.139999 -1.194 0
15.291 23.183001 -1.191 0
15.125 23.167999 -1.186 0
15.008 23.146999 -1.182 0
14.822 23.177999 -1.178 0
14.694 23.136999 -1.173 0
14.547 23.146999 -1.169 0
14.248 23.152 -1.161 0
14.041 23.139999 -1.156 0
13.89 23.136 -1.151 0
13.705 23.155001 -1.148 0
13.591 23.128 -1.143 0
13.415 23.160999 -1.14 0
13.236 23.186001 -1.137 0
13.165 23.146 -1.133 0
12.97 23.141001 -1.128 0
12.779 23.139 -1.124 0
12.679 23.129 -1.1210001 0
12.592 23.142 -1.119 0
12.531 23.115999 -1.117 0
12.435 23.113001 -1.114 0.12
12.34 23.110001 -1.112 0.1
12.251 23.117001 -1.11 0.15000001
12.161 23.122999 -1.108 0.28
12.072 23.129 -1.107 0.2
11.972 23.114 -1.104 0.17
11.919 23.101 -1.102 0.31
11.828 23.103001 -1.1 0.18000001
11.738 23.106001 -1.098 0.36000001
11.648 23.107 -1.096 0.2
11.553 23.099001 -1.0930001 0.33000001
11.46 23.094 -1.091 0.22
11.373 23.101 -1.089 0.18000001
11.321 23.086 -1.0880001 0.41
11.232 23.087999 -1.086 0.23
11.143 23.089001 -1.084 0.2
11.062 23.107 -1.0829999 0.38999999
10.975 23.111 -1.081 0.2
10.888 23.115 -1.079 0.31999999
10.795 23.105 -1.077 0.18000001
10.744 23.09 -1.075 0
10.655 23.087 -1.073 0
10.579 23.115 -1.073 0
10.491 23.114 -1.071 0
28.940001 64.406998 -3.3410001 0
28.722 64.462997 -3.3399999 0
28.663 64.879997 -3.3570001 0
28.452 64.676003 -3.3440001 0
28.009001 64.213997 -3.3139999 0
27.778999 64.237999 -3.3099999 0
27.556999 64.278999 -3.3080001 0
27.297001 64.226997 -3.3 0
26.969 64.013 -3.2839999 0
27.631001 66.167 -3.3959999 0
27.506001 66.158997 -3.3940001 0
26.535 64.391998 -3.293 0
26.158001 64.047997 -3.27 0
25.91 64.013 -3.2639999 0
25.492001 63.555 -3.234 0
25.284 63.613998 -3.233 0
25.049999 63.605999 -3.2290001 0
24.856001 63.699001 -3.2290001 0
24.653999 63.476002 -3.2149999 0
24.452 63.544998 -3.2149999 0
24.280001 63.695999 -3.2190001 0
24.107 63.845001 -3.223 0
23.922001 63.962002 -3.2249999 0
23.709 64.004997 -3.223 0
23.468 63.967999 -3.217 0
23.436001 64.195 -3.227 0
23.174999 64.102997 -3.2190001 0
22.899 63.967999 -3.2079999 0
22.618 63.813999 -3.1960001 0
22.355 63.708 -3.1860001 0
22.145 63.749001 -3.1849999 0
22.157 64.433998 -3.217 0
23.120001 67.585999 -3.3829999 0
22.992001 67.905998 -3.3959999 0
22.92 68.400002 -3.418 0
22.643999 68.288002 -3.408 0
23.287001 70.975998 -3.5469999 0
23.165001 71.361 -3.563 0
18.893 58.814999 -2.898 0
18.809999 58.875 -2.9000001 0
18.523001 58.610001 -2.882 0
18.032 57.683998 -2.8310001 0
18.221001 58.941002 -2.8940001 0
18.073 59.119999 -2.9000001 0
17.818001 58.946999 -2.888 0
17.742001 59.368999 -2.9070001 0
17.271999 58.126999 -2.8410001 0
16.962999 57.750999 -2.8180001 0
17.715 61.023998 -2.987 0
17.065001 59.48 -2.9030001 0
15.505 54.681999 -2.6500001 0
16.313 58.233002 -2.8329999 0
16.202 58.546001 -2.846 0
16.094999 58.880001 -2.8610001 0
16.017 58.959 -2.8640001 0
15.979 59.556999 -2.892 0
16.191 61.117001 -2.971 0
15.505 59.276001 -2.8729999 0
16.215 62.801998 -3.053 0
15.177 59.548 -2.882 0
15.197 60.418999 -2.924 0
5.1030002 20.912001 -0.87699997 0.43000001
5.039 20.934 -0.87800002 0.31999999
4.9650002 20.915001 -0.87599999 0.47999999
4.908 20.969 -0.87800002 0.38999999
4.869 21.099001 -0.884 0.50999999
4.7010002 20.818001 -0.86799997 0.56999999
4.684 21.051001 -0.87900001 0
11.276 51.617001 -2.4489999 0
11.243 52.257999 -2.48 0
11.086 52.324001 -2.4820001 0
10.858 52.056 -2.4660001 0
10.81 52.233002 -2.474 0
9.8439999 48.32 -2.2720001 0
10.438 52.084999 -2.4630001 0
9.8290005 49.848999 -2.3469999 0
9.6520004 49.776001 -2.342 0
10.593 55.581001 -2.6370001 0
9.9709997 53.216999 -2.5150001 0
9.9300003 53.462002 -2.526 0
9.7419996 53.382999 -2.5209999 0
10.061 56.139 -2.6600001 0
9.7159996 55.209999 -2.6110001 0
9.243 53.5 -2.5220001 0
8.9619999 52.865002 -2.4879999 0
8.7910004 52.863998 -2.487 0
8.599 52.729 -2.4790001 0
8.5010004 52.650002 -2.474 0
8.3559999 52.805 -2.4809999 0
8.1450005 52.536999 -2.4660001 0
8.2989998 54.673 -2.573 0
8.283 55.75 -2.6259999 0
7.6669998 52.734001 -2.4719999 0
8.3050003 58.431 -2.76 0
8.184 58.235001 -2.7490001 0
8.0229998 58.422001 -2.757 0
7.6339998 56.907001 -2.6789999 0
7.4699998 57.046001 -2.6849999 0
6.9439998 54.346001 -2.5469999 0
7.23 58.050999 -2.733 0
7.0409999 58.012001 -2.73 0
8.8850002 74.242996 -3.55 0
8.6829996 74.539001 -3.5639999 0
7.9299998 69.975998 -3.332 0
5.6919999 53.158001 -2.4809999 0
5.52 53.124001 -2.4779999 0
7.4590001 74.144997 -3.5380001 0
5.3309999 53.766998 -2.5090001 0
2.6029999 27.909 -1.204 0.2
2.4879999 27.614 -1.189 0.36000001
2.4100001 27.725 -1.194 0.38999999
2.3829999 28.455999 -1.23 0.23999999
2.21 27.421 -1.178 0.19
2.1170001 27.339001 -1.173 0.43000001
2.0899999 27.547001 -1.184 0.33000001
2.0120001 27.671 -1.1900001 0.25
1.84 26.445999 -1.128 0.38
1.767 26.607 -1.135 0.33000001
1.7130001 27.080999 -1.159 0.2
1.596 26.540001 -1.131 0.34999999
1.561 26.664 -1.138 0.27000001
1.469 26.517 -1.13 0.40000001
1.405 26.906 -1.149 0.18000001
1.298 26.43 -1.125 0.34
1.216 26.458 -1.126 0.38999999
1.12 26.166 -1.112 0.38
1.041 26.254999 -1.1160001 0.14
0.95300001 26.101 -1.108 0.44
0.912 26.096001 -1.108 0.18000001
0.83200002 26.179001 -1.112 0.38999999
0.74800003 26.118999 -1.109 0.28
0.755 29.719999 -1.289 0.23
0.66500002 29.886 -1.2970001 0.17
0.57099998 29.888 -1.2970001 0.44
0.44800001 27.98 -1.202 0.22
0.42699999 29.707001 -1.288 0.2
0.33500001 29.823999 -1.294 0.36000001
0.243 30.042 -1.3049999 0.30000001
0.14399999 28.83 -1.244 0.23
0.052999999 28.923 -1.249 0.31999999
-0.041000001 30.677999 -1.337 0.2
-0.138 30.704 -1.3380001 0
-0.30899999 48.558998 -2.234 0.14
-0.39700001 32.042 -1.405 0.46000001
-0.44800001 29.028999 -1.2539999 0.2
-0.60799998 28.045 -1.205 0.41
-0.72000003 28.959999 -1.251 0.14
-0.73500001 27.823999 -1.194 0.47
-0.81900001 27.738001 -1.1900001 0.25
-0.94700003 28.948999 -1.251 0.17
-1.041 29.016001 -1.2539999 0.17
-1.149 29.440001 -1.276 0.20999999
-1.243 29.48 -1.278 0.2
-1.331 29.360001 -1.272 0.52999997
-1.455 30.002001 -1.3049999 0.23
-1.6289999 32.500999 -1.4299999 0.2
-1.733 32.526001 -1.432 0.16
-2.681 47.297001 -2.175 0.090000004
-1.938 32.532001 -1.433 0.090000004
-2.0569999 32.786999 -1.446 0.11
-2.168 32.902 -1.452 0
-3.29 47.479 -2.1860001 0
-2.152 30.495001 -1.331 0
-2.256 29.347 -1.274 0.12
-2.3429999 29.277 -1.271 0.30000001
-2.5239999 30.337999 -1.325 0.17
-2.8900001 33.43 -1.4809999 0.090000004
-2.4360001 27.236 -1.169 0.18000001
-2.451 26.926001 -1.154 0.2
-2.5239999 26.805 -1.148 0.28
-2.608 26.791 -1.148 0.30000001
-2.6860001 26.723 -1.145 0.38999999
-2.7709999 26.718 -1.145 0.23999999
-2.8540001 26.705 -1.145 0.37
-2.941 26.724001 -1.146 0.47
-2.9949999 26.827999 -1.152 0.25
-3.1029999 27.023001 -1.1619999 0.34999999
-3.1960001 27.083 -1.166 0.28
-3.2909999 27.148001 -1.17 0.25
-3.3380001 26.832001 -1.154 0.36000001
-3.427 26.861 -1.156 0
-3.71 28.358999 -1.233 0.039999999
-4.2379999 31.979 -1.416 0.16
-3.612 26.642 -1.146 0.23
-3.5420001 25.534 -1.091 0.25
-3.6170001 25.487 -1.089 0.25
-3.6259999 24.988001 -1.064 0.33000001
-3.7060001 24.983999 -1.0650001 0.38
-3.809 25.132 -1.073 0.28
-3.9389999 25.454 -1.09 0.36000001
-4.0159998 25.677999 -1.101 0.20999999
-4.151 26.007 -1.119 0.28999999
-5.2930002 32.460999 -1.448 0.14
-5.145 30.952999 -1.372 0.38
-4.4809999 26.465 -1.1440001 0.14
-4.559 26.421 -1.143 0.34
-4.5770001 26.037001 -1.124 0.38999999
-4.6430001 25.705999 -1.108 0.44999999
-4.73 25.725 -1.11 0.2
-4.8109999 25.708 -1.11 0.44999999
-4.9029999 25.754 -1.113 0.31
-5.0599999 26.129999 -1.133 0.20999999
-5.0830002 25.813999 -1.118 0.5
-5.1820002 26.1 -1.133 0.15000001
-5.2160001 25.844999 -1.12 0
-10.375 50.469002 -2.3829999 0.14
-6.6100001 31.209 -1.398 0.34999999
-5.6069999 26.087999 -1.136 0.20999999
-6.0780001 27.846001 -1.228 0.23
-6.6789999 30.135 -1.346 0.19
-5.9580002 26.695999 -1.17 0.41999999
-5.8509998 25.837999 -1.127 0.30000001
-5.9190001 25.763 -1.124 0.28999999
-6.0110002 25.792 -1.126 0.38999999
-7.1659999 30.298 -1.36 0.20999999
-6.5050001 27.132999 -1.197 0.17
-6.5760002 27.054001 -1.194 0.36000001
-7.5819998 30.962 -1.397 0.14
-7.6069999 30.650999 -1.382 0.30000001
-6.4759998 25.764 -1.13 0.16
-6.5580001 25.746 -1.13 0.47999999
-6.6420002 25.74 -1.131 0.28999999
-6.7309999 25.747999 -1.133 0.28
-6.803 25.694 -1.131 0.38
-6.8499999 25.709 -1.132 0.28999999
-6.7210002 24.914 -1.092 0.33000001
-6.802 24.9 -1.0930001 0.46000001
-6.9000001 24.952 -1.096 0.22
-6.9780002 24.927999 -1.096 0.27000001
-7.0240002 24.792999 -1.09 0.20999999
-7.039 24.552 -1.079 0.55000001
-7.1139998 24.667 -1.086 0.17
-8.7869997 30.093 -1.3710001 0.18000001
-8.9890003 30.427 -1.3890001 0.19
-9.0979996 30.445 -1.392 0.15000001
-9.1739998 30.349001 -1.388 0.28999999
-9.2340002 30.207001 -1.382 0.19
-9.3170004 30.138 -1.38 0.25
-9.3219995 29.988001 -1.373 0.30000001
-9.4359999 30.021 -1.377 0.34
-9.5530005 30.062 -1.38 0.28999999
-9.6610003 30.076 -1.383 0.28999999
-9.658 29.745001 -1.367 0.15000001
-9.9180002 30.221001 -1.393 0.34
-8.052 24.292999 -1.082 0.18000001
-8.1269999 24.266001 -1.081 0.14
-8.1079998 24.083 -1.072 0.47999999
-8.198 24.099001 -1.075 0.33000001
-8.257 24.024 -1.072 0.36000001
-8.3339996 24.003 -1.072 0.31999999
-8.3909998 23.924 -1.0700001 0.36000001
-8.4510002 23.856001 -1.067 0.38
-8.5220003 23.819 -1.067 0.30000001
-8.5509996 23.781 -1.0650001 0.36000001
-11.694 32.176998 -1.515 0.20999999
-9.1029997 24.823 -1.124 0.30000001
-11.903 32.123001 -1.517 0.18000001
-9.3170004 24.921 -1.132 0.34
-9.4169998 24.948999 -1.135 0.31
-13.27 34.793999 -1.666 0.12
-13.323 34.769001 -1.666 0.14
-13.722 35.476002 -1.706 0.11
-12.713 32.568001 -1.552 0.34999999
-12.251 31.099001 -1.475 0.12
-13.435 33.787998 -1.622 0.28999999
-11.081 27.625999 -1.291 0.20999999
-12.514 30.91 -1.471 0.27000001
-11.042 27.038 -1.263 0.2
-11.074 26.995001 -1.262 0
-11.202 27.063999 -1.267 0.12
-13.345 31.945999 -1.535 0.23
-11.567 27.455999 -1.2920001 0.25
-11.649 27.172001 -1.281 0.57999998
-13.023 30.108 -1.444 0.20999999
-13.593 31.289 -1.5089999 0.31999999
-13.809 31.514999 -1.524 0.25
-11.718 26.525 -1.253 0.25
-11.869 26.639999 -1.261 0.31999999
-14.395 32.023998 -1.559 0.17
-14.517 32.026001 -1.562 0.44999999
-14.583 31.906 -1.558 0.18000001
-14.63 31.875999 -1.557 0.14
-14.244 30.782 -1.499 0.13
-14.298 30.645 -1.494 0.18000001
-14.49 30.804001 -1.506 0.43000001
-12.755 26.903 -1.291 0.16
-12.699 26.569 -1.275 0.36000001
-14.338 29.750999 -1.455 0.2
-14.331 29.618999 -1.449 0.31
-12.834 26.32 -1.267 0.12
-12.728 25.896 -1.245 0.25
-12.811 25.858999 -1.245 0.43000001
-12.891 25.816999 -1.245 0.20999999
-14.705 29.212 -1.439 0.20999999
-14.777 29.128 -1.436 0.52999997
-14.5 28.471001 -1.401 0.14
-14.517 28.285 -1.393 0.38999999
-15.871 30.68 -1.531 0.23999999
-13.092 25.125 -1.219 0.18000001
-13.174 25.089001 -1.219 0.40000001
-14.958 28.264999 -1.402 0.13
-13.254 24.861 -1.211 0.36000001
-13.358 24.867001 -1.214 0.2
-13.256 24.586 -1.199 0
-13.516 24.695 -1.21 0.31999999
-13.625 24.709999 -1.2130001 0.33000001
-13.081 23.549999 -1.149 0.25
-13.124 23.452999 -1.146 0.25
-13.192 23.403 -1.145 0.23999999
-13.218 23.363001 -1.1440001 0.33000001
-13.321 23.374001 -1.147 0.28999999
-14.281 24.693001 -1.229 0.36000001
-16.722 28.695999 -1.464 0.12
-14.493 24.698999 -1.234 0.25999999
-14.582 24.672001 -1.235 0.19
-14.526 24.490999 -1.226 0.36000001
-16.25 27.195999 -1.387 0.14
-16.253 27.007999 -1.3789999 0.28
-15.235 25.139999 -1.272 0.11
-15.313 25.091999 -1.272 0.19
-15.368 25.004999 -1.27 0.5
-15.896 25.681 -1.313 0.18000001
-15.296 24.627001 -1.252 0.37
-15.383 24.594 -1.253 0.25999999
-15.512 24.628 -1.258 0.27000001
-15.709 24.768 -1.2690001 0.20999999
-16.357 25.608999 -1.322 0.30000001
-16.832001 26.17 -1.359 0.15000001
-15.924 24.591 -1.267 0.22
-16.003 24.544001 -1.268 0.38
-16.110001 24.624001 -1.274 0.30000001
-16.201 24.593 -1.275 0.17
-16.117001 24.299 -1.261 0.17
-16.292 24.396 -1.2690001 0.15000001
-16.226 24.132999 -1.257 0.20999999
-16.159 23.872 -1.244 0.33000001
-16.316999 23.943001 -1.251 0.23
-16.693001 24.412001 -1.281 0.34999999
-16.660999 24.201 -1.272 0.23999999
-16.778 24.208 -1.275 0.31999999
-16.863001 24.167999 -1.276 0.41999999
-17.069 24.299999 -1.288 0.2
-17.472 24.707001 -1.316 0.41999999
-17.538 24.636 -1.3150001 0.14
-17.472 24.462 -1.306 0.44999999
-17.726 24.653999 -1.321 0.16
-17.858999 24.674 -1.326 0.38
-17.870001 24.527 -1.3200001 0.25
-17.952999 24.479 -1.321 0.31999999
-17.933001 24.291 -1.312 0.34999999
-17.99 24.209 -1.311 0.34
-18.084 24.256001 -1.316 0.15000001
-18.118999 24.143999 -1.312 0.31999999
-18.302999 24.231001 -1.321 0.2
-18.624001 24.493999 -1.341 0.19
-18.601 24.306 -1.3329999 0.41
-18.621 24.174 -1.329 0.16
-18.903999 24.382 -1.346 0.14
-19.108999 24.566999 -1.359 0.079999998
-19.778 25.261 -1.4069999 0
-19.577 24.843 -1.385 0
-19.540001 24.636999 -1.375 0.11
-19.695 24.673 -1.382 0
-19.747999 24.580999 -1.38 0.12
-19.851999 24.551001 -1.382 0.22
-19.961 24.528 -1.3839999 0.20999999
-19.996 24.493 -1.3839999 0.27000001
-20.082001 24.441 -1.385 0.2
-20.183001 24.407 -1.387 0.31999999
-20.268999 24.354 -1.387 0.28
-20.414 24.372999 -1.393 0.13
-20.969 24.875 -1.4299999 0.090000004
-20.888 24.622 -1.418 0.2
-22.988001 27.007999 -1.577 0.2
-24.108 27.962999 -1.65 0
-21.584 24.882 -1.45 0.059999999
-24.271999 27.799 -1.649 0.11
-22.742001 25.884001 -1.526 0.14
-21.809 24.667 -1.45 0
-21.784 24.561001 -1.4450001 0.11
-23.875 26.746 -1.597 0.12
-18.716999 20.844 -1.2029999 0.30000001
-18.737 20.733999 -1.2 0.25999999
-18.806999 20.681 -1.2 0.37
-18.934999 20.691 -1.205 0.38999999
-18.990999 20.621 -1.204 0.52999997
-22.913 24.795 -1.492 0.20999999
-19.205 20.657 -1.2130001 0.13
-19.275999 20.604 -1.2130001 0.30000001
-19.415001 20.622 -1.219 0.19
-24.865 26.233999 -1.6109999 0
-23.676001 24.826 -1.5190001 0.11
-23.753 24.75 -1.5190001 0
-26.919001 27.868 -1.742 0.059999999
-27.056 27.922001 -1.749 0
-25.552999 26.208 -1.6339999 0.13
-25.518999 26.009001 -1.626 0.25
-24.85 25.013 -1.567 0.19
-25.448999 25.454 -1.604 0.14
-24.896 24.746 -1.559 0.18000001
-24.914 24.686001 -1.557 0.46000001
-25.042999 24.658001 -1.561 0.22
-25.319 24.773001 -1.575 0.28999999
-25.424999 24.722 -1.577 0.27000001
-25.452 24.593 -1.573 0.27000001
-25.705 24.681999 -1.586 0.18000001
-25.834999 24.65 -1.589 0.44999999
-25.898001 24.632999 -1.591 0.23999999
-25.969 24.546 -1.591 0.15000001
-26.242001 24.646999 -1.604 0.41999999
-26.413 24.652 -1.61 0.27000001
-27.469 25.476 -1.677 0.25999999
-26.899 24.791 -1.633 0.23999999
-27.068001 24.790001 -1.6390001 0.16
-27.047001 24.693001 -1.635 0.25999999
-27.664 25.097 -1.6720001 0.11
-27.313 24.622 -1.643 0
-28.066 25.141001 -1.688 0.13
-27.986 24.912001 -1.678 0.25999999
-28.790001 25.465 -1.726 0.25
-28.987 25.478001 -1.734 0.17
-29.021 25.346001 -1.7309999 0.2
-28.931 25.187 -1.722 0.23999999
-29.09 25.166 -1.728 0.23
-29.207001 25.107 -1.73 0.18000001
-29.275999 25.007 -1.73 0.20999999
-29.461 25.004999 -1.737 0
-30.084999 25.372 -1.772 0.090000004
-30.235001 25.336 -1.777 0
-30.252001 25.27 -1.776 0.13
-30.207001 25.070999 -1.767 0.13
-30.572001 25.212 -1.786 0.30000001
-30.806999 25.243999 -1.796 0.18000001
-31.150999 25.363001 -1.813 0.13
-31.063999 24.969 -1.7970001 0.16
-31.716 25.41 -1.837 0.090000004
-31.339001 24.948 -1.808 0.2
-31.584999 24.982 -1.818 0
-35.278 27.718 -2.049 0
-31.872 24.885 -1.827 0.050000001
-32.036999 24.851999 -1.832 0.17
-32.359001 24.938 -1.848 0.11
-32.664001 25.091999 -1.864 0
-33.645 25.509001 -1.916 0.12
-33.834999 25.487 -1.923 0
-34.937 26.143999 -1.987 0
-34.831001 25.895 -1.976 0
-34.631001 25.577999 -1.9579999 0
-34.436001 25.351 -1.943 0
-34.567001 25.280001 -1.947 0.11
-34.462002 25.038 -1.9349999 0
-34.514999 24.910999 -1.934 0
-36.780998 26.368999 -2.069 0
-36.469002 25.973 -2.0439999 0
-36.431999 25.774 -2.0369999 0
-36.957001 26.058001 -2.0669999 0
-36.259998 25.396999 -2.0190001 0.12
-36.367001 25.302 -2.0209999 0.12
-36.390999 25.149 -2.017 0.079999998
-36.244999 24.881001 -2.0039999 0
-38.328999 26.132999 -2.1259999 0
-38.265999 25.914 -2.1170001 0
-38.604 25.966999 -2.132 0.12
-39.113998 26.219999 -2.161 0.090000004
-39.431 26.253 -2.175 0.11
-39.387001 26.046 -2.1670001 0.13
-39.799 26.139 -2.187 0
-40.144001 26.184999 -2.2030001 0
-40.307999 26.112 -2.2079999 0
-41.549 26.73 -2.277 0
-41.195999 26.412001 -2.253 0
-41.644001 26.514999 -2.2750001 0
-41.866001 26.471001 -2.283 0
-41.831001 26.264999 -2.276 0.07
-42.146999 26.278999 -2.29 0.090000004
-42.285 26.181 -2.293 0
-43.108002 26.503 -2.3369999 0.059999999
-43.178001 26.452999 -2.339 0.16
-43.287998 26.334 -2.3399999 0
-44.355999 26.792 -2.398 0
-44.615002 26.757999 -2.408 0
-44.736 26.639999 -2.411 0
-44.985001 26.596001 -2.4200001 0
-45.293999 26.587 -2.4330001 0
-45.852001 26.816999 -2.4630001 0
-46.487 26.993 -2.4949999 0
-46.831001 26.996 -2.51 0
-46.834 26.802999 -2.506 0
-47.144001 26.783001 -2.5190001 0
-47.442001 26.756001 -2.5309999 0
-48.596001 27.205 -2.5929999 0
-48.492001 27.047001 -2.5840001 0
-48.935001 27.093 -2.605 0
-49.080002 26.972 -2.608 0
-48.999001 26.728001 -2.599 0
-49.674999 26.893999 -2.632 0
-51.025002 27.417 -2.7049999 0
-51.661999 27.549999 -2.7360001 0
-52.658001 27.975 -2.79 0
-52.752998 27.813 -2.7909999 0
-53.688 28.09 -2.839 0
-54.205002 28.143999 -2.8629999 0
-55.300999 28.492001 -2.9200001 0
-55.801998 28.528999 -2.9430001 0
-56.77 28.798 -2.9920001 0
-57.202999 28.792 -3.0120001 0
-57.438 28.797001 -3.0220001 0
-57.688999 28.695999 -3.0309999 0
-58.574001 28.907 -3.076 0
-58.917999 28.847 -3.0899999 0
-59.821999 29.056999 -3.135 0
-59.898998 28.862 -3.135 0
-60.028999 28.691999 -3.1370001 0
-59.610001 28.377001 -3.1110001 0
-59.945 28.306 -3.125 0
-59.811001 28.013 -3.112 0
-60.167999 27.951 -3.1270001 0
-60.637001 27.937 -3.148 0
-60.928001 27.839001 -3.1600001 0
-61.41 27.826 -3.181 0
-61.922001 27.941 -3.207 0
-62.577999 28 -3.2379999 0
-63.464001 28.157 -3.2820001 0
-64.444 28.35 -3.3310001 0
-64.781998 28.256001 -3.345 0
-65.439003 28.298 -3.3759999 0
-65.941002 28.268999 -3.398 0
-58.741001 23.778 -2.9779999 0
-58.921001 23.743 -2.9860001 0
-59.409 23.723 -3.0079999 0
-60.564999 23.964001 -3.066 0
-60.792 23.833 -3.075 0
-60.297001 23.421 -3.0439999 0
-60.897999 23.434 -3.072 0
-61.511002 23.448 -3.1010001 0
-61.77 23.436001 -3.1129999 0
-60.93 22.899 -3.0639999 0
-61.573002 22.92 -3.095 0
-47.16 17.056999 -2.3139999 0.34
-47.198002 16.903 -2.3139999 0.88999999
-47.200001 16.737 -2.3110001 0.89999998
-47.095001 16.615999 -2.3039999 0.89999998
-47.153999 16.471001 -2.3039999 0.60000002
-47.178001 16.313 -2.303 0.23999999
-47.023998 16.094999 -2.2920001 0
-47.228001 15.999 -2.3 0
-48.070999 15.948 -2.339 0
-50.334 15.911 -2.447 0
-54.365002 11.25 -2.5840001 0
-54.902 11.181 -2.609 0
-55.417999 11.105 -2.6340001 0
-53.467999 10.278 -2.53 0
-54.247002 10.251 -2.5680001 0
-55.588001 10.143 -2.6329999 0
-56.07 10.049 -2.6559999 0
-52.205002 8.7670002 -2.454 0
-53.171001 8.757 -2.5020001 0
-51.082001 7.8379998 -2.391 0
-51.925999 7.8000002 -2.4330001 0
-52.889 7.7740002 -2.48 0
-52.327 7.1890001 -2.448 0
-53.306 7.152 -2.497 0
-54.021 7.0749998 -2.5320001 0
-54.453999 7.0450001 -2.553 0
-54.993 6.9390001 -2.579 0
-55.062 6.7719998 -2.582 0
-54.842999 6.5700002 -2.5699999 0
-54.909 6.4029999 -2.572 0
-51.373001 5.665 -2.391 0
-52.533001 5.7090001 -2.4489999 0
-53.299999 5.6230001 -2.487 0
-53.812 5.506 -2.5120001 0
-53.901001 5.3439999 -2.516 0
-54.325001 5.2129998 -2.536 0
-51.139 4.7470002 -2.375 0
-51.688 4.6339998 -2.402 0
-52.943001 4.6620002 -2.4649999 0
-55.012001 4.4949999 -2.5680001 0
-55.356998 4.348 -2.5840001 0
-55.154999 4.158 -2.573 0
-55.172001 3.9849999 -2.5739999 0
-59.870998 1.117 -2.803 0
-60.27 0.935 -2.823 0
-60.681 -2.7780001 -2.846 0
-38.98 -3.3740001 -1.761 0.14
-39.000999 -3.5 -1.763 0.2
-38.973999 -3.6210001 -1.762 0.2
-38.964001 -3.743 -1.762 0
-38.716 -3.842 -1.75 0
-46.948002 -4.8140001 -2.1659999 0
-55.973999 -5.9219999 -2.622 0
-55.771999 -5.9889998 -2.6129999 0
-55.540001 -6.1409998 -2.602 0
-55.316002 -6.2919998 -2.592 0
-55.028 -6.434 -2.5780001 0
-54.826 -6.585 -2.569 0.029999999
-54.095001 -6.842 -2.5339999 0
-54.155998 -6.9359999 -2.5380001 0
-53.917999 -7.0780001 -2.527 0
-53.595001 -7.2059999 -2.5109999 0
-53.283001 -7.335 -2.497 0
-52.994999 -7.4650002 -2.483 0
-52.692001 -7.5910001 -2.4690001 0
-52.464001 -7.7259998 -2.4590001 0
-52.209 -7.7719998 -2.447 0
-52.043999 -7.915 -2.4389999 0
-51.484001 -7.9949999 -2.4119999 0
-50.851002 -8.0600004 -2.381 0
-50.595001 -8.1820002 -2.3699999 0
-50.179001 -8.2770004 -2.3499999 0.13
-49.714001 -8.3599997 -2.3269999 0.2
-49.602001 -8.4219999 -2.322 0.25
-49.597 -8.5810003 -2.3239999 0.23999999
-49.277 -8.6850004 -2.309 0.23999999
-49.063999 -8.8070002 -2.299 0.25999999
-49.068001 -8.9659996 -2.3010001 0.15000001
-48.908001 -9.0959997 -2.2939999 0.15000001
-39.376999 -7.4460001 -1.809 0.15000001
-39.244999 -7.4850001 -1.802 0.1
-39.487999 -7.6599998 -1.816 0.14
-39.724998 -7.836 -1.829 0.31
-39.588001 -7.9380002 -1.824 0.2
-39.187 -7.9860001 -1.804 0.20999999
-39.396999 -8.158 -1.816 0.20999999
-39.486 -8.3059998 -1.822 0.36000001
-39.263 -8.3870001 -1.812 0.27000001
-39.681 -8.5419998 -1.834 0.19
-39.888 -8.7180004 -1.846 0.18000001
-39.674999 -8.802 -1.837 0.31999999
-38.576 -8.6850004 -1.7819999 0.11
-38.882999 -8.8830004 -1.799 0.18000001
-38.848999 -9.0039997 -1.799 0.27000001
-36.139999 -8.493 -1.66 0
-34.300999 -8.1169996 -1.566 0
-35.793999 -8.5900002 -1.645 0
-35.331001 -8.5959997 -1.622 0.059999999
-34.316002 -8.4630003 -1.571 0.079999998
-28.669001 -7.1609998 -1.28 0.16
-28.579 -7.2340002 -1.277 0.25
-28.493999 -7.3080001 -1.273 0.20999999
-28.49 -7.355 -1.274 0.44999999
-24.804001 -6.4829998 -1.084 0.2
-24.198 -6.4050002 -1.053 0.17
-24.105 -6.4619999 -1.05 0.44
-23.764 -6.4499998 -1.033 0.22
-23.49 -6.4549999 -1.02 0.25
-23.198 -6.4520001 -1.006 0.33000001
-22.924 -6.415 -0.99199998 0.18000001
-22.612 -6.4039998 -0.977 0.16
-22.313999 -6.395 -0.96200001 0.16
-22.013 -6.3829999 -0.94700003 0.17
-21.726999 -6.3740001 -0.93300003 0.16
-21.475 -6.3730001 -0.921 0.25
-21.245001 -6.3769999 -0.91000003 0.2
-21.042 -6.3520002 -0.89999998 0.31
-20.85 -6.3649998 -0.89099997 0.19
-20.66 -6.3779998 -0.88200003 0.23
-28.358999 -8.8629999 -1.288 0.18000001
-28.346001 -8.9569998 -1.289 0.25999999
-28.511999 -9.1079998 -1.299 0.25
-29.135 -9.4090004 -1.334 0.19
-30.473 -9.8950005 -1.405 0.16
-28.259001 -9.2720003 -1.29 0.23
-28.583 -9.4779997 -1.308 0.20999999
-28.254999 -9.4680004 -1.293 0.34
-28.49 -9.6470003 -1.307 0.2
-28.407 -9.7180004 -1.304 0.23
-28.423 -9.8240004 -1.306 0.27000001
-28.298 -9.8800001 -1.301 0.14
-28.554001 -10.02 -1.316 0.52999997
-27.674999 -9.8079996 -1.271 0.22
-26.973 -9.6540003 -1.235 0.23
-28.222 -10.203 -1.303 0.27000001
-28.169001 -10.284 -1.302 0.28
-28.367001 -10.457 -1.314 0.19
-27.393 -10.195 -1.2640001 0.19
-27.356001 -10.23 -1.263 0.14
-27.002001 -10.195 -1.2460001 0.30000001
-25.518 -9.7250004 -1.168 0.28
-25.705999 -9.8889999 -1.179 0.30000001
-25.754999 -10.001 -1.184 0.27000001
-27.490999 -10.777 -1.279 0.18000001
-25.725 -10.176 -1.186 0.23
-25.636 -10.187 -1.182 0.41
-25.714001 -10.312 -1.188 0.36000001
-26.096001 -10.561 -1.21 0.25
-25.534 -10.426 -1.181 0.38999999
-25.853001 -10.652 -1.2 0.18000001
-22.975 -9.5469999 -1.046 0.19
-25.801001 -10.82 -1.201 0.14
-25.968 -10.939 -1.211 0.31
-26.047001 -11.069 -1.2180001 0.16
-22.179001 -9.5030003 -1.008 0.31
-21.841 -9.4390001 -0.991 0.25999999
-21.806999 -9.5059996 -0.991 0.41
-23.139 -10.175 -1.066 0.28999999
-22.974001 -10.188 -1.058 0.31
-21.344999 -9.5039997 -0.97000003 0.34
-21.252001 -9.5430002 -0.96600002 0.37
-23.052999 -10.441 -1.067 0.19
-21.250999 -9.7030001 -0.97000003 0.34
-21.141001 -9.7329998 -0.96499997 0.23
-21.101 -9.7950001 -0.96499997 0.33000001
-21.047001 -9.8509998 -0.963 0.36000001
-21.042 -9.8889999 -0.96399999 0.41
-21 -9.9499998 -0.963 0.20999999
-20.871 -9.9689999 -0.958 0.38
-20.844999 -10.037 -0.958 0.33000001
-20.975 -10.181 -0.96700001 0.44999999
-20.988001 -10.269 -0.97000003 0.36000001
-21.215 -10.463 -0.98400003 0.14
-21.059 -10.427 -0.97600001 0.5
-22.979 -11.471 -1.086 0.16
-21.018 -10.572 -0.97799999 0.25
-21.018999 -10.655 -0.98000002 0.49000001
-21.285999 -10.875 -0.99699998 0.19
-21.062 -10.844 -0.986 0.38999999
-21.33 -11.068 -1.003 0.28
-19.034 -9.9110003 -0.87400001 0.44999999
-22.461 -11.791 -1.0700001 0.34999999
-21.5 -11.372 -1.018 0.20999999
-19.25 -10.256 -0.89200002 0.15000001
-21.395 -11.488 -1.016 0.30000001
-19.566 -10.583 -0.91299999 0.18000001
-18.576 -10.122 -0.85900003 0.23999999
-21.096001 -11.542 -1.0039999 0.34
-21.164 -11.666 -1.01 0.19
-21.166 -11.754 -1.012 0.52999997
-21.176001 -11.847 -1.015 0.17
-21.149 -11.919 -1.015 0.46000001
-21.452 -12.179 -1.035 0.28999999
-21.438 -12.26 -1.0369999 0.23
-20.903999 -12.042 -1.008 0.20999999
-21.413 -12.38 -1.038 0.19
-18.950001 -11.033 -0.898 0.14
-18.809999 -11.03 -0.89099997 0.55000001
-21.568001 -12.743 -1.054 0.18000001
-21.150999 -12.586 -1.0319999 0.2
-21.039 -12.609 -1.028 0.44999999
-18.971001 -11.448 -0.90899998 0.12
-20.886999 -12.652 -1.023 0.46000001
-22.062 -13.461 -1.094 0.20999999
-24.357 -14.969 -1.232 0.28999999
-18.666 -11.545 -0.89899999 0.23
-18.714001 -11.657 -0.90399998 0.14
-18.665001 -11.708 -0.903 0.34999999
-18.795 -11.872 -0.91299999 0.18000001
-19.284 -12.224 -0.94300002 0
-19.948999 -12.735 -0.98500001 0.1
-19.197001 -12.424 -0.94499999 0.5
-18.841999 -12.278 -0.926 0.18000001
-18.365999 -12.049 -0.89899999 0.41999999
-23.226 -15.404 -1.196 0.46000001
-23.176001 -15.475 -1.196 0.15000001
-20.700001 -13.913 -1.049 0.38999999
-22.959 -15.54 -1.189 0.16
-19.493 -13.278 -0.98100001 0.19
-19.472 -13.354 -0.98199999 0.37
-18.952 -13.084 -0.95300001 0.16
-19.061001 -13.204 -0.96100003 0.57999998
-19.440001 -13.558 -0.98699999 0.14
-19.837 -13.928 -1.0140001 0.37
-19.707001 -13.929 -1.008 0.25
-18.297001 -13.017 -0.92400002 0.25
-18.360001 -13.149 -0.93000001 0.34999999
-17.502001 -12.617 -0.88 0.2
-17.73 -12.824 -0.89499998 0.57999998
-17.591 -12.808 -0.889 0.25
-17.82 -13.06 -0.90600002 0.17
-17.436001 -12.863 -0.88499999 0.34999999
-18.907 -14.043 -0.97899997 0.28999999
-17.695999 -13.228 -0.90600002 0.34999999
-17.07 -12.843 -0.86900002 0.36000001
-17.112 -12.917 -0.87300003 0.25
-16.945 -12.874 -0.86500001 0.36000001
-17.25 -13.192 -0.88700002 0.36000001
-20.649 -15.901 -1.105 0.23999999
-21.033001 -16.302999 -1.133 0.34999999
-18.674 -14.66 -0.98900002 0.57999998
-18.528999 -14.593 -0.98100001 0.16
-23.638 -18.746 -1.311 0.30000001
-23.635 -18.865 -1.3150001 0.16
-19.558001 -15.706 -1.056 0.23
-19.709 -15.929 -1.069 0
-23.382 -19.027 -1.3099999 0
4.02 -24.695999 -1.053 0.16
4.085 -24.607 -1.049 0.38999999
4.145 -24.493 -1.044 0.23999999
4.2069998 -24.393999 -1.039 0.16
4.2810001 -24.365 -1.039 0.43000001
4.3629999 -24.382999 -1.04 0.28999999
4.4499998 -24.422001 -1.043 0.28999999
4.5380001 -24.472 -1.046 0.34
4.7839999 -25.569 -1.103 0.12
4.8839998 -25.655001 -1.108 0.17
4.9809999 -25.722 -1.112 0.30000001
5.0739999 -25.771 -1.115 0.14
5.1409998 -25.687 -1.112 0.27000001
5.2129998 -25.625 -1.11 0.17
5.3559999 -25.912001 -1.125 0.17
5.4130001 -25.98 -1.1289999 0.12
5.5089998 -26.028999 -1.132 0.16
5.6059999 -26.082001 -1.136 0.12
5.7030001 -26.136 -1.14 0.16
5.803 -26.195999 -1.1440001 0.12
5.9000001 -26.242001 -1.147 0.17
5.9990001 -26.296 -1.151 0.12
6.0560002 -26.358 -1.154 0.16
6.158 -26.419001 -1.159 0.28
6.25 -26.436001 -1.16 0.19
6.362 -26.539 -1.1670001 0.14
6.4250002 -26.434999 -1.1619999 0.34
6.5560002 -26.607 -1.1720001 0.27000001
6.6220002 -26.695 -1.178 0.11
6.7249999 -26.75 -1.181 0.15000001
6.8309999 -26.813999 -1.186 0.27000001
6.9349999 -26.872 -1.1900001 0.25999999
7.0409999 -26.929001 -1.194 0.25999999
7.1479998 -26.993 -1.199 0.25999999
7.2540002 -27.048 -1.2029999 0.23999999
7.3429999 -27.041 -1.2029999 0.19
7.3850002 -27.028999 -1.2029999 0.23
7.5320001 -27.229 -1.215 0.17
7.6430001 -27.294001 -1.22 0.16
7.75 -27.344 -1.224 0.17
7.8590002 -27.402 -1.228 0.17
7.973 -27.472 -1.233 0.16
8.0839996 -27.531 -1.237 0.16
8.1529999 -27.606001 -1.242 0.17
8.2639999 -27.663 -1.2460001 0.16
8.3780003 -27.724001 -1.251 0.13
8.4460001 -27.635 -1.247 0.27000001
8.599 -27.822001 -1.2589999 0.16
8.7200003 -27.900999 -1.2640001 0.13
8.7930002 -27.83 -1.262 0
8.875 -27.936001 -1.268 0
57.241001 -36.813999 -3.2130001 0
57.495998 -36.723 -3.2219999 0
57.470001 -35.075001 -3.177 0
58.254002 -35.053001 -3.21 0
58.344002 -34.858002 -3.2090001 0
57.612999 -34.175999 -3.1600001 0
57.630001 -33.942001 -3.154 0
57.147999 -33.536999 -3.1229999 0
57.32 -33.396999 -3.1270001 0
56.984001 -32.962002 -3.1010001 0
10.574 -6.0970001 -0.41 0.050000001
10.654 -6.098 -0.41299999 0.14
10.722 -6.092 -0.41600001 0.34
10.784 -6.0830002 -0.41800001 0.22
10.823 -6.0819998 -0.41999999 0.25
10.89 -6.0749998 -0.42300001 0.30000001
10.972 -6.0749998 -0.426 0.34
11.028 -6.0609999 -0.428 0.27000001
11.09 -6.0500002 -0.43099999 0.25
11.178 -6.052 -0.435 0.40000001
11.246 -6.0430002 -0.43799999 0.28999999
11.323 -6.0609999 -0.44100001 0.31999999
11.421 -6.0669999 -0.44600001 0.36000001
11.5 -6.0630002 -0.449 0.31999999
11.585 -6.0609999 -0.45300001 0.2
11.685 -6.0669999 -0.458 0.41
11.772 -6.0650001 -0.46200001 0.18000001
11.873 -6.0689998 -0.46599999 0.25999999
11.979 -6.099 -0.472 0.17
12.049 -6.0879998 -0.47400001 0.14
12.138 -6.085 -0.47799999 0.18000001
12.354 -6.0960002 -0.48800001 0
12.475 -6.1069999 -0.49399999 0.1
12.546 -6.0929999 -0.49700001 0.2
12.651 -6.119 -0.50199997 0.31
12.811 -6.1459999 -0.50999999 0.12
12.82 -6.1009998 -0.509 0.43000001
12.851 -6.066 -0.50999999 0.18000001
13.015 -6.0929999 -0.51800001 0.50999999
13.156 -6.1090002 -0.52499998 0
13.313 -6.105 -0.53200001 0.30000001
13.484 -6.132 -0.54000002 0
13.615 -6.0890002 -0.54500002 0.25
13.782 -6.1110001 -0.55400002 0
13.902 -6.112 -0.55900002 0.090000004
13.917 -6.0669999 -0.55900002 0.14
14.057 -6.1009998 -0.56599998 0.22
14.14 -6.0840001 -0.56999999 0.18000001
14.33 -6.112 -0.579 0.15000001
14.379 -6.0799999 -0.57999998 0.11
14.529 -6.0890002 -0.588 0.31999999
14.657 -6.0879998 -0.59399998 0.23
14.814 -6.099 -0.60100001 0.33000001
14.915 -6.1129999 -0.60600001 0.090000004
14.984 -6.086 -0.60900003 0.14
15.14 -6.0939999 -0.616 0.23
15.243 -6.0799999 -0.62099999 0.28999999
15.345 -6.0650001 -0.625 0.16
15.511 -6.0739999 -0.63300002 0.13
15.625 -6.0619998 -0.63800001 0.19
15.786 -6.0669999 -0.64600003 0.23999999
15.921 -6.0900002 -0.65200001 0.22
16.082001 -6.0929999 -0.66000003 0.46000001
16.226 -6.0890002 -0.667 0.14
12 -4.4679999 -0.44 0.31
11.975 -4.4159999 -0.43700001 0.38
11.975 -4.3730001 -0.43700001 0.40000001
11.987 -4.335 -0.43700001 0.37
11.979 -4.3109999 -0.43599999 0.34999999
11.983 -4.27 -0.435 0.34999999
12 -4.2329998 -0.43599999 0.37
12.012 -4.1950002 -0.435 0.38
12.036 -4.1609998 -0.43599999 0.44
12.106 -4.1430001 -0.43900001 0.28999999
12.174 -4.1230001 -0.442 0.52999997
12.125 -4.085 -0.43900001 0
18.264999 -6.0760002 -0.76300001 0
12.847 -4.237 -0.47600001 0
12.83 -4.1869998 -0.47400001 0
18.976999 -6.0489998 -0.79699999 0.2
19.183001 -6.0809999 -0.80699998 0.38999999
19.408001 -6.085 -0.81800002 0.25
19.584999 -6.073 -0.82599998 0.25
19.813 -6.0749998 -0.83700001 0.27000001
20.042 -6.0760002 -0.84799999 0.28
20.17 -6.046 -0.85399997 0.34
20.436001 -6.0549998 -0.86699998 0.30000001
20.662001 -6.0510001 -0.87800002 0.25999999
20.85 -6.0700002 -0.88700002 0.30000001
21.094 -6.0689998 -0.89899999 0.28
21.341 -6.0679998 -0.91100001 0.23
21.552999 -6.0539999 -0.921 0.20999999
21.826 -6.0570002 -0.93400002 0.36000001
22.037001 -6.0409999 -0.94400001 0.28999999
22.274 -6.0300002 -0.95499998 0.22
22.558001 -6.0689998 -0.96899998 0.38
22.733 -6.039 -0.97799999 0.31999999
23.059 -6.0479999 -0.99400002 0.27000001
23.330999 -6.0409999 -1.007 0.28999999
23.601999 -6.0320001 -1.02 0.28
23.896 -6.027 -1.034 0.28
24.205 -6.0229998 -1.049 0.25999999
24.497999 -6.0549998 -1.064 0.27000001
24.761999 -6.0370002 -1.076 0.23
25.048 -6.0240002 -1.09 0.38
25.423 -6.0289998 -1.108 0.25
25.738001 -6.0180001 -1.124 0.27000001
26.062 -6.007 -1.1390001 0.31999999
26.403999 -5.9990001 -1.156 0.23
26.740999 -6.0310001 -1.173 0.27000001
27.066 -6.0139999 -1.189 0.18000001
27.399 -5.9980001 -1.205 0
43.488998 -9.3610001 -2.03 0.11
43.569 -9.2349997 -2.033 0
53.589001 -11.177 -2.5450001 0.039999999
29.715 -6.112 -1.3200001 0.15000001
29.801001 -6.0809999 -1.324 0.16
29.812 -5.9860001 -1.323 0.23999999
29.865999 -5.8990002 -1.325 0.20999999
29.957001 -5.8189998 -1.329 0.22
30.02 -5.7340002 -1.331 0.17
30.063 -5.6440001 -1.332 0.31
30.117001 -5.605 -1.335 0.2
30.191999 -5.5209999 -1.3380001 0.16
30.243999 -5.4320002 -1.339 0.13
30.309999 -5.3460002 -1.342 0.17
30.374001 -5.2589998 -1.344 0.12
30.445999 -5.1729999 -1.347 0.16
30.509001 -5.085 -1.349 0.28
30.551001 -5.0430002 -1.351 0.27000001
30.610001 -4.954 -1.353 0.25999999
30.667 -4.8639998 -1.355 0.25999999
30.747 -4.7779999 -1.359 0.25999999
30.834999 -4.6919999 -1.363 0.25
30.921 -4.6059999 -1.3660001 0.25
30.99 -4.5170002 -1.369 0.12
30.888 -4.4029999 -1.363 0.19
31.073 -4.3790002 -1.372 0.52999997
31.223 -4.3000002 -1.3789999 0.28999999
31.254 -4.204 -1.38 0.16
21.410999 -2.8199999 -0.88099998 0.14
21.634001 -2.78 -0.89200002 0.28999999
21.639999 -2.7119999 -0.89200002 0.30000001
21.635 -2.642 -0.89099997 0.28999999
21.646999 -2.609 -0.89099997 0.31
21.639 -2.539 -0.89099997 0.30000001
21.57 -2.4619999 -0.88700002 0.25
21.177999 -2.3510001 -0.866 0.18000001
21.677999 -2.3369999 -0.89099997 0.31
22.281 -2.3299999 -0.921 0
23.589001 -2.428 -0.98699999 0.12
24.181999 -2.4119999 -1.017 0.18000001
24.514 -2.3670001 -1.033 0.16
25.115999 -2.345 -1.063 0.1
25.889 -2.3340001 -1.102 0.11
30.976999 -2.6900001 -1.358 0.14
32.091999 -2.684 -1.413 0.14
32.044998 -2.6289999 -1.411 0.31999999
32.175999 -2.5380001 -1.4170001 0.23999999
32.471001 -2.4590001 -1.431 0.23999999
32.521 -2.3599999 -1.434 0.11
32.620998 -2.2639999 -1.438 0.14
32.706001 -2.1659999 -1.442 0.090000004
32.804001 -2.069 -1.447 0.15000001
32.870998 -1.97 -1.45 0.1
32.965 -1.924 -1.454 0.15000001
33.075001 -1.826 -1.46 0.1
33.43 -1.74 -1.477 0.079999998
34.173 -1.67 -1.5140001 0
34.245998 -1.566 -1.518 0
34.289001 -1.46 -1.52 0
34.283001 -1.352 -1.5190001 0
34.283001 -1.298 -1.5190001 0
34.331001 -1.191 -1.521 0
34.395 -1.085 -1.524 0
34.453999 -0.97899997 -1.527 0
34.494999 -0.87199998 -1.529 0
34.493 -0.76300001 -1.529 0
34.485001 -0.65499997 -1.528 0
34.473999 -0.60000002 -1.528 0
34.481998 -0.49200001 -1.528 0
34.487 -0.384 -1.528 0
34.494999 -0.27500001 -1.528 0
34.513 -0.167 -1.529 0
34.52 -0.059 -1.53 0
31.238001 0.050999999 -1.563 0
31.253 0.149 -1.564 0
31.257 0.198 -1.564 0
31.275999 0.296 -1.566 0
31.254999 0.39399999 -1.564 0
31.271999 0.493 -1.5650001 0
31.288 0.59100002 -1.566 0
31.306 0.69 -1.568 0
31.323999 0.78899997 -1.569 0
31.332001 0.838 -1.569 0
31.330999 0.93699998 -1.569 0
31.341999 1.036 -1.5700001 0
31.339001 1.1339999 -1.5700001 0
31.357 1.233 -1.571 0
31.368999 1.3329999 -1.572 0
31.371 1.431 -1.573 0
31.348 1.48 -1.571 0
31.360001 1.579 -1.572 0
31.277 1.673 -1.568 0.059999999
31.204 1.768 -1.564 0.17
31.177999 1.865 -1.563 0
31.202 1.965 -1.5650001 0
31.237 2.0650001 -1.567 0
31.226 2.1140001 -1.567 0
31.209 2.211 -1.566 0
31.200001 2.309 -1.566 0
31.202999 2.408 -1.567 0
31.198999 2.506 -1.567 0
31.183001 2.6040001 -1.566 0
31.191 2.7030001 -1.567 0
31.198 2.753 -1.568 0
31.209 2.8529999 -1.569 0
31.195999 2.95 -1.569 0
31.184999 3.0480001 -1.569 0
31.181 3.1470001 -1.569 0
31.153 3.243 -1.568 0
31.146999 3.3410001 -1.568 0
31.143999 3.3900001 -1.568 0
31.143 3.4890001 -1.569 0
31.129999 3.5869999 -1.569 0
31.139999 3.687 -1.5700001 0
31.124001 3.7839999 -1.5700001 0
31.138 3.885 -1.571 0
31.143 3.9849999 -1.572 0
31.131001 4.0339999 -1.572 0
31.139999 4.1339998 -1.573 0
31.111 4.23 -1.572 0
31.115 4.3299999 -1.573 0
31.08 4.4250002 -1.572 0
31.087999 4.526 -1.573 0
31.065001 4.6220002 -1.573 0
31.042999 4.7179999 -1.572 0
31.055 4.77 -1.574 0
31.02 4.8649998 -1.572 0.1
30.938 5.0510001 -1.569 0.33000001
31.062 5.171 -1.577 0
30.934999 5.25 -1.571 0
30.618 5.2459998 -1.553 0.13
30.111 5.257 -1.525 0.090000004
29.608999 5.2659998 -1.497 0.14
29.229 5.2930002 -1.477 0.1
29.08 5.3610001 -1.469 0.090000004
29.063 5.4520001 -1.469 0
28.976999 5.5310001 -1.465 0
29.028999 5.5879998 -1.469 0
29.035 5.684 -1.47 0
29.132999 5.7979999 -1.477 0
30.003 6.0679998 -1.528 0.14
29.955 6.1560001 -1.526 0
29.417 6.1430001 -1.4960001 0
29.344999 6.224 -1.493 0
29.357 6.2750001 -1.494 0
29.075001 6.3099999 -1.479 0
28.530001 6.2859998 -1.449 0
28.146 6.2950001 -1.428 0
31.624001 7.1739998 -1.631 0
31.487 7.2470002 -1.624 0
31.433001 7.3379998 -1.622 0
31.382 7.3790002 -1.62 0
31.363001 7.4780002 -1.62 0
31.309999 7.5700002 -1.618 0
31.191 7.645 -1.613 0
31.155001 7.7399998 -1.612 0
30.677999 7.724 -1.586 0
30.506001 7.783 -1.577 0
30.225 7.7620001 -1.561 0
29.934 7.7880001 -1.546 0
29.673 7.8200002 -1.5319999 0
29.315001 7.8239999 -1.513 0
28.927999 7.8189998 -1.4910001 0
28.542999 7.8109999 -1.47 0
28.243 7.8249998 -1.454 0
30.370001 8.5150003 -1.58 0
30.032 8.4709997 -1.561 0
29.688 8.4759998 -1.543 0
29.339001 8.4759998 -1.524 0
29.032 8.4870005 -1.507 0
28.698999 8.4870005 -1.489 0
28.374001 8.4879999 -1.472 0
28.108 8.4569998 -1.457 0
27.882 8.4849997 -1.4450001 0
27.861 8.5749998 -1.4450001 0
27.808001 8.6540003 -1.444 0
29.757999 9.3610001 -1.561 0
29.513 9.3870001 -1.548 0
29.195 9.3870001 -1.531 0
28.874001 9.3339996 -1.513 0
28.548 9.3280001 -1.495 0
28.271999 9.3369999 -1.48 0
31.833 10.62 -1.694 0
31.718 10.693 -1.6900001 0
31.711 10.801 -1.691 0
31.254 10.756 -1.666 0
31.099001 10.757 -1.658 0
31.049999 10.849 -1.6569999 0
30.521999 10.773 -1.627 0
30.419001 10.844 -1.623 0
30.205999 10.876 -1.612 0
29.872999 10.862 -1.594 0
29.663 10.892 -1.584 0
29.406 10.85 -1.569 0
29.108999 10.845 -1.553 0
28.815001 10.839 -1.538 0
28.542 10.839 -1.523 0
30.416 11.768 -1.641 0
30.306999 11.835 -1.637 0
30.186001 11.897 -1.632 0
33.122002 13.112 -1.811 0
33.126999 13.234 -1.814 0
33.146 13.363 -1.818 0
33.145 13.483 -1.8200001 0
33.134998 13.601 -1.822 0
33.214001 13.756 -1.83 0
33.188 13.867 -1.831 0
33.223 13.943 -1.834 0
33.241001 14.073 -1.8380001 0
33.276001 14.211 -1.8430001 0
33.294998 14.344 -1.847 0
33.313999 14.476 -1.851 0
33.363998 14.622 -1.857 0
33.411999 14.706 -1.8609999 0
33.410999 14.831 -1.864 0
33.387001 14.946 -1.865 0
33.387001 15.072 -1.868 0
33.389999 15.2 -1.8710001 0
33.389 15.326 -1.874 0
33.41 15.463 -1.8789999 0
33.439999 15.54 -1.882 0
33.483002 15.689 -1.888 0
33.473999 15.812 -1.89 0
33.534 15.97 -1.897 0
33.602001 16.132 -1.905 0
33.646999 16.284 -1.911 0
33.708 16.444 -1.918 0
33.778 16.544001 -1.924 0
33.831001 16.702 -1.9299999 0
33.868 16.851999 -1.936 0
33.895 16.999001 -1.941 0
33.919998 17.145 -1.946 0
33.935001 17.287001 -1.95 0
33.993 17.451 -1.957 0
34.050999 17.548 -1.9630001 0
34.088001 17.702 -1.969 0
34.115002 17.853001 -1.974 0
34.153999 18.01 -1.98 0
34.186001 18.164 -1.9859999 0
34.182999 18.301001 -1.989 0
34.187 18.441 -1.993 0
34.164001 18.568001 -1.9960001 0
34.226002 18.671 -2.0009999 0
34.283001 18.841999 -2.0090001 0
34.264999 18.972 -2.0120001 0
34.051998 18.995001 -2.0020001 0
33.841999 19.017 -1.992 0
33.591 19.016001 -1.979 0
33.415001 19.055 -1.972 0
33.230999 19.018999 -1.962 0
33.013 19.033001 -1.952 0
32.860001 19.082001 -1.946 0
32.759998 19.162001 -1.943 0
32.698002 19.264 -1.943 0
32.639 19.368 -1.943 0
32.605 19.417 -1.943 0
32.549 19.521999 -1.943 0
32.528999 19.649 -1.946 0
32.472 19.754 -1.946 0
32.386002 19.841999 -1.944 0
32.283001 19.917999 -1.942 0
32.040001 19.908001 -1.9299999 0
31.931 19.91 -1.925 0
31.976 20.077999 -1.932 0
32.084 20.285999 -1.943 0
32.013 20.382 -1.943 0
31.945 20.481001 -1.943 0
31.906 20.597 -1.944 0
30.607 19.896 -1.8609999 0
30.631001 19.98 -1.865 0
31.667 20.797001 -1.939 0
31.593 20.891001 -1.939 0
31.518999 20.983999 -1.938 0
31.455999 21.084999 -1.938 0
31.393 21.186001 -1.938 0
29.297001 19.908001 -1.8 0
29.285 19.968 -1.801 0
31.237 21.440001 -1.939 0
31.179001 21.545 -1.9400001 0
31.09 21.628 -1.938 0
30.983999 21.698999 -1.936 0
30.937 21.811001 -1.937 0
30.882999 21.919001 -1.938 0.1
27.934 19.961 -1.738 0
30.768 22.056 -1.937 0
30.684 22.142 -1.936 0
30.628 22.247999 -1.937 0
30.577 22.358 -1.939 0
30.521 22.465 -1.9400001 0
30.492001 22.591 -1.943 0
26.641001 19.872 -1.676 0.090000004
26.631001 19.93 -1.678 0
30.292999 22.813999 -1.941 0
30.194 22.889 -1.939 0
25.617001 19.552 -1.619 0
25.451 19.552 -1.612 0.1
25.289 19.554001 -1.604 0.2
25.120001 19.549999 -1.597 0.25
25.004 19.523001 -1.591 0.19
24.841999 19.521999 -1.5829999 0.18000001
24.683001 19.524 -1.576 0.20999999
24.527 19.525 -1.5700001 0.18000001
24.379 19.534 -1.563 0.31
24.228001 19.537001 -1.557 0.2
24.063999 19.530001 -1.549 0.34
23.952999 19.503 -1.543 0.22
23.811001 19.511999 -1.538 0.22
23.658001 19.511999 -1.531 0.2
23.521999 19.524 -1.525 0.31
23.375999 19.527 -1.5190001 0.27000001
23.236 19.535 -1.513 0.1
