# .PCD v0.7 - Point Cloud Data file format
VERSION 0.7
FIELDS x y z intensity
SIZE 4 4 4 4
TYPE F F F F
COUNT 1 1 1 1
WIDTH 1405
HEIGHT 1
VIEWPOINT 0 0 0 1 0 0 0
POINTS 1405
DATA ascii
-9.1870003 11.324 -1.053 0.40000001
-9.2270002 11.302 -1.053 0.36000001
-9.2589998 11.304 -1.0549999 0.38
-9.3030005 11.286 -1.056 0.43000001
-9.3570004 11.278 -1.059 0.31999999
-9.3889999 11.245 -1.058 0.41999999
-9.4309998 11.223 -1.059 0.41
-9.4680004 11.195 -1.059 0.38
-9.5139999 11.179 -1.061 0.38
-9.5410004 11.175 -1.062 0.41
-9.592 11.163 -1.064 0.30000001
-9.6350002 11.142 -1.0650001 0.47
-9.6850004 11.129 -1.067 0.40000001
-9.7290001 11.109 -1.068 0.41
-9.7629995 11.077 -1.068 0.30000001
-9.8070002 11.057 -1.069 0.37
-9.8319998 11.05 -1.071 0.46000001
-9.8839998 11.039 -1.073 0.34999999
-9.9230003 11.012 -1.073 0.40000001
-9.9680004 10.993 -1.075 0.40000001
-10.031 10.992 -1.0779999 0.36000001
-10.087 10.984 -1.081 0.38999999
-11.461 12.436 -1.253 0.19
-11.469 12.366 -1.249 0.63999999
-11.52 12.266 -1.2460001 0.63
-11.563 12.234 -1.2460001 0.30000001
-11.535 12.129 -1.238 0.44
-11.587 12.107 -1.24 0.38
-11.603 12.086 -1.239 0.46000001
-11.668 12.076 -1.243 0.34999999
-11.689 12.022 -1.24 0.46000001
-11.728 11.987 -1.2410001 0.36000001
-11.753 11.937 -1.239 0.56999999
-11.818 11.929 -1.243 0.49000001
-10.068 10.104 -1.025 0.28999999
-10.109 10.113 -1.028 0.31999999
-10.17 10.111 -1.0319999 0.31999999
-10.221 10.097 -1.034 0.33000001
-10.282 10.094 -1.038 0.41
-10.354 10.101 -1.0420001 0.34999999
-10.407 10.089 -1.045 0.34999999
-10.46 10.077 -1.048 0.36000001
-10.512 10.095 -1.052 0.31
-10.567 10.084 -1.0549999 0.38999999
-10.629 10.079 -1.058 0.37
-10.705 10.088 -1.063 0.34999999
-10.766 10.081 -1.067 0.36000001
-10.821 10.069 -1.0700001 0.36000001
-10.898 10.077 -1.075 0.34999999
-10.942 10.086 -1.0779999 0.34
-11.012 10.086 -1.0829999 0.34
-11.086 10.09 -1.0880001 0.34
-11.143 10.078 -1.091 0.38999999
-11.204 10.07 -1.094 0.36000001
-11.279 10.073 -1.099 0.37
-11.357 10.078 -1.104 0.36000001
-12.703 11.233 -1.257 0.25
-12.75 11.204 -1.258 0.28
-12.825 11.197 -1.263 0.28
-12.858 11.156 -1.262 0.41999999
-12.898 11.119 -1.263 0.38999999
-12.934 11.08 -1.263 0.36000001
-12.987 11.055 -1.265 0.38999999
-13.035 11.06 -1.2690001 0.41
-13.074 11.023 -1.2690001 0.41
-13.112 10.984 -1.2690001 0.40000001
-13.165 10.958 -1.271 0.38999999
-13.2 10.918 -1.272 0.44999999
-13.253 10.892 -1.274 0.31
-13.298 10.859 -1.275 0.51999998
-13.335 10.854 -1.277 0.33000001
-13.363 10.807 -1.276 0.56
-13.422 10.785 -1.279 0.33000001
-13.457 10.744 -1.279 0.51999998
-13.518 10.723 -1.2819999 0.33000001
-13.561 10.688 -1.283 0.55000001
-13.584 10.672 -1.284 0.31999999
-13.625 10.635 -1.285 0.50999999
-13.683 10.612 -1.288 0.28999999
-13.714 10.566 -1.2869999 0.46000001
-13.761 10.534 -1.289 0.5
-13.827 10.516 -1.2920001 0.28
-13.848 10.463 -1.291 0.51999998
-13.917 10.447 -1.295 0.28
-13.489 10.094 -1.247 0.47
-13.499 10.035 -1.245 0.62
-14.034 10.363 -1.299 0.41
-14.091 10.337 -1.301 0.40000001
-14.121 10.291 -1.301 0.38
-14.163 10.254 -1.302 0.43000001
-14.204 10.249 -1.3049999 0.33000001
-14.246 10.211 -1.306 0.47
-14.294 10.178 -1.307 0.31999999
-14.337 10.141 -1.309 0.47999999
-14.388 10.11 -1.311 0.30000001
-14.425 10.068 -1.311 0.46000001
-14.535 10.077 -1.319 0.44999999
-14.635 10.112 -1.3279999 0.25
-14.698 10.087 -1.331 0.38
-14.823 10.104 -1.341 0.36000001
-14.888 10.08 -1.345 0.36000001
-14.999 10.087 -1.353 0.44999999
-15.072 10.067 -1.357 0.23
-15.174 10.066 -1.364 0.46000001
-15.264 10.091 -1.372 0.22
-15.342 10.074 -1.377 0.49000001
-15.468 10.086 -1.386 0.23
-15.536 10.062 -1.39 0.43000001
-15.665 10.075 -1.4 0.30000001
-15.74 10.054 -1.405 0.44999999
-15.878 10.071 -1.415 0.31
-15.931 10.07 -1.419 0.36000001
-16.084 10.096 -1.431 0.34
-16.143999 10.063 -1.434 0.41
-16.243999 10.054 -1.441 0.37
-16.346001 10.047 -1.448 0.34
-16.448999 10.039 -1.456 0.31
-16.549 10.064 -1.464 0.34
-16.664 10.062 -1.472 0.38999999
-16.768999 10.053 -1.48 0.36000001
-16.882999 10.05 -1.488 0.34
-16.997999 10.046 -1.4960001 0.31999999
-17.118999 10.045 -1.505 0.41
-17.247 10.047 -1.515 0.30000001
-17.356001 10.074 -1.524 0.34999999
-17.493 10.08 -1.535 0.34
-17.620001 10.079 -1.544 0.30000001
-17.75 10.08 -1.554 0.36000001
-17.858 10.067 -1.561 0.27000001
-17.965 10.052 -1.569 0.31
-18.061001 10.032 -1.575 0.46000001
-18.177999 10.059 -1.585 0.28999999
-18.298 10.051 -1.594 0.31999999
-18.393 10.028 -1.6 0.38
-18.559 10.043 -1.613 0.28
-18.698 10.042 -1.624 0.25
-18.833 10.038 -1.6339999 0.5
-18.976 10.037 -1.6440001 0.30000001
-19.094999 10.062 -1.655 0.38
-19.202999 10.042 -1.6619999 0.34
-19.396999 10.066 -1.678 0.28999999
-19.583 10.084 -1.693 0.37
-19.673 10.052 -1.698 0.36000001
-19.785 10.031 -1.706 0.31
-19.982 10.052 -1.722 0.36000001
-20.131001 10.087 -1.735 0.34999999
-20.282 10.083 -1.7460001 0.40000001
-20.35 10.037 -1.75 0.27000001
-20.551001 10.056 -1.766 0.34999999
-20.635 10.016 -1.771 0.36000001
-20.688 9.9619999 -1.773 0.30000001
-20.750999 9.9119997 -1.776 0.41
-20.819 9.9040003 -1.781 0.31999999
-20.882 9.8540001 -1.784 0.40000001
-20.938999 9.8000002 -1.786 0.34999999
-21.099001 9.7950001 -1.799 0.44
-21.198999 9.7600002 -1.8049999 0.37
-21.379999 9.7620001 -1.8200001 0.34999999
-21.483999 9.7690001 -1.8279999 0.38
-21.587 9.7340002 -1.835 0.41999999
-21.725 9.7139997 -1.845 0.27000001
-21.820999 9.6739998 -1.851 0.47999999
-21.938999 9.6440001 -1.859 0.34999999
-22.035 9.6040001 -1.865 0.36000001
-22.125999 9.5609999 -1.8710001 0.34
-22.225 9.5620003 -1.8789999 0.44999999
-22.354 9.5340004 -1.888 0.31
-22.409 9.4750004 -1.891 0.31
-22.472 9.4180002 -1.8940001 0.28999999
-22.546 9.3660002 -1.898 0.23999999
-22.570999 9.2930002 -1.897 0.15000001
-22.608 9.2259998 -1.898 0.47999999
-22.665001 9.2069998 -1.902 0.19
-22.688 9.1339998 -1.902 0.23
-22.737 9.0699997 -1.903 0.18000001
-22.792999 9.0100002 -1.906 0.23
-22.808001 8.9329996 -1.905 0.2
-22.825001 8.8570004 -1.904 0.19
-22.892 8.8000002 -1.9069999 0.38999999
-22.969 8.7889996 -1.913 0.20999999
-23.021 8.7259998 -1.915 0.23999999
-23.072001 8.6619997 -1.918 0.20999999
-23.143 8.6059999 -1.9220001 0.18000001
-23.226 8.5539999 -1.927 0.41
-23.280001 8.4910002 -1.929 0.18000001
-23.393 8.4490004 -1.937 0.30000001
-23.478001 8.4370003 -1.944 0.37
-23.534 8.3739996 -1.946 0.22
-23.613001 8.3190002 -1.951 0.18000001
-23.714001 8.2709999 -1.9579999 0.41
-23.784 8.2110004 -1.962 0.23999999
-23.871 8.158 -1.9680001 0.18000001
-23.986 8.1120005 -1.976 0.40000001
-24.055 8.0939999 -1.9809999 0.23999999
-24.131001 8.0349998 -1.9859999 0.19
-24.250999 7.9899998 -1.994 0.40000001
-24.343 7.9359999 -2 0.22
-24.375 7.862 -2.0009999 0.19
-24.459999 7.8039999 -2.006 0.31999999
-24.632999 7.7740002 -2.02 0.18000001
-24.709999 7.756 -2.0250001 0.33000001
-25.267 7.8429999 -2.073 0.11
-25.77 7.9099998 -2.1159999 0.18000001
-25.783001 7.8249998 -2.115 0.12
-25.768999 7.7329998 -2.112 0.14
-25.754999 7.6399999 -2.109 0.090000004
-25.771999 7.5570002 -2.108 0.090000004
-25.808001 7.5240002 -2.1099999 0.090000004
-25.841 7.4460001 -2.1110001 0.079999998
-25.857 7.362 -2.1099999 0.079999998
-25.844999 7.2709999 -2.1070001 0.090000004
-25.844999 7.184 -2.105 0.079999998
-25.843 7.0960002 -2.1029999 0.090000004
-25.855 7.0120001 -2.102 0.090000004
-25.855 6.9679999 -2.1010001 0.14
-25.849001 6.8800001 -2.099 0.090000004
-25.853001 6.7940001 -2.0969999 0
-25.872999 6.7119999 -2.0969999 0
-25.903 6.6329999 -2.098 0
-25.886999 6.5430002 -2.0940001 0
-25.916 6.4629998 -2.095 0
-25.896999 6.415 -2.0929999 0
-25.910999 6.3319998 -2.092 0
-25.923 6.2490001 -2.0910001 0
-25.923 6.1630001 -2.0899999 0
-25.910999 6.0739999 -2.0869999 0
-25.905001 5.987 -2.085 0
-25.912001 5.9460001 -2.085 0
-25.906 5.8590002 -2.082 0
-25.893 5.7709999 -2.0799999 0
-25.907 5.6880002 -2.079 0
-25.907 5.6030002 -2.0780001 0
-25.888 5.5139999 -2.0739999 0
-25.900999 5.4320002 -2.0739999 0
-25.902 5.3889999 -2.073 0
-25.885 5.3010001 -2.0699999 0
-25.882 5.2160001 -2.069 0
-25.863001 5.1279998 -2.066 0
-25.896999 5.0500002 -2.0669999 0
-25.882999 4.9629998 -2.0650001 0
-25.924 4.8860002 -2.0669999 0
-25.891001 4.8379998 -2.063 0
-25.923 4.7600002 -2.0650001 0
-25.927999 4.677 -2.0639999 0
-25.893999 4.586 -2.0599999 0
-25.906 4.5050001 -2.0599999 0
-25.91 4.4219999 -2.059 0
-25.92 4.3400002 -2.0580001 0
-25.879999 4.2909999 -2.0539999 0
-25.885 4.2080002 -2.0539999 0
-25.888 4.1259999 -2.053 0
-25.858 4.0380001 -2.049 0.12
-25.844999 3.9519999 -2.0469999 0.19
-25.851 3.8699999 -2.046 0.16
-25.858999 3.7880001 -2.046 0
-25.85 3.7460001 -2.0439999 0
-25.839001 3.661 -2.043 0
-25.834999 3.5780001 -2.0409999 0
-25.815001 3.493 -2.0380001 0
-25.819 3.411 -2.0380001 0
-25.812 3.3269999 -2.036 0
-25.830999 3.247 -2.0369999 0
-25.82 3.2049999 -2.036 0
-25.812 3.1210001 -2.0339999 0
-25.812 3.039 -2.033 0
-25.813 2.957 -2.033 0
-25.82 2.8759999 -2.0320001 0
-25.820999 2.7939999 -2.0320001 0
-25.818001 2.711 -2.0309999 0
-25.801001 2.6689999 -2.029 0
-25.806999 2.5869999 -2.029 0
-25.787001 2.5039999 -2.026 0
-25.777 2.421 -2.0250001 0
-25.775999 2.339 -2.0239999 0
-25.764 2.256 -2.0220001 0
-25.739 2.1730001 -2.02 0
-25.733999 2.132 -2.0190001 0
-25.725 2.05 -2.0179999 0
-25.718 1.9680001 -2.016 0
-25.719999 1.887 -2.016 0
-25.726999 1.806 -2.016 0
-25.767 1.727 -2.0190001 0
-25.778999 1.688 -2.02 0.11
-27.01 1.682 -2.125 0
-27.000999 1.596 -2.1240001 0
-27.073 1.515 -2.1300001 0
-27.104 1.431 -2.132 0
-27.136 1.347 -2.135 0
-27.167999 1.263 -2.1370001 0
-27.23 1.223 -2.142 0
-27.238001 1.138 -2.1429999 0
-27.275 1.054 -2.1459999 0
-27.302 0.96899998 -2.148 0
-27.319 0.88300002 -2.1489999 0
-27.351 0.79799998 -2.151 0
-27.365999 0.713 -2.152 0
-27.395 0.67000002 -2.155 0
-27.43 0.58499998 -2.158 0
-27.450001 0.49900001 -2.1589999 0
-27.475 0.41299999 -2.161 0
-27.476999 0.32699999 -2.161 0.12
-27.534 0.155 -2.1659999 0.50999999
-27.606001 0.112 -2.1719999 0
-27.636 0.025 -2.175 0
-27.666 -0.061999999 -2.177 0
-27.737 -0.149 -2.184 0
-27.743 -0.237 -2.184 0
-27.789 -0.324 -2.188 0
-27.841999 -0.41299999 -2.1930001 0
-27.903 -0.45699999 -2.198 0
-27.971001 -0.546 -2.204 0
-28.007 -0.63499999 -2.207 0
-28.049 -0.72399998 -2.211 0
-28.084 -0.81400001 -2.214 0
-28.094 -0.90200001 -2.2149999 0
-28.103001 -0.991 -2.2160001 0
-28.097 -1.035 -2.2160001 0
-28.114 -1.124 -2.2179999 0
-28.115999 -1.2130001 -2.2179999 0
-28.146 -1.302 -2.221 0
-28.174999 -1.393 -2.224 0
-28.221001 -1.484 -2.2279999 0
-28.256001 -1.575 -2.2320001 0
-28.268999 -1.62 -2.233 0
-28.298 -1.711 -2.2360001 0
-28.323999 -1.802 -2.2390001 0
-28.360001 -1.8940001 -2.2420001 0
-28.396 -1.9859999 -2.2460001 0
-28.424999 -2.0769999 -2.2490001 0
-28.468 -2.171 -2.253 0
-28.504 -2.2179999 -2.257 0
-28.531 -2.3110001 -2.26 0
-28.542999 -2.402 -2.2609999 0
-28.577 -2.4949999 -2.2650001 0
-28.605 -2.5880001 -2.2679999 0
-28.653999 -2.684 -2.273 0
-28.68 -2.7320001 -2.276 0
-28.726999 -2.8269999 -2.2809999 0
-28.724001 -2.918 -2.2809999 0
-28.736 -3.0109999 -2.283 0
-28.761999 -3.105 -2.286 0
-28.774 -3.197 -2.2880001 0
-28.785999 -3.29 -2.29 0
-28.832001 -3.342 -2.2939999 0
-28.837 -3.434 -2.296 0
-28.862 -3.529 -2.299 0
-28.862 -3.6210001 -2.3 0
-28.889999 -3.717 -2.303 0
-28.875999 -3.8069999 -2.303 0
-28.903999 -3.9030001 -2.306 0
-28.919001 -3.9519999 -2.3080001 0
-28.917 -4.0440001 -2.309 0
-28.947001 -4.1409998 -2.313 0
-28.976999 -4.2379999 -2.3169999 0.13
-28.972 -4.3309999 -2.3169999 0.090000004
-29.004999 -4.4289999 -2.3210001 0.15000001
-29.011 -4.5229998 -2.323 0.23
-29.075001 -4.5799999 -2.329 0.15000001
-29.056 -4.671 -2.329 0.23999999
-28.784 -4.7189999 -2.3069999 0.36000001
-28.492001 -4.763 -2.2820001 0.17
-27.85 -4.7449999 -2.2279999 0.18000001
-27.496 -4.7740002 -2.198 0.16
-27.165001 -4.8039999 -2.171 0.20999999
-26.947001 -4.809 -2.152 0.28999999
-26.767 -4.8629999 -2.138 0.41
-26.795 -4.9549999 -2.142 0.34
-26.695 -5.0240002 -2.1340001 0.34
-26.509001 -5.0749998 -2.119 0.31
-26.299 -5.1199999 -2.102 0.28999999
-26.233999 -5.1929998 -2.098 0.38999999
-26.174999 -5.224 -2.0940001 0.31
-26.127001 -5.3000002 -2.0910001 0.38
-25.958 -5.3499999 -2.0769999 0.27000001
-25.799 -5.402 -2.0650001 0.49000001
-25.108 -5.3390002 -2.006 0.18000001
-25.42 -5.4889998 -2.0350001 0.31
-25.312 -5.507 -2.026 0.33000001
-25.194 -5.5640001 -2.017 0.38
-25.101999 -5.6269999 -2.0109999 0.38999999
-25.011999 -5.6890001 -2.0039999 0.31
-24.858 -5.7360001 -1.992 0.47999999
-21.915001 -5.1259999 -1.734 0.17
-24.559999 -5.8299999 -1.969 0.30000001
-24.485001 -5.8530002 -1.9630001 0.37
-24.502001 -5.9380002 -1.966 0.31999999
-24.274 -5.9629998 -1.948 0.5
-19.584999 -4.9369998 -1.535 0.31
-19.598 -5.006 -1.538 0.41999999
-19.6 -5.072 -1.539 0.47999999
-19.643999 -5.1160002 -1.544 0.38
-19.652 -5.1849999 -1.546 0.50999999
-19.688 -5.2600002 -1.551 0.38999999
-19.694 -5.3280001 -1.553 0.52999997
-19.719999 -5.402 -1.557 0.38999999
-19.818001 -5.4959998 -1.567 0.64999998
-23.542 -6.6139998 -1.901 0.2
-23.534 -6.651 -1.901 0.37
-23.542 -6.7329998 -1.904 0.31999999
-23.524 -6.8080001 -1.904 0.50999999
-23.533001 -6.8909998 -1.9069999 0.31
-16.916 -5.0040002 -1.3150001 0.23999999
-23.518 -7.0479999 -1.91 0.36000001
-23.582001 -7.1469998 -1.9170001 0.41
-23.589001 -7.1900001 -1.919 0.34
-23.658001 -7.2930002 -1.927 0.41
-23.629 -7.3649998 -1.927 0.30000001
-23.598 -7.4369998 -1.926 0.43000001
-23.625999 -7.527 -1.931 0.27000001
-23.587 -7.5970001 -1.929 0.27000001
-23.577 -7.6750002 -1.931 0.23
-23.561001 -7.711 -1.9299999 0.36000001
-23.556999 -7.7919998 -1.932 0.23
-23.516001 -7.8600001 -1.931 0.31999999
-23.474001 -7.928 -1.929 0.19
-23.452999 -8.0030003 -1.929 0.36000001
-23.412001 -8.0719995 -1.928 0.2
-23.384001 -8.1029997 -1.927 0.30000001
-23.349001 -8.1730003 -1.926 0.34
-23.329 -8.2489996 -1.926 0.25
-23.254 -8.3039999 -1.9220001 0.25
-23.257999 -8.3879995 -1.925 0.16
-23.219 -8.4560003 -1.923 0.49000001
-23.198 -8.5310001 -1.924 0.23
-23.171 -8.5629997 -1.923 0.14
-13.337 -4.9650002 -1.022 0.20999999
-13.228 -4.9710002 -1.0140001 0.55000001
-23.052 -8.7670002 -1.919 0.22
-23.004 -8.8310003 -1.9170001 0.20999999
-15.033 -5.816 -1.1849999 0.18000001
-14.94 -5.8340001 -1.178 0.38
-14.873 -5.835 -1.1720001 0.28999999
-14.812 -5.8639998 -1.169 0.44
-14.775 -5.9029999 -1.1670001 0.36000001
-14.773 -5.9569998 -1.168 0.38999999
-14.747 -6 -1.168 0.44
-14.708 -6.0380001 -1.166 0.40000001
-14.671 -6.0760002 -1.164 0.38999999
-14.654 -6.0960002 -1.163 0.41999999
-14.646 -6.1469998 -1.164 0.41
-14.657 -6.2059999 -1.1670001 0.43000001
-14.717 -6.2859998 -1.175 0.28999999
-14.794 -6.3740001 -1.184 0.60000002
-14.867 -6.461 -1.192 0.31
-11.852 -5.1900001 -0.91100001 0.49000001
-11.844 -5.2080002 -0.91100001 0.19
-20.652 -9.1800003 -1.742 0.31
-20.462999 -9.1730003 -1.727 0.33000001
-20.271 -9.1630001 -1.711 0.31999999
-20.104 -9.1639996 -1.698 0.38999999
-19.92 -9.1549997 -1.684 0.28
-19.754999 -9.1549997 -1.671 0.28999999
-19.596001 -9.1190004 -1.6569999 0.41999999
-19.438 -9.1190004 -1.645 0.30000001
-19.268999 -9.1129999 -1.631 0.31
-19.120001 -9.1160002 -1.62 0.38999999
-18.962999 -9.1149998 -1.608 0.36000001
-18.797001 -9.1070004 -1.595 0.37
-18.643999 -9.0699997 -1.581 0.31999999
-18.490999 -9.066 -1.569 0.34999999
-18.35 -9.0690002 -1.559 0.38
-18.195999 -9.0640001 -1.5470001 0.30000001
-18.049999 -9.0620003 -1.535 0.37
-12.297 -6.2610002 -0.98500001 0.64999998
-17.615 -9.0170002 -1.5 0.27000001
-17.490999 -9.0229998 -1.4910001 0.30000001
-17.355 -9.0209999 -1.48 0.31999999
-17.201 -9.0100002 -1.4680001 0.36000001
-17.08 -9.0150003 -1.459 0.31999999
-16.944 -9.0109997 -1.449 0.27000001
-16.812 -9.0089998 -1.439 0.44
-16.688999 -8.9759998 -1.428 0.36000001
-16.565001 -8.9759998 -1.419 0.36000001
-16.441999 -8.9770002 -1.409 0.31999999
-16.316 -8.974 -1.4 0.30000001
-16.198999 -8.9759998 -1.391 0.43000001
-16.091999 -8.9829998 -1.383 0.41999999
-15.963 -8.9770002 -1.373 0.27000001
-15.854 -8.948 -1.364 0.33000001
-15.744 -8.9510002 -1.3559999 0.46000001
-15.612 -8.941 -1.346 0.30000001
-15.498 -8.9399996 -1.337 0.31999999
-15.408 -8.9530001 -1.331 0.44
-15.266 -8.9350004 -1.3200001 0.28
-15.16 -8.9040003 -1.3099999 0.40000001
-15.054 -8.9060001 -1.303 0.36000001
-14.949 -8.9069996 -1.295 0.30000001
-14.838 -8.9029999 -1.2869999 0.36000001
-14.755 -8.9169998 -1.281 0.31999999
-14.634 -8.9060001 -1.272 0.43000001
-14.526 -8.9029999 -1.2640001 0.33000001
-14.432 -8.8769999 -1.256 0.38
-14.335 -8.8789997 -1.249 0.38
-14.242 -8.8839998 -1.242 0.38
-14.117 -8.8669996 -1.232 0.28999999
-14.027 -8.8719997 -1.226 0.40000001
-13.913 -8.8610001 -1.217 0.37
-13.81 -8.8559999 -1.209 0.31
-13.742 -8.8430004 -1.204 0.41999999
-13.627 -8.8299999 -1.1950001 0.30000001
-13.531 -8.8280001 -1.188 0.30000001
-13.449 -8.8339996 -1.182 0.36000001
-13.368 -8.8409996 -1.177 0.38999999
-13.272 -8.8369999 -1.17 0.36000001
-13.18 -8.8360004 -1.163 0.28999999
-13.095 -8.809 -1.156 0.40000001
-13.006 -8.8079996 -1.149 0.41
-12.919 -8.8079996 -1.143 0.41
-12.824 -8.8030005 -1.136 0.41
-12.734 -8.8000002 -1.13 0.41999999
-12.648 -8.7989998 -1.123 0.33000001
-12.563 -8.7980003 -1.117 0.36000001
-12.498 -8.7819996 -1.112 0.34999999
-12.411 -8.7790003 -1.1059999 0.41999999
-12.346 -8.7910004 -1.102 0.38
-12.247 -8.7790003 -1.094 0.44999999
-12.156 -8.7720003 -1.0880001 0.25
-12.055 -8.7559996 -1.08 0.47999999
-11.985 -8.7329998 -1.074 0.41
-11.904 -8.7320004 -1.068 0.33000001
-11.817 -8.7259998 -1.062 0.43000001
-11.752 -8.7340002 -1.058 0.28999999
-11.665 -8.7270002 -1.051 0.43000001
-11.623 -8.7519999 -1.05 0.25999999
-11.583 -8.7790003 -1.048 0.56
-11.58 -8.8059998 -1.05 0.25999999
-11.532 -8.8260002 -1.0470001 0.52999997
-11.522 -8.8760004 -1.049 0.27000001
-11.028 -8.5500002 -0.99900001 0.46000001
-11.003 -8.5860004 -0.99900001 0.38999999
-10.974 -8.6190004 -0.99900001 0.44
-10.946 -8.6520004 -0.99800003 0.47999999
-10.923 -8.6619997 -0.99699998 0.54000002
-10.885 -8.6879997 -0.99599999 0.56999999
-10.862 -8.7250004 -0.99699998 0.40000001
-10.819 -8.7469997 -0.995 0.55000001
-10.807 -8.7939997 -0.99699998 0.38
-10.77 -8.8199997 -0.99599999 0.41999999
-10.739 -8.8509998 -0.995 0.41
-10.725 -8.868 -0.995 0.41
-10.665 -8.875 -0.99199998 0.68000001
-10.651 -8.9200001 -0.99299997 0.23
-10.63 -8.96 -0.99400002 0.41
-10.593 -8.9849997 -0.99299997 0.43000001
-10.547 -9.0030003 -0.991 0.63999999
-10.529 -9.0450001 -0.99199998 0.37
-10.913 -9.4060001 -1.0369999 0.44
-10.921 -9.4729996 -1.0420001 0.18000001
-10.57 -9.2259998 -1.005 0.69999999
-10.533 -9.2530003 -1.0039999 0.31999999
-10.498 -9.2799997 -1.0039999 0.44999999
-10.474 -9.3170004 -1.0039999 0.37
-10.465 -9.3389997 -1.005 0.31999999
-10.438 -9.375 -1.005 0.47
-10.409 -9.4069996 -1.005 0.46000001
-10.375 -9.4359999 -1.005 0.43000001
-10.339 -9.4630003 -1.0039999 0.63999999
-10.313 -9.4980001 -1.0039999 0.63
-10.28 -9.5279999 -1.0039999 0.63999999
-10.263 -9.5430002 -1.0039999 0.63999999
-10.233 -9.5749998 -1.0039999 0.64999998
-10.192 -9.5959997 -1.002 0.47
-10.169 -9.6350002 -1.003 0.38999999
-10.138 -9.6669998 -1.003 0.64999998
-10.091 -9.6820002 -1.001 0.75999999
-10.057 -9.7110004 -1.001 0.47999999
-10.041 -9.7250004 -1.001 0.44
-10.017 -9.7639999 -1.001 0.19
-9.9790001 -9.7880001 -1.001 0.51999998
-9.9540005 -9.8249998 -1.001 0.33000001
-9.9320002 -9.8649998 -1.002 0.34999999
-9.8870001 -9.882 -1.001 0.61000001
-9.8559999 -9.9130001 -1.001 0.33000001
-9.8400002 -9.9280005 -1.001 0.43000001
-9.8210001 -9.9720001 -1.002 0.36000001
-9.802 -10.015 -1.0039999 0.50999999
-10.039 -10.322 -1.0369999 0.37
-10.005 -10.352 -1.0369999 0.34
-9.9720001 -10.384 -1.0369999 0.41
-9.9519997 -10.428 -1.038 0.31
-9.9300003 -10.438 -1.0369999 0.49000001
-9.9040003 -10.476 -1.038 0.28999999
-9.8699999 -10.506 -1.038 0.44999999
-9.8450003 -10.546 -1.039 0.36000001
-9.8009996 -10.565 -1.038 0.43000001
-9.7650003 -10.593 -1.0369999 0.44999999
-9.7519999 -10.612 -1.038 0.31
-9.717 -10.641 -1.038 0.44999999
-9.6789999 -10.666 -1.0369999 0.38
-9.6540003 -10.707 -1.038 0.34
-9.618 -10.734 -1.038 0.47
-9.5860004 -10.766 -1.038 0.36000001
-9.552 -10.796 -1.038 0.40000001
-9.5439997 -10.821 -1.039 0.30000001
-9.5100002 -10.851 -1.039 0.47
-9.4910002 -10.899 -1.041 0.38999999
-9.4960003 -10.974 -1.0470001 0.28999999
-9.4940004 -11.042 -1.051 0.5
-9.4940004 -11.112 -1.0549999 0.34
-9.4969997 -11.186 -1.0599999 0.34
-9.559 -11.296 -1.071 0.56
-14.095 -16.783001 -1.683 0.2
-14.007 -16.784 -1.678 0.23
-9.7930002 -11.798 -1.117 0.41
-13.908 -16.879999 -1.679 0.31999999
-13.788 -16.841999 -1.67 0.19
-9.8170004 -12.019 -1.133 0.37
-13.791 -17.009001 -1.681 0.36000001
-9.79 -12.141 -1.14 0.20999999
-9.8179998 -12.254 -1.149 0.34
-13.662 -17.177999 -1.686 0.34
-9.7869997 -12.373 -1.155 0.19
-9.8179998 -12.493 -1.165 0.38999999
-13.441 -17.174999 -1.674 0.25
-13.502 -17.365 -1.6900001 0.19
-9.842 -12.729 -1.182 0.41
-13.385 -17.440001 -1.689 0.23
-13.27 -17.403 -1.6799999 0.37
-9.8310003 -12.966 -1.198 0.33000001
-9.849 -13.075 -1.206 0.31
-13.113 -17.48 -1.677 0.23
-7.691 -10.302 -0.90399998 0.28
-7.6259999 -10.281 -0.89899999 0.38
-7.5799999 -10.288 -0.89700001 0.37
-7.5349998 -10.294 -0.89600003 0.44999999
-7.5089998 -10.325 -0.89600003 0.31
-7.46 -10.326 -0.89399999 0.58999997
-7.4489999 -10.346 -0.89499998 0.27000001
-7.4060001 -10.355 -0.89300001 0.51999998
-7.3850002 -10.394 -0.89499998 0.27000001
-7.3499999 -10.414 -0.89499998 0.51999998
-7.3400002 -10.47 -0.898 0.30000001
-7.3039999 -10.488 -0.898 0.50999999
-7.3200002 -10.547 -0.903 0.34
-7.3150001 -10.611 -0.90700001 0.61000001
-11.984 -17.531 -1.625 0.28999999
-11.829 -17.42 -1.609 0.23
-9.9200001 -14.7 -1.324 0.27000001
-9.9110003 -14.788 -1.329 0.47999999
-9.9809999 -14.993 -1.347 0.23
-11.576 -17.457001 -1.6 0.34
-11.573 -17.572001 -1.608 0.31999999
-11.527 -17.622999 -1.609 0.34
-11.465 -17.649 -1.608 0.20999999
-6.5770001 -10.174 -0.83999997 0.34999999
-6.5440001 -10.193 -0.83999997 0.34999999
-9.9960003 -15.704 -1.399 0.28
-10.028 -15.809 -1.408 0.28999999
-10.031 -15.925 -1.4170001 0.33000001
-6.5689998 -10.559 -0.86799997 0.50999999
-10.04 -16.278 -1.443 0.34
-10.022 -16.364 -1.449 0.27000001
-10.483 -17.24 -1.534 0.30000001
-10.148 -16.747 -1.482 0.28999999
-10.23 -17.004 -1.505 0.25999999
-10.293 -17.232 -1.524 0.33000001
-10.235 -17.257 -1.524 0.34
-10.152 -17.240999 -1.5190001 0.31999999
-10.075 -17.233 -1.515 0.25999999
-10.051 -17.316 -1.52 0.25
-10.071 -17.413 -1.528 0.30000001
-10.062 -17.525999 -1.536 0.28999999
-10.055 -17.643 -1.545 0.22
-10.031 -17.73 -1.55 0.31999999
-10.006 -17.815001 -1.556 0.38
-9.9720001 -17.886 -1.559 0.38999999
-9.9110003 -17.909 -1.559 0.38
-9.8879995 -17.933001 -1.559 0.47999999
-9.8439999 -17.987 -1.562 0.27000001
-7.085 -13.029 -1.074 0.44999999
-9.8310003 -18.236 -1.58 0.31999999
-9.7720003 -18.263 -1.58 0.41
-9.7440004 -18.349001 -1.585 0.33000001
-9.7349997 -18.403 -1.589 0.47
-9.7030001 -18.483 -1.594 0.49000001
-9.5380001 -18.306 -1.573 0.25999999
-7.3779998 -14.257 -1.179 0.44
-9.4890003 -18.495001 -1.586 0.27000001
-9.4219999 -18.509001 -1.584 0.28
-9.3660002 -18.542 -1.585 0.27000001
-9.3260002 -18.535 -1.5829999 0.27000001
-9.2709999 -18.57 -1.5829999 0.28999999
-9.2180004 -18.611 -1.584 0.27000001
-9.1590004 -18.638 -1.584 0.30000001
-9.1120005 -18.690001 -1.587 0.28999999
-9.0570002 -18.728001 -1.587 0.28
-9.0209999 -18.728001 -1.586 0.20999999
-6.8410001 -14.303 -1.1619999 0.47
-6.8049998 -14.343 -1.164 0.25999999
-8.8520002 -18.83 -1.5880001 0.30000001
-8.8100004 -18.893999 -1.591 0.27000001
-8.7419996 -18.903 -1.589 0.2
-8.6820002 -18.929001 -1.589 0.38
-8.6560001 -18.952 -1.59 0.36000001
-8.6070004 -19.002001 -1.592 0.28
-8.5489998 -19.031 -1.5930001 0.27000001
-8.4960003 -19.073999 -1.594 0.27000001
-8.4499998 -19.132 -1.597 0.25999999
-8.3940001 -19.169001 -1.598 0.19
-8.3299999 -19.186001 -1.597 0.37
-8.3050003 -19.209999 -1.598 0.38
-8.2550001 -19.261999 -1.601 0.28
-8.1960001 -19.292 -1.601 0.31
-8.1429996 -19.336 -1.603 0.25
-8.0620003 -19.311001 -1.598 0.19
-7.987 -19.302 -1.595 0.18000001
-7.9060001 -19.277 -1.59 0.55000001
-7.9120002 -19.379999 -1.599 0.28
-7.836 -19.365999 -1.595 0.23
-7.7719998 -19.382999 -1.594 0.54000002
-7.724 -19.440001 -1.597 0.2
-7.658 -19.452 -1.596 0.2
-7.5599999 -19.381001 -1.587 0.47
-7.5229998 -19.468 -1.5930001 0.36000001
-7.5159998 -19.539 -1.599 0.27000001
-7.4460001 -19.542 -1.597 0.30000001
-7.3769999 -19.545 -1.595 0.27000001
-7.2979999 -19.518999 -1.59 0.25999999
-7.2160001 -19.486 -1.585 0.30000001
-7.1560001 -19.514 -1.586 0.25
-7.118 -19.504999 -1.584 0.27000001
-7.0409999 -19.482 -1.58 0.31999999
-6.9860001 -19.523001 -1.582 0.28999999
-6.9390001 -19.586 -1.585 0.30000001
-6.8920002 -19.646999 -1.589 0.47999999
-6.862 -19.761 -1.597 0.2
-6.8119998 -19.819 -1.601 0.2
-6.7820001 -19.833 -1.601 0.52999997
-6.744 -19.926001 -1.607 0.25999999
-6.6810002 -19.947001 -1.607 0.27000001
-6.5669999 -19.813 -1.5930001 0.28
-6.5139999 -19.860001 -1.596 0.19
-6.48 -19.966999 -1.604 0.19
-6.4619999 -20.128 -1.6160001 0.23
-6.4310002 -20.139999 -1.6160001 0.56999999
-6.3860002 -20.219 -1.622 0.34999999
-6.3280001 -20.256001 -1.623 0.36000001
-6.27 -20.297001 -1.625 0.44999999
-6.2129998 -20.337999 -1.627 0.31
-6.1350002 -20.311001 -1.623 0.40000001
-6.0539999 -20.273001 -1.618 0.25999999
-6.027 -20.296 -1.619 0.41999999
-5.9580002 -20.299 -1.618 0.2
-5.8520002 -20.171 -1.605 0.1
-5.7740002 -20.136999 -1.6 0.16
-5.6989999 -20.115 -1.596 0.23
-5.6259999 -20.098 -1.5930001 0.25
-5.5819998 -20.063 -1.589 0.2
-5.5120001 -20.052999 -1.587 0.25
-5.4390001 -20.032 -1.5829999 0.20999999
-5.3740001 -20.042999 -1.5829999 0.20999999
-5.2859998 -19.966 -1.575 0.12
-5.2199998 -19.969 -1.573 0.28999999
-5.152 -19.964001 -1.571 0.28
-5.1240001 -19.987 -1.573 0.31999999
-5.053 -19.969 -1.5700001 0.2
-4.9809999 -19.948999 -1.567 0.22
-4.9120002 -19.936001 -1.564 0.19
-4.8340001 -19.891001 -1.559 0.2
-4.7600002 -19.858 -1.554 0.23999999
-4.6789999 -19.791 -1.5470001 0
-4.6659999 -19.878 -1.554 0.13
-4.5970001 -19.862 -1.552 0.22
-4.5339999 -19.875999 -1.552 0.18000001
-4.4629998 -19.851 -1.548 0.34
-4.395 -19.84 -1.546 0.18000001
-4.3239999 -19.815001 -1.5420001 0.27000001
-4.257 -19.802999 -1.54 0.31
-4.2259998 -19.813 -1.541 0.33000001
-4.1620002 -19.815001 -1.54 0.34999999
-4.0929999 -19.799 -1.5369999 0.18000001
-4.026 -19.788 -1.535 0.14
-3.961 -19.783001 -1.533 0.15000001
-3.8840001 -19.723 -1.527 0.14
-3.8499999 -19.712999 -1.526 0.16
-3.7920001 -19.743 -1.527 0.16
-3.73 -19.754999 -1.527 0.30000001
-3.664 -19.749001 -1.526 0.2
-3.6010001 -19.75 -1.525 0.18000001
-3.539 -19.764999 -1.525 0.20999999
-3.4760001 -19.773001 -1.525 0.19
-3.447 -19.788 -1.526 0.20999999
-3.3829999 -19.787001 -1.525 0.18000001
-3.3239999 -19.815001 -1.526 0.22
-3.2639999 -19.839001 -1.527 0.18000001
-3.2030001 -19.857 -1.528 0.33000001
-3.138 -19.853001 -1.527 0.17
-3.079 -19.885 -1.529 0.36000001
-3.0469999 -19.888 -1.529 0.19
-2.9860001 -19.903 -1.529 0.36000001
-2.9260001 -19.934 -1.531 0.19
-2.8629999 -19.941 -1.531 0.37
-2.8 -19.941999 -1.53 0.19
-2.7390001 -19.962999 -1.531 0.37
-2.7079999 -19.971001 -1.5319999 0.18000001
-2.6459999 -19.985001 -1.5319999 0.36000001
-2.585 -20.007 -1.533 0.19
-2.5220001 -20.018999 -1.534 0.34999999
-2.4619999 -20.045 -1.535 0.18000001
-2.3989999 -20.058001 -1.536 0.36000001
-2.335 -20.054001 -1.535 0.19
-2.306 -20.075001 -1.536 0.34
-2.244 -20.091999 -1.5369999 0.19
-2.181 -20.103001 -1.5369999 0.25
-2.1170001 -20.1 -1.536 0.2
-2.0550001 -20.118999 -1.538 0.17
-1.993 -20.139 -1.539 0.38999999
-1.961 -20.136 -1.538 0.22
-1.9 -20.167999 -1.54 0.18000001
-1.8380001 -20.190001 -1.5420001 0.38999999
-1.774 -20.193001 -1.5420001 0.23
-1.712 -20.219 -1.543 0.25
-1.6569999 -20.325001 -1.552 0.23999999
-1.598 -20.389999 -1.557 0.30000001
-1.561 -20.329 -1.552 0.20999999
-1.497 -20.337999 -1.552 0.27000001
-1.432 -20.318001 -1.55 0.52999997
-1.37 -20.353001 -1.553 0.22
-1.1440001 -17.775 -1.33 0.16
-1.077 -17.598 -1.3150001 0.23
-1.015 -17.488001 -1.3049999 0.13
-0.98400003 -17.427999 -1.3 0.14
-0.92799997 -17.403 -1.2970001 0.46000001
-0.87400001 -17.417999 -1.298 0.2
-0.82200003 -17.468 -1.302 0.61000001
-0.764 -17.413 -1.2970001 0.31
-0.70899999 -17.407 -1.2970001 0.28999999
-0.65399998 -17.382999 -1.294 0.30000001
-0.62599999 -17.384001 -1.294 0.25999999
-0.57200003 -17.382 -1.294 0.31999999
-0.51700002 -17.379999 -1.294 0.25
-0.46200001 -17.354 -1.291 0.25
-0.40700001 -17.357 -1.2920001 0.28999999
-0.352 -17.344 -1.29 0.25
-0.32499999 -17.341 -1.29 0.31999999
-0.271 -17.348 -1.29 0.28
-0.21600001 -17.349001 -1.29 0.38999999
-0.162 -17.382999 -1.293 0.31
-0.107 -17.379 -1.293 0.47
-0.052999999 -17.392 -1.294 0.34999999
0.0020000001 -17.375999 -1.293 0.56999999
0.028999999 -17.384001 -1.293 0.36000001
0.083999999 -17.407 -1.295 0.46000001
0.139 -17.413 -1.296 0
0.19400001 -17.434 -1.298 0
0.249 -17.462 -1.3 0
0.30399999 -17.483 -1.302 0
0.36000001 -17.521999 -1.306 0
0.38999999 -17.605 -1.313 0
0.44999999 -17.798 -1.33 0
0.50700003 -17.843 -1.3329999 0.13
0.625 -19.712999 -1.495 0.27000001
0.68699998 -19.702999 -1.494 0.25999999
0.74800003 -19.683001 -1.492 0.25999999
0.80900002 -19.665001 -1.4910001 0.18000001
0.83700001 -19.582001 -1.484 0.52999997
0.88700002 -19.346001 -1.464 0.28
0.92699999 -18.937 -1.429 0.27000001
0.98500001 -18.9 -1.426 0.33000001
1.044 -18.881001 -1.425 0.28999999
1.102 -18.858 -1.423 0.28999999
1.13 -18.836 -1.421 0.28999999
1.189 -18.820999 -1.42 0.28999999
1.2460001 -18.789 -1.418 0.27000001
1.303 -18.754999 -1.415 0.2
1.36 -18.726999 -1.413 0.47999999
1.4170001 -18.697001 -1.411 0.13
0.78500003 -10.1 -0.67000002 0.37
0.80199999 -10.111 -0.671 0.27000001
1.561 -18.656 -1.408 0
0.87 -9.8009996 -0.64499998 0
0.90399998 -9.8400002 -0.648 0
0.93400002 -9.8210001 -0.64700001 0
0.96399999 -9.8140001 -0.64700001 0
1.0650001 -10.329 -0.69199997 0
1.098 -10.327 -0.69199997 0
1.123 -10.26 -0.68599999 0
1.154 -10.243 -0.685 0
1.184 -10.224 -0.68400002 0
1.221 -10.255 -0.68699998 0
2.283 -18.271999 -1.382 0.30000001
2.335 -18.225 -1.3789999 0.31999999
2.3889999 -18.194 -1.376 0.25
2.4449999 -18.174999 -1.375 0.27000001
2.4960001 -18.127001 -1.372 0.43000001
2.5020001 -17.959999 -1.358 0.34
2.5209999 -17.693001 -1.335 0.33000001
2.539 -17.431 -1.313 0.27000001
2.5639999 -17.222 -1.296 0.41
2.612 -17.174 -1.2920001 0.34
2.6329999 -16.957001 -1.274 0.31
2.6849999 -16.938999 -1.273 0.44
2.7149999 -16.961 -1.276 0.30000001
2.7679999 -16.948 -1.275 0.55000001
2.6340001 -15.823 -1.178 0.28
2.6470001 -15.605 -1.16 0.38999999
2.6570001 -15.374 -1.14 0.37
2.6689999 -15.16 -1.122 0.34999999
2.6589999 -14.967 -1.1059999 0.36000001
2.6730001 -14.777 -1.09 0.41999999
2.6889999 -14.606 -1.076 0.34999999
2.7 -14.415 -1.0599999 0.40000001
2.714 -14.242 -1.045 0.23
2.747 -14.171 -1.04 0.50999999
2.8 -14.205 -1.044 0.33000001
2.819 -14.185 -1.0420001 0.46000001
2.858 -14.151 -1.04 0.49000001
2.8729999 -13.999 -1.028 0.38999999
2.881 -13.817 -1.012 0.37
2.892 -13.659 -0.99900001 0.38
2.9059999 -13.516 -0.98699999 0.38999999
2.9159999 -13.361 -0.97500002 0.34
2.937 -13.356 -0.97500002 0.33000001
2.9820001 -13.359 -0.97600001 0.43000001
3.0250001 -13.353 -0.97600001 0.38999999
3.069 -13.353 -0.977 0.44
3.118 -13.375 -0.98000002 0.36000001
3.1570001 -13.351 -0.97799999 0.5
3.2019999 -13.355 -0.98000002 0.36000001
3.2279999 -13.371 -0.98100001 0.38
3.2449999 -13.26 -0.97299999 0.38
3.253 -13.115 -0.96100003 0.38
3.2639999 -12.984 -0.94999999 0.38
3.2720001 -12.847 -0.93900001 0.38999999
3.283 -12.723 -0.92799997 0.38999999
3.276 -12.613 -0.91900003 0.31999999
3.283 -12.482 -0.90799999 0.51999998
3.2909999 -12.354 -0.898 0.33000001
3.3139999 -12.286 -0.89300001 0.47
3.0350001 -10.986 -0.77899998 0.34
3.0439999 -10.889 -0.77100003 0.36000001
3.036 -10.796 -0.76300001 0.40000001
3.0409999 -10.683 -0.75400001 0.33000001
3.049 -10.587 -0.74599999 0.38999999
3.0580001 -10.495 -0.73900002 0.38
3.0639999 -10.394 -0.73000002 0.37
3.072 -10.302 -0.72299999 0.37
3.079 -10.208 -0.71600002 0.34
3.0710001 -10.127 -0.70899999 0.37
3.0810001 -10.045 -0.70200002 0.38
3.0880001 -9.9580002 -0.69499999 0.31999999
3.096 -9.8760004 -0.68900001 0.38999999
3.1029999 -9.7880001 -0.68199998 0.38
3.1110001 -9.7080002 -0.67500001 0.34999999
3.1010001 -9.6269999 -0.66799998 0.37
3.108 -9.5480003 -0.662 0.28
3.131 -9.5150003 -0.66000003 0.36000001
3.1530001 -9.4820004 -0.65799999 0.41
3.184 -9.474 -0.65799999 0.23
3.2079999 -9.4490004 -0.65700001 0.47999999
3.233 -9.4259996 -0.65600002 0.36000001
3.24 -9.3979998 -0.65399998 0.41
3.2639999 -9.3710003 -0.65200001 0.34999999
3.289 -9.3479996 -0.65100002 0.36000001
3.316 -9.3319998 -0.64999998 0.36000001
3.3410001 -9.3100004 -0.64899999 0.36000001
3.3659999 -9.2880001 -0.648 0.36000001
3.392 -9.2679996 -0.64700001 0.37
3.4030001 -9.2539997 -0.64700001 0.41999999
3.425 -9.224 -0.64499998 0.34
3.448 -9.198 -0.64300001 0.38999999
3.471 -9.1709995 -0.64200002 0.38
3.4990001 -9.158 -0.64200002 0.38
3.52 -9.1269999 -0.63999999 0.37
3.533 -9.1190004 -0.63999999 0.40000001
3.556 -9.0930004 -0.63800001 0.36000001
3.605 -9.132 -0.64300001 0.31999999
3.6589999 -9.1829996 -0.64899999 0.38
3.71 -9.2270002 -0.65399998 0.36000001
3.766 -9.2819996 -0.66000003 0.34999999
3.826 -9.3459997 -0.667 0.33000001
3.8659999 -9.3999996 -0.67299998 0.34
3.9319999 -9.4759998 -0.68099999 0.18000001
3.9719999 -9.4860001 -0.68300003 0.47
4.546 -10.753 -0.80299997 0.68000001
4.5339999 -10.633 -0.79299998 0.30000001
5.7589998 -13.373 -1.051 0.41999999
5.8150001 -13.386 -1.054 0.30000001
5.8439999 -13.395 -1.0549999 0.30000001
5.8930001 -13.393 -1.057 0.28999999
5.9429998 -13.392 -1.059 0.30000001
5.9910002 -13.386 -1.0599999 0.28999999
6.0380001 -13.378 -1.061 0.23999999
4.598 -10.034 -0.74800003 0.61000001
6.2020001 -13.347 -1.064 0.58999997
6.0739999 -12.967 -1.03 0
6.1430001 -13.009 -1.036 0
6.1830001 -12.988 -1.036 0
6.2379999 -12.997 -1.038 0
6.2620001 -12.995 -1.039 0
6.3200002 -13.011 -1.0420001 0
6.3730001 -13.016 -1.045 0
6.4260001 -13.019 -1.0470001 0
6.4780002 -13.022 -1.049 0
6.7410002 -13.443 -1.092 0
6.7690001 -13.393 -1.089 0
6.7820001 -13.366 -1.087 0.090000004
4.3000002 -8.3649998 -0.60699999 0.34
4.3260002 -8.3509998 -0.60699999 0.34
4.3559999 -8.3450003 -0.60799998 0.34
4.3740001 -8.3149996 -0.60699999 0.34
4.3779998 -8.2919998 -0.60500002 0.37
4.4039998 -8.2790003 -0.60500002 0.36000001
4.4219999 -8.2489996 -0.60399997 0.36000001
4.447 -8.2329998 -0.60299999 0.36000001
4.4689999 -8.2119999 -0.60299999 0.33000001
4.4879999 -8.1859999 -0.60100001 0.34999999
4.5089998 -8.1630001 -0.60100001 0.36000001
4.527 -8.1660004 -0.602 0.36000001
4.5409999 -8.1309996 -0.60000002 0.33000001
4.5679998 -8.1190004 -0.60000002 0.37
4.5900002 -8.099 -0.59899998 0.36000001
4.6040001 -8.0640001 -0.597 0.36000001
4.6339998 -8.0579996 -0.59799999 0.23
4.6539998 -8.0349998 -0.597 0.47
4.658 -8.0120001 -0.59600002 0.36000001
4.6789999 -7.9910002 -0.59500003 0.34999999
4.7049999 -7.9780002 -0.59500003 0.34999999
4.7249999 -7.954 -0.59399998 0.33000001
4.7470002 -7.934 -0.59399998 0.31999999
4.7870002 -7.9450002 -0.59600002 0.34
4.8169999 -7.9380002 -0.597 0.34
4.8410001 -7.9489999 -0.59899998 0.34
4.875 -7.948 -0.60000002 0.33000001
4.901 -7.934 -0.60100001 0.33000001
4.9359999 -7.9349999 -0.602 0.33000001
4.9770002 -7.9450002 -0.60500002 0.34999999
5.0019999 -7.9299998 -0.60500002 0.36000001
5.0219998 -7.9330001 -0.60600001 0.34999999
5.0599999 -7.9380002 -0.60799998 0.31999999
5.0960002 -7.9400001 -0.61000001 0.37
5.1209998 -7.9239998 -0.61000001 0.33000001
5.164 -7.9349999 -0.61299998 0.38
5.1939998 -7.927 -0.61400002 0.36000001
5.2259998 -7.9200001 -0.61500001 0.36000001
5.25 -7.9299998 -0.61699998 0.33000001
5.2859998 -7.9299998 -0.61799997 0.38
5.3169999 -7.9219999 -0.61900002 0.31999999
5.3559999 -7.927 -0.62099999 0.34999999
5.3850002 -7.9159999 -0.62199998 0.34
5.4180002 -7.9109998 -0.62300003 0.34
5.4460001 -7.9250002 -0.62599999 0.34999999
5.4790001 -7.9200001 -0.62699997 0.34
5.5159998 -7.9190001 -0.62900001 0.34999999
5.552 -7.9180002 -0.63 0.36000001
5.585 -7.9120002 -0.63099998 0.34
5.612 -7.8969998 -0.63200003 0.36000001
5.652 -7.901 -0.634 0.34999999
5.677 -7.9089999 -0.63599998 0.34999999
5.7119999 -7.9060001 -0.63700002 0.36000001
5.7529998 -7.9089999 -0.63999999 0.28999999
5.7880001 -7.9050002 -0.64099997 0.54000002
6.0960002 -8.2700005 -0.68199998 0.30000001
6.1220002 -8.2510004 -0.68199998 0.31999999
6.1789999 -8.2729998 -0.68699998 0.27000001
6.211 -8.2880001 -0.68900001 0.25
6.2399998 -8.2720003 -0.69 0.28
6.2550001 -8.2379999 -0.68800002 0.28
6.1789999 -8.0860004 -0.67400002 0
6.1529999 -8 -0.667 0
6.0370002 -7.8000002 -0.64700001 0
6.2150002 -7.9770002 -0.66799998 0.12
6.224 -7.9619999 -0.66799998 0.11
6.316 -8.0270004 -0.67699999 0.16
6.0469999 -7.638 -0.63599998 0.14
6.402 -8.033 -0.68199998 0.090000004
6.4450002 -8.0340004 -0.68400002 0
6.5089998 -8.0620003 -0.69 0
6.5120001 -8.0389996 -0.68800002 0
6.1560001 -7.553 -0.63700002 0
6.6329999 -8.0839996 -0.69800001 0
6.7800002 -8.1569996 -0.71100003 0.19
6.8080001 -8.1389999 -0.71100003 0.30000001
6.888 -8.1809998 -0.71799999 0.31
6.9289999 -8.2040005 -0.722 0.30000001
6.9759998 -8.2080002 -0.72500002 0.28999999
7.0180001 -8.2040005 -0.727 0.28999999
7.0879998 -8.2329998 -0.73299998 0.30000001
7.1139998 -8.2110004 -0.73299998 0.30000001
7.151 -8.2019997 -0.73400003 0.18000001
7.198 -8.2030001 -0.73699999 0.49000001
7.2410002 -8.2259998 -0.741 0.23
7.2719998 -8.2089996 -0.74199998 0.20999999
7.329 -8.2209997 -0.74599999 0.38
7.3759999 -8.2209997 -0.74800003 0.25
7.4109998 -8.2080002 -0.75 0.25999999
7.4250002 -8.1719999 -0.74800003 0.25999999
7.4169998 -8.1379995 -0.74599999 0.28999999
7.4619999 -8.1350002 -0.74800003 0.25999999
7.4699998 -8.0930004 -0.74599999 0.33000001
7.7020001 -8.2910004 -0.77200001 0
7.5479999 -8.0749998 -0.74900001 0
7.744 -8.1800003 -0.76700002 0.27000001
7.7659998 -8.1780005 -0.76800001 0.18000001
7.7989998 -8.1610003 -0.76899999 0.17
7.862 -8.1750002 -0.77399999 0.11
7.9169998 -8.1800003 -0.778 0.2
7.9590001 -8.1730003 -0.77999997 0.47999999
8.0139999 -8.177 -0.78299999 0.12
7.9419999 -8.0279999 -0.76999998 0.63
7.948 -7.9850001 -0.76700002 0.54000002
7.9380002 -7.9239998 -0.76300001 0.16
7.9899998 -7.9260001 -0.76599997 0.58999997
7.9819999 -7.8200002 -0.75999999 0.37
8.0179996 -7.8299999 -0.76200002 0.40000001
8.0690002 -7.8309999 -0.76599997 0.31999999
8.1169996 -7.8270001 -0.76800001 0.47999999
8.3219995 -7.974 -0.79000002 0.19
8.0979996 -7.7119999 -0.75999999 0.19
8.1309996 -7.6950002 -0.76099998 0.22
8.2379999 -7.723 -0.76999998 0.41
8.2510004 -7.6859999 -0.76800001 0.38
8.2840004 -7.6680002 -0.76899999 0.41
8.3269997 -7.6599998 -0.77200001 0.41999999
8.3909998 -7.6700001 -0.77600002 0.37
8.4160004 -7.645 -0.77600002 0.58999997
7.9790001 -7.204 -0.72299999 0.14
8.1020002 -7.2909999 -0.736 0.18000001
8.724 -7.75 -0.80199999 0.34999999
9.3529997 -8.2539997 -0.87099999 0.17
9.5360003 -8.3620005 -0.889 0.51999998
9.6000004 -8.3640003 -0.89399999 0.38
9.6569996 -8.3599997 -0.89700001 0.38999999
9.6859999 -8.3590002 -0.89899999 0.38999999
9.757 -8.3660002 -0.90399998 0.31999999
9.8179998 -8.3649998 -0.90799999 0.44999999
9.8710003 -8.3579998 -0.91100001 0.34999999
9.927 -8.3509998 -0.91399997 0.38
9.9829998 -8.3450003 -0.91799998 0.43000001
10.027 -8.3549995 -0.921 0.41
10.083 -8.3470001 -0.92400002 0.40000001
10.152 -8.3509998 -0.92900002 0.41
10.16 -8.3039999 -0.92699999 0.38
10.173 -8.2620001 -0.926 0.33000001
10.191 -8.224 -0.92500001 0.43000001
10.186 -8.1669998 -0.921 0.51999998
10.18 -8.1359997 -0.91900003 0.58999997
10.19 -8.092 -0.91799998 0.61000001
10.176 -8.0290003 -0.91299999 0.74000001
10.131 -7.9419999 -0.90600002 0.37
10.11 -7.8740001 -0.90100002 0.52999997
10.122 -7.8330002 -0.89899999 0.31999999
10.105 -7.7690001 -0.89499998 0.55000001
10.118 -7.7540002 -0.89499998 0.34
10.097 -7.6880002 -0.88999999 0.51999998
10.115 -7.651 -0.889 0.43000001
10.177 -7.6479998 -0.89300001 0.38999999
10.227 -7.6350002 -0.89600003 0.34
10.281 -7.6259999 -0.89899999 0.40000001
10.343 -7.6459999 -0.90499997 0.28
10.386 -7.6279998 -0.90700001 0.44999999
10.402 -7.5890002 -0.90600002 0.37
10.457 -7.579 -0.90899998 0.46000001
10.524 -7.5770001 -0.91399997 0.38
10.59 -7.5739999 -0.91799998 0.38999999
10.653 -7.5679998 -0.92199999 0.5
10.745 -7.6079998 -0.93099999 0.37
10.804 -7.599 -0.93400002 0.30000001
10.858 -7.586 -0.93800002 0.58999997
10.809 -7.5019999 -0.93000001 0.36000001
10.527 -7.2579999 -0.898 0.19
10.547 -7.223 -0.898 0.23
10.604 -7.2129998 -0.90100002 0.11
10.676 -7.237 -0.90799999 0.37
10.717 -7.2160001 -0.91000003 0.25
10.783 -7.211 -0.91399997 0.41
10.827 -7.191 -0.91600001 0.15000001
10.923 -7.2059999 -0.92400002 0
11.809 -7.7080002 -1.011 0.18000001
11.908 -7.7189999 -1.0190001 0.23
11.985 -7.7150002 -1.024 0.44999999
12.066 -7.7140002 -1.03 0.31
12.193 -7.7410002 -1.041 0.62
11.526 -7.2179999 -0.96799999 0.57999998
11.578 -7.2249999 -0.972 0.12
11.74 -7.224 -0.98400003 0.72000003
11.775 -7.1950002 -0.98500001 0
11.625 -7.0040002 -0.96600002 0.17
11.676 -6.9840002 -0.96899998 0.28
11.704 -6.9759998 -0.97000003 0.60000002
11.7 -6.9239998 -0.96799999 0.23
11.725 -6.8899999 -0.96799999 0.14
12.905 -7.5250001 -1.0829999 0.40000001
12.975 -7.5110002 -1.0880001 0.38999999
13.059 -7.5050001 -1.094 0.34
13.06 -7.4510002 -1.092 0.56
13.112 -7.454 -1.096 0
6.744 -3.8199999 -0.465 0
6.678 -2.9549999 -0.42699999 0
6.704 -2.9419999 -0.428 0
6.7059999 -2.9170001 -0.428 0
6.7090001 -2.8940001 -0.42699999 0
6.8969998 -2.6340001 -0.43399999 0.28999999
6.9159999 -2.6159999 -0.435 0.30000001
6.9640002 -2.609 -0.43799999 0.28
7 -2.5969999 -0.44100001 0.27000001
7.0440001 -2.5880001 -0.44400001 0.27000001
7.099 -2.5829999 -0.44800001 0.25
7.0339999 -2.5350001 -0.442 0
11.193 -3.0510001 -0.796 0.43000001
11.18 -3.0280001 -0.79500002 0.44
11.195 -2.9949999 -0.79500002 0.44
11.193 -2.957 -0.79400003 0.44999999
11.193 -2.9189999 -0.79299998 0.46000001
11.21 -2.8859999 -0.79400003 0.47
11.213 -2.849 -0.79400003 0.44
11.212 -2.8110001 -0.79299998 0.46000001
11.209 -2.7920001 -0.792 0.46000001
11.233 -2.76 -0.79299998 0.49000001
11.238 -2.724 -0.79299998 0.64999998
11.384 -2.721 -0.80500001 0.36000001
11.555 -2.724 -0.81999999 0.30000001
11.779 -2.737 -0.83899999 0.27000001
12.009 -2.77 -0.85799998 0.28
12.249 -2.7839999 -0.87900001 0.25999999
12.544 -2.809 -0.90399998 0.34
12.821 -2.829 -0.92799997 0.15000001
13.179 -2.8629999 -0.958 0.41
13.503 -2.8889999 -0.986 0.18000001
13.863 -2.9200001 -1.017 0.11
17.125999 -3.516 -1.302 0.44999999
17.122999 -3.46 -1.301 0.81999999
17.142 -3.408 -1.301 0.87
16.889 -3.302 -1.278 0.99000001
16.891001 -3.2479999 -1.278 0.99000001
16.809999 -3.2049999 -1.27 0.88999999
17.157 -3.2149999 -1.3 0.33000001
17.091999 -3.1470001 -1.293 0.73000002
17.975 -3.25 -1.369 0.25
17.948 -3.187 -1.3660001 0.56999999
18.148001 -3.164 -1.383 0
22.004999 -3.7590001 -1.7180001 0.12
22.007 -3.724 -1.7180001 0.18000001
21.997 -3.651 -1.716 0.40000001
21.988001 -3.579 -1.714 0.23
21.982 -3.507 -1.7130001 0.18000001
21.993 -3.438 -1.7130001 0.38999999
21.958 -3.362 -1.709 0.23999999
21.961 -3.2920001 -1.7079999 0.18000001
21.958 -3.256 -1.707 0.41
21.936001 -3.1830001 -1.705 0.19
21.934 -3.112 -1.704 0.25999999
21.917999 -3.04 -1.701 0.20999999
21.931999 -2.971 -1.702 0.23
21.921 -2.9000001 -1.7 0.2
21.926001 -2.8299999 -1.7 0.20999999
21.909 -2.793 -1.698 0.2
21.917999 -2.724 -1.698 0.22
21.902 -2.6530001 -1.696 0.19
21.924999 -2.585 -1.697 0.28999999
21.923 -2.5150001 -1.696 0.2
21.944 -2.448 -1.697 0
21.927999 -2.411 -1.6950001 0
21.91 -2.3399999 -1.693 0
21.905001 -2.27 -1.692 0
21.885 -2.198 -1.6900001 0
21.826 -2.1229999 -1.684 0
21.816999 -2.053 -1.683 0.079999998
21.787001 -1.9809999 -1.6799999 0.079999998
21.767 -1.9450001 -1.678 0.079999998
21.763 -1.876 -1.677 0.079999998
21.749001 -1.806 -1.675 0.14
21.747999 -1.737 -1.675 0.1
21.74 -1.6670001 -1.673 0.15000001
21.719 -1.597 -1.671 0.16
21.700001 -1.527 -1.669 0.1
21.686001 -1.492 -1.668 0
21.683001 -1.424 -1.6670001 0
21.666 -1.354 -1.665 0
21.672001 -1.286 -1.665 0
21.666 -1.217 -1.664 0
21.653 -1.149 -1.663 0
21.645 -1.114 -1.6619999 0
21.646999 -1.046 -1.6619999 0
21.642 -0.97799999 -1.661 0
21.643 -0.91000003 -1.661 0
21.622 -0.84100002 -1.659 0
21.610001 -0.77200001 -1.658 0
21.584999 -0.70300001 -1.656 0
21.576 -0.66900003 -1.655 0
21.538 -0.60000002 -1.651 0
21.524 -0.53200001 -1.65 0
21.497999 -0.46399999 -1.648 0
21.481001 -0.396 -1.646 0
21.474001 -0.329 -1.645 0.13
21.448999 -0.26100001 -1.643 0.090000004
21.436001 -0.227 -1.642 0.12
21.424 -0.16 -1.641 0.14
21.405001 -0.092 -1.6390001 0.43000001
21.357 -0.025 -1.635 0.27000001
20.143999 0.057 -1.65 0.2
20.086 0.12 -1.645 0
20.084999 0.183 -1.645 0.07
20.122999 0.215 -1.649 0.14
20.09 0.278 -1.646 0.090000004
20.099001 0.34099999 -1.647 0.14
20.091999 0.40400001 -1.646 0.090000004
20.094999 0.46700001 -1.646 0.14
20.099001 0.52999997 -1.647 0.090000004
20.103001 0.59399998 -1.647 0.14
20.096001 0.625 -1.647 0.090000004
20.118 0.68900001 -1.649 0.15000001
20.136 0.75300002 -1.651 0.1
20.149 0.81699997 -1.652 0.15000001
20.146999 0.88 -1.652 0.1
20.156 0.94400001 -1.654 0.15000001
20.186001 1.0089999 -1.6569999 0.090000004
20.202999 1.0420001 -1.658 0.14
20.207001 1.105 -1.659 0.090000004
20.235001 1.171 -1.6619999 0.14
20.25 1.235 -1.664 0.090000004
20.267 1.3 -1.666 0
20.281 1.365 -1.6670001 0
20.309 1.399 -1.67 0
20.318001 1.464 -1.671 0
20.343 1.53 -1.674 0
20.354 1.595 -1.676 0
20.403 1.663 -1.6799999 0
20.399 1.727 -1.681 0
20.42 1.794 -1.683 0
20.482 1.832 -1.689 0
20.483999 1.897 -1.6900001 0
20.535999 1.966 -1.6950001 0
20.545 2.0320001 -1.697 0
20.551001 2.098 -1.698 0
20.503 2.158 -1.694 0
20.482 2.221 -1.693 0
20.476 2.253 -1.692 0
20.461 2.3169999 -1.692 0
20.441999 2.3800001 -1.691 0
20.445999 2.4449999 -1.692 0
20.436001 2.5090001 -1.691 0
20.417 2.572 -1.6900001 0
20.414 2.6370001 -1.691 0
20.414 2.6689999 -1.691 0
20.388 2.7309999 -1.6900001 0
20.382999 2.796 -1.6900001 0
20.365999 2.859 -1.689 0
20.363001 2.9230001 -1.6900001 0
20.362 2.9890001 -1.691 0
20.370001 3.0550001 -1.692 0
20.395 3.092 -1.6950001 0
20.35 3.1500001 -1.692 0
20.343 3.2149999 -1.692 0
20.347 3.2809999 -1.693 0
20.320999 3.342 -1.692 0
20.32 3.408 -1.693 0
20.309 3.4389999 -1.692 0
20.294001 3.5020001 -1.692 0
20.261 3.562 -1.6900001 0
20.264 3.628 -1.691 0
20.256001 3.6919999 -1.691 0
20.235001 3.7539999 -1.691 0
20.233 3.819 -1.691 0
20.216999 3.849 -1.691 0
20.205 3.9130001 -1.691 0
20.177 3.973 -1.689 0
20.187 4.0409999 -1.691 0
20.157 4.1009998 -1.6900001 0
20.146 4.165 -1.6900001 0
20.125999 4.1939998 -1.688 0
20.124001 4.2589998 -1.6900001 0
20.108999 4.322 -1.689 0
20.093 4.3850002 -1.689 0
20.087 4.4499998 -1.6900001 0
20.083 4.5149999 -1.691 0
20.073999 4.579 -1.691 0
20.032 4.6030002 -1.688 0
20.002001 4.6620002 -1.687 0
19.934999 4.7129998 -1.682 0
19.886999 4.7670002 -1.679 0
19.849001 4.8239999 -1.676 0
19.83 4.8860002 -1.676 0
19.787001 4.941 -1.673 0
19.766001 4.9689999 -1.6720001 0.07
19.746 5.0300002 -1.6720001 0.079999998
19.736 5.0929999 -1.6720001 0.079999998
19.691 5.1479998 -1.67 0.090000004
19.684999 5.2119999 -1.671 0.090000004
19.666 5.2729998 -1.67 0.090000004
19.655001 5.3369999 -1.671 0.14
19.658001 5.3709998 -1.6720001 0.18000001
19.686001 5.4450002 -1.676 0.20999999
19.659 5.5040002 -1.675 0.23999999
19.622 5.5599999 -1.673 0.25
19.576 5.6139998 -1.671 0.28999999
19.489 5.6550002 -1.664 0.34
19.412001 5.6659999 -1.658 0.28999999
19.336 5.71 -1.652 0.20999999
19.236 5.7459998 -1.6440001 0.38999999
19.143999 5.7839999 -1.637 0.22
19.08 5.8299999 -1.633 0.18000001
18.983 5.8660002 -1.625 0.38999999
18.898001 5.9050002 -1.619 0.22
18.849001 5.9219999 -1.615 0.25
18.766001 5.961 -1.609 0.23
18.702999 6.006 -1.604 0.18000001
18.667 6.059 -1.603 0.28999999
18.614 6.1069999 -1.6 0.18000001
18.598 6.1669998 -1.6 0.18000001
18.554001 6.217 -1.598 0.30000001
18.521999 6.2379999 -1.595 0.2
18.493 6.2930002 -1.594 0.18000001
18.447001 6.342 -1.592 0.28
18.382999 6.3850002 -1.5880001 0.18000001
