# .PCD v0.7 - Point Cloud Data file format
VERSION 0.7
FIELDS x y z intensity
SIZE 4 4 4 4
TYPE F F F F
COUNT 1 1 1 1
WIDTH 1440
HEIGHT 1
VIEWPOINT 0 0 0 1 0 0 0
POINTS 1440
DATA ascii
-10.964 -2.4430001 -1.1799999 0.99000001
-11.132 -2.5179999 -1.202 0.66000003
-16.030001 -3.691 -1.8200001 0.38
-16.146 -3.744 -1.836 0.33000001
-16.152 -3.799 -1.8380001 0.36000001
-16.105 -3.8410001 -1.8329999 0.37
-15.966 -3.8610001 -1.817 0.34
-16.061001 -3.938 -1.831 0.34
-16.18 -4.0209999 -1.848 0.41999999
-16.101 -4.0279999 -1.8380001 0.34999999
-15.376 -3.8970001 -1.748 0.30000001
-16.232 -4.1700001 -1.858 0.41
-15.931 -4.145 -1.822 0.25
-16.049 -4.23 -1.8380001 0.34
-15.968 -4.2620001 -1.83 0.34999999
-16.205999 -4.381 -1.862 0.38999999
-15.946 -4.3369999 -1.83 0.28999999
-16.028 -4.414 -1.842 0.33000001
-15.968 -4.4510002 -1.836 0.34999999
-15.958 -4.5019999 -1.836 0.28999999
-16.028 -4.5770001 -1.847 0.38999999
-15.737 -4.5469999 -1.812 0.30000001
-16.105 -4.7080002 -1.8609999 0.36000001
-15.963 -4.6939998 -1.8430001 0.30000001
-16.073 -4.7810001 -1.86 0.25
-15.973 -4.8060002 -1.849 0.54000002
-16.121 -4.9060001 -1.87 0.31999999
-14.518 -4.4660001 -1.666 0.34
-16.311001 -5.0770001 -1.898 0.22
-15.729 -4.9489999 -1.825 0.30000001
-16.139999 -5.1069999 -1.8789999 0.31
-15.541 -4.9699998 -1.804 0.40000001
-15.496 -5.0089998 -1.8 0.31999999
-15.353 -5.0159998 -1.784 0.40000001
-15.419 -5.0910001 -1.794 0.41
-15.909 -5.3099999 -1.86 0.25999999
-15.674 -5.2859998 -1.831 0.25
-15.893 -5.388 -1.8609999 0.46000001
-15.562 -5.3299999 -1.8200001 0.27000001
-15.748 -5.4489999 -1.847 0.41
-15.519 -5.4239998 -1.819 0.18000001
-15.901 -5.6139998 -1.8710001 0.46000001
-15.507 -5.5300002 -1.822 0.31999999
-15.453 -5.5650001 -1.817 0.38
-16.024 -5.8000002 -1.893 0.31999999
-15.793 -5.7719998 -1.865 0.31999999
-15.76 -5.816 -1.863 0.41
-15.759 -5.8720002 -1.865 0.28
-15.617 -5.875 -1.849 0.33000001
-15.675 -5.9530001 -1.859 0.34
-15.788 -6.053 -1.877 0.28
-15.717 -6.0539999 -1.869 0.36000001
-15.535 -6.04 -1.847 0.34999999
-15.507 -6.085 -1.846 0.28
-15.551 -6.1589999 -1.854 0.2
-15.457 -6.178 -1.844 0.47
-15.5 -6.2519999 -1.853 0.28999999
-15.756 -6.4130001 -1.8890001 0.44
-15.372 -6.2839999 -1.84 0.22
-14.708 -6.066 -1.7539999 0.51999998
-15.907 -6.6209998 -1.916 0.25999999
-15.48 -6.5 -1.862 0.27000001
-15.127 -6.4070001 -1.818 0.20999999
-14.817 -6.3299999 -1.779 0.44999999
-15.731 -6.7810001 -1.904 0.25
-14.809 -6.4089999 -1.7819999 0.33000001
-15.645 -6.8309999 -1.897 0.27000001
-15.901 -7.0029998 -1.934 0.38999999
-15.741 -6.9920001 -1.915 0.28
-15.346 -6.8730001 -1.865 0.23
-15.71 -7.0960002 -1.9170001 0.38999999
-15.601 -7.1059999 -1.905 0.23
-15.588 -7.1290002 -1.905 0.30000001
-15.547 -7.1700001 -1.903 0.38999999
-15.404 -7.1630001 -1.886 0.43000001
-15.559 -7.2950001 -1.91 0.38
-15.328 -7.2449999 -1.882 0.23999999
-15.139 -7.2129998 -1.86 0.23999999
-15.059 -7.2329998 -1.852 0.31999999
-15.003 -7.2350001 -1.846 0.37
-14.989 -7.2870002 -1.847 0.38999999
-14.884 -7.2930002 -1.836 0.31999999
-13.961 -6.8940001 -1.712 0.28999999
-15.046 -7.4910002 -1.864 0.25999999
-14.024 -7.0349998 -1.727 0.40000001
-14.038 -7.0700002 -1.73 0.34999999
-15.356 -7.7969999 -1.915 0.25999999
-15.406 -7.8829999 -1.925 0.38
-15.437 -7.961 -1.933 0.25
-15.732 -8.1759996 -1.977 0.40000001
-15.447 -8.0889997 -1.941 0.34
-15.802 -8.3389997 -1.994 0.41999999
-13.372 -7.079 -1.658 0.20999999
-13.452 -7.1760001 -1.673 0.2
-15.785 -8.4890003 -2.0009999 0.34
-15.695 -8.5050001 -1.992 0.44999999
-15.607 -8.5209999 -1.984 0.36000001
-15.779 -8.6789999 -2.0120001 0.27000001
-15.163 -8.401 -1.929 0.22
-13.722 -7.6849999 -1.732 0.57999998
-13.406 -7.5630002 -1.6900001 0.22
-15.304 -8.7010002 -1.962 0.31999999
-13.315 -7.6220002 -1.684 0.27000001
-12.949 -7.4660001 -1.636 0.28999999
-15.457 -8.9820004 -1.995 0.23999999
-15.234 -8.8839998 -1.966 0.17
-15.332 -9.007 -1.984 0.43000001
-15.264 -9.0319996 -1.978 0.27000001
-15.197 -9.0559998 -1.973 0.36000001
-15.195 -9.1199999 -1.976 0.44
-15.08 -9.1149998 -1.964 0.31
-15.048 -9.1610003 -1.964 0.27000001
-14.836 -9.0629997 -1.9349999 0.43000001
-14.898 -9.1660004 -1.948 0.2
-14.679 -9.0939999 -1.921 0.44999999
-15.641 -9.7600002 -2.0639999 0.19
-15.856 -9.9639997 -2.0999999 0.31999999
-14.975 -9.474 -1.976 0.37
-14.352 -9.1739998 -1.892 0.57999998
-15.63 -10.064 -2.0829999 0.16
-15.713 -10.187 -2.0999999 0.18000001
-14.138 -9.2259998 -1.873 0.19
-14.703 -9.6619997 -1.961 0.13
-15.188 -10.051 -2.0369999 0.23
-15.234 -10.115 -2.046 0.17
-15.072 -10.076 -2.026 0.25999999
-15.106 -10.167 -2.036 0.36000001
-17.134001 -11.615 -2.342 0.2
-17.120001 -11.685 -2.345 0.16
-17.120001 -11.763 -2.3510001 0.31999999
-17.094 -11.825 -2.3529999 0.23
-17.084999 -11.858 -2.3540001 0.16
-17.098 -11.947 -2.362 0.41999999
-17.073 -12.01 -2.3629999 0.25
-17.062 -12.082 -2.3670001 0.25999999
-17.052999 -12.156 -2.372 0.27000001
-17.014 -12.21 -2.372 0.23999999
-16.952999 -12.247 -2.368 0.27000001
-16.923 -12.266 -2.3670001 0.36000001
-16.855 -12.298 -2.362 0.33000001
-16.766001 -12.313 -2.3540001 0.38999999
-16.658001 -12.315 -2.3440001 0.38
-16.576 -12.335 -2.3369999 0.37
-16.497999 -12.357 -2.3310001 0.37
-16.379999 -12.349 -2.319 0.36000001
-16.250999 -12.292 -2.302 0.34
-16.162001 -12.304 -2.2950001 0.34999999
-16.056 -12.303 -2.2839999 0.37
-15.964 -12.312 -2.276 0.38
-15.889 -12.334 -2.27 0.41
-15.805 -12.349 -2.263 0.31999999
-15.691 -12.339 -2.2509999 0.34
-15.626 -12.328 -2.244 0.34999999
-15.566 -12.36 -2.2409999 0.34999999
-15.474 -12.366 -2.233 0.38
-15.375 -12.366 -2.223 0.34999999
-15.308 -12.392 -2.2190001 0.31999999
-15.202 -12.385 -2.2079999 0.36000001
-15.124 -12.401 -2.2019999 0.36000001
-15.057 -12.386 -2.194 0.38
-14.954 -12.38 -2.184 0.38
-14.877 -12.395 -2.178 0.37
-14.736 -12.356 -2.1619999 0.41
-14.729 -12.429 -2.1670001 0.30000001
-14.633 -12.426 -2.158 0.37
-14.678 -12.544 -2.171 0.33000001
-14.661 -12.57 -2.1719999 0.37
-14.544 -12.549 -2.1589999 0.31
-14.434 -12.533 -2.148 0.23999999
-14.191 -12.4 -2.1140001 0.38999999
-14.124 -12.42 -2.1099999 0.34
-14.049 -12.433 -2.1040001 0.31999999
-13.987 -12.416 -2.0969999 0.40000001
-13.943 -12.456 -2.096 0.41
-13.91 -12.505 -2.0969999 0.36000001
-13.846 -12.526 -2.0929999 0.34
-13.932 -12.685 -2.1140001 0.38
-14.036 -12.86 -2.138 0.27000001
-14.086 -12.988 -2.1530001 0.31
-13.888 -12.845 -2.1229999 0.37
-13.554 -12.615 -2.0739999 0.23
-13.507 -12.651 -2.073 0.36000001
-13.501 -12.725 -2.0780001 0.37
-13.82 -13.109 -2.1389999 0.36000001
-13.67 -13.048 -2.1210001 0.23
-13.859 -13.313 -2.1600001 0.30000001
-13.819 -13.316 -2.1570001 0.41999999
-13.87 -13.45 -2.1730001 0.30000001
-12.813 -12.501 -1.998 0.23
-12.782 -12.549 -2 0.33000001
-12.802 -12.648 -2.01 0.38
-12.752 -12.678 -2.0079999 0.34999999
-12.792 -12.798 -2.0220001 0.28
-12.784 -12.83 -2.0239999 0.23
-13.502 -13.638 -2.1570001 0.37
-13.559 -13.783 -2.174 0.36000001
-13.383 -13.689 -2.151 0.22
-13.494 -13.89 -2.178 0.31
-13.473 -13.956 -2.1819999 0.36000001
-13.46 -14.031 -2.188 0.38
-13.47 -14.085 -2.1930001 0.49000001
-13.46 -14.163 -2.1989999 0.27000001
-14.792 -15.668 -2.4460001 0.28
-14.761 -15.733 -2.4489999 0.34
-14.676 -15.742 -2.4430001 0.38
-14.601 -15.76 -2.438 0.34999999
-14.596 -15.854 -2.4460001 0.34
-14.501 -15.801 -2.434 0.41999999
-14.449 -15.843 -2.4330001 0.36000001
-14.383 -15.871 -2.4300001 0.34
-14.342 -15.926 -2.4319999 0.38
-14.316 -15.998 -2.4360001 0.34
-14.247 -16.021999 -2.4330001 0.38999999
-14.213 -16.034 -2.431 0.38999999
-14.194 -16.114 -2.437 0.38
-14.18 -16.201 -2.444 0.36000001
-14.174 -16.298 -2.4519999 0.38
-14.189 -16.419001 -2.4649999 0.34999999
-14.114 -16.436001 -2.46 0.28999999
-14.086 -16.507999 -2.4649999 0.34
-14.116 -16.596001 -2.4760001 0.36000001
-14.077 -16.656 -2.4779999 0.36000001
-14.045 -16.724001 -2.4820001 0.34
-13.986 -16.761 -2.4809999 0.38
-14.023 -16.913 -2.4979999 0.34999999
-14.02 -17.018999 -2.5079999 0.31999999
-13.985 -17.086 -2.5109999 0.38999999
-13.999 -17.157 -2.5190001 0.37
-14.046 -17.326 -2.539 0.33000001
-14.045 -17.436001 -2.549 0.41999999
-14.016 -17.513 -2.5550001 0.37
-13.96 -17.555 -2.5539999 0.25999999
-13.945 -17.65 -2.562 0.38999999
-13.887 -17.691 -2.562 0.36000001
-13.848 -17.698999 -2.5599999 0.20999999
-13.756 -17.695 -2.552 0.34
-13.71 -17.750999 -2.5539999 0.28
-13.655 -17.795 -2.5550001 0.2
-13.602 -17.841 -2.5550001 0.38999999
-13.523 -17.854 -2.55 0.19
-13.48 -17.914 -2.553 0.38
-13.443 -17.924 -2.5510001 0.23
-13.4 -17.983 -2.5539999 0.2
-13.335 -18.014 -2.552 0.37
-13.275 -18.051001 -2.552 0.2
-13.203 -18.072001 -2.5480001 0.15000001
-13.153 -18.122999 -2.55 0.33000001
-13.127 -18.146999 -2.55 0.2
-11.028 -15.441 -2.1300001 0.40000001
-10.954 -15.44 -2.125 0.37
-10.881 -15.441 -2.1199999 0.28999999
-10.826 -15.465 -2.118 0.38999999
-10.739 -15.443 -2.1099999 0.14
-9.2589998 -13.353 -1.796 0.28
-9.191 -13.345 -1.79 0.5
-9.1379995 -13.357 -1.788 0.31999999
-9.0699997 -13.348 -1.7819999 0.47999999
-9.0190001 -13.363 -1.78 0.30000001
-8.9530001 -13.355 -1.775 0.5
-8.8610001 -13.307 -1.763 0.34999999
-8.8610001 -13.353 -1.768 0.44999999
-8.8039999 -13.359 -1.765 0.30000001
-8.7410002 -13.353 -1.76 0.49000001
-8.6750002 -13.344 -1.755 0.28999999
-8.6140003 -13.341 -1.75 0.49000001
-8.5170002 -13.283 -1.738 0.41
-8.5129995 -13.368 -1.7460001 0.28999999
-8.4630003 -13.336 -1.74 0.54000002
-8.3859997 -13.307 -1.732 0.36000001
-8.4069996 -13.435 -1.7460001 0.33000001
-8.2539997 -13.282 -1.721 0.41999999
-8.2259998 -13.33 -1.724 0.34
-8.276 -13.506 -1.745 0.31999999
-8.2220001 -13.514 -1.743 0.47
-8.1940002 -13.515 -1.7410001 0.37
-8.1339998 -13.511 -1.737 0.5
-8.0719995 -13.504 -1.732 0.38
-8.0190001 -13.511 -1.73 0.47999999
-7.9619999 -13.512 -1.726 0.34
-7.9549999 -13.597 -1.735 0.58999997
-7.9419999 -13.674 -1.742 0.34
-8.9320002 -15.44 -1.9910001 0.34999999
-8.868 -15.442 -1.987 0.34
-8.8050003 -15.444 -1.983 0.31999999
-8.7489996 -15.458 -1.9809999 0.36000001
-8.6800003 -15.449 -1.976 0.30000001
-8.618 -15.452 -1.973 0.38
-8.5749998 -15.432 -1.9680001 0.34
-8.5190001 -15.445 -1.966 0.28999999
-8.4619999 -15.456 -1.964 0.31999999
-8.4040003 -15.465 -1.962 0.36000001
-8.3470001 -15.476 -1.959 0.34999999
-8.2910004 -15.49 -1.9579999 0.28
-8.2440004 -15.518 -1.9579999 0.31
-8.2110004 -15.515 -1.956 0.40000001
-8.1680002 -15.551 -1.957 0.33000001
-8.1289997 -15.596 -1.96 0.40000001
-8.0839996 -15.63 -1.961 0.28999999
-8.0480003 -15.68 -1.965 0.27000001
-7.9920001 -15.693 -1.9630001 0.44999999
-7.9549999 -15.741 -1.966 0.30000001
-7.9239998 -15.743 -1.965 0.36000001
-7.8860002 -15.789 -1.967 0.41999999
-7.8249998 -15.793 -1.965 0.30000001
-7.7540002 -15.772 -1.9579999 0.2
-7.71 -15.807 -1.96 0.44
-7.6490002 -15.81 -1.957 0.2
-9.6040001 -20.025 -2.527 0.18000001
-9.5439997 -19.981001 -2.5190001 0.28
-9.467 -19.98 -2.5150001 0.23999999
-9.3950005 -19.992001 -2.513 0.33000001
-9.3199997 -19.993999 -2.5090001 0.36000001
-9.2489996 -20.004999 -2.507 0.28999999
-9.1689997 -19.997999 -2.5020001 0.37
-9.1339998 -20.004 -2.5 0.30000001
-9.0559998 -20 -2.4960001 0.30000001
-9.0019999 -20.046 -2.4990001 0.49000001
-8.9320002 -20.059999 -2.497 0.31
-8.8430004 -20.028 -2.4890001 0.27000001
-8.7519999 -19.992001 -2.48 0.25
-8.684 -20.006001 -2.4779999 0.34999999
-8.6520004 -20.02 -2.4779999 0.38
-8.5710001 -20.004999 -2.473 0.2
-8.4750004 -19.952999 -2.4619999 0.28999999
-8.3959999 -19.941 -2.457 0.20999999
-8.3260002 -19.948999 -2.4549999 0.41
-8.2159996 -19.862 -2.4400001 0.28999999
-8.1400003 -19.851999 -2.4349999 0.28999999
-8.0909996 -19.823 -2.4289999 0.41999999
-8.0270004 -19.844 -2.4289999 0.34
-7.9980001 -19.952999 -2.4400001 0.41
-7.9190001 -19.934999 -2.434 0.18000001
-7.8559999 -19.959999 -2.434 0.49000001
-7.7810001 -19.952999 -2.4300001 0.19
-7.7080002 -19.951 -2.427 0.34
-7.6680002 -19.938999 -2.4230001 0.25999999
-7.5999999 -19.950001 -2.4219999 0.25999999
-7.526 -19.943001 -2.418 0.30000001
-7.473 -19.993999 -2.421 0.19
-7.4320002 -20.077 -2.4289999 0.38999999
-7.348 -20.042999 -2.421 0.25
-7.3109999 -20.039 -2.4200001 0.31
-7.244 -20.049 -2.418 0.30000001
-7.1739998 -20.052999 -2.415 0.27000001
-7.1069999 -20.066 -2.414 0.31
-7.04 -20.075001 -2.4119999 0.31999999
-6.9710002 -20.08 -2.4100001 0.30000001
-6.9000001 -20.079 -2.4070001 0.27000001
-6.8509998 -20.038 -2.401 0.28999999
-6.777 -20.028999 -2.3970001 0.33000001
-6.7059999 -20.024 -2.3929999 0.34
-6.6370001 -20.028 -2.391 0.33000001
-6.5669999 -20.025999 -2.388 0.31
-6.4990001 -20.031 -2.3859999 0.31
-6.4250002 -20.018 -2.382 0.31999999
-6.3930001 -20.025999 -2.382 0.34
-6.3260002 -20.033001 -2.3800001 0.36000001
-6.257 -20.033001 -2.3770001 0.31999999
-6.1859999 -20.025999 -2.3740001 0.28999999
-6.1139998 -20.017 -2.3699999 0.27000001
-6.046 -20.017 -2.368 0.33000001
-5.9790001 -20.025 -2.3659999 0.31999999
-3.898 -13.252 -1.497 0.44999999
-3.848 -13.234 -1.493 0.38999999
-3.8039999 -13.236 -1.492 0.49000001
-3.7579999 -13.235 -1.49 0.5
-3.7179999 -13.25 -1.49 0.58999997
-3.677 -13.264 -1.4910001 0.56999999
-3.658 -13.279 -1.492 0.46000001
-3.6170001 -13.293 -1.492 0.62
-4.1729999 -15.546 -1.777 0.28
-4.1430001 -15.628 -1.786 0.51999998
-4.0110002 -15.324 -1.745 0.20999999
-3.997 -15.469 -1.762 0.43000001
-3.9979999 -15.574 -1.775 0.37
-3.9319999 -15.521 -1.766 0.41
-3.835 -15.336 -1.742 0.22
-3.7420001 -15.167 -1.719 0.55000001
-3.7409999 -15.372 -1.743 0.38
-3.7149999 -15.478 -1.755 0.18000001
-2.7219999 -11.47 -1.248 0.68000001
-2.691 -11.418 -1.2410001 0.46000001
-2.652 -11.411 -1.239 0.41
-2.618 -11.429 -1.24 0.43000001
-2.5780001 -11.42 -1.238 0.34
-2.5380001 -11.411 -1.2359999 0.51999998
-2.4949999 -11.386 -1.232 0.62
-2.467 -11.428 -1.2359999 0.28999999
-2.4489999 -11.432 -1.2359999 0.38999999
-2.4070001 -11.409 -1.232 0.52999997
-2.3670001 -11.399 -1.23 0.68000001
-2.332 -11.408 -1.23 0.33000001
-2.2980001 -11.427 -1.232 0.43000001
-2.2620001 -11.434 -1.232 0.47999999
-2.2260001 -11.437 -1.2309999 0.47
-2.2049999 -11.427 -1.23 0.56999999
-2.1730001 -11.454 -1.232 0.38
-2.1059999 -11.292 -1.211 0.44
-2.066 -11.275 -1.2079999 0.34
-2.029 -11.274 -1.207 0.41999999
-1.994 -11.282 -1.207 0.43000001
-2.0539999 -11.731 -1.263 0.47
-2.0179999 -11.742 -1.263 0.47
-1.978 -11.732 -1.261 0.60000002
-1.939 -11.727 -1.26 0.50999999
-2.4660001 -15.255 -1.698 0.36000001
-2.427 -15.32 -1.705 0.41
-2.3870001 -15.384 -1.712 0.31
-2.3929999 -15.584 -1.7359999 0.54000002
-2.3800001 -15.833 -1.766 0.28999999
-2.3299999 -15.841 -1.766 0.43000001
-2.184 -15.174 -1.683 0.30000001
-2.138 -15.192 -1.684 0.41
-2.099 -15.262 -1.692 0.38
-2.0969999 -15.617 -1.735 0.30000001
-2.0480001 -15.433 -1.712 0.41
-1.979 -15.274 -1.692 0.41999999
-1.927 -15.251 -1.688 0.47
-1.878 -15.247 -1.687 0.30000001
-2.5250001 -21.131001 -2.4130001 0.56999999
-2.4579999 -21.129 -2.4119999 0.23999999
-1.84 -16.207001 -1.803 0.36000001
-1.7130001 -15.292 -1.6900001 0.46000001
-1.681 -15.445 -1.7079999 0.44999999
-2.22 -21.106001 -2.4059999 0.41
-1.607 -15.683 -1.7359999 0.38
-1.5369999 -15.48 -1.711 0.16
-1.4809999 -15.406 -1.701 0.28999999
-1.985 -21.101 -2.4030001 0.52999997
-1.4 -15.318 -1.689 0.20999999
-1.353 -15.332 -1.6900001 0.52999997
-1.319 -15.512 -1.712 0.23999999
-1.273 -15.552 -1.716 0.16
-1.197 -15.202 -1.673 0.50999999
-1.151 -15.229 -1.676 0.41
-1.1289999 -15.261 -1.679 0.34
-1.077 -15.209 -1.673 0.56999999
-1.036 -15.309 -1.6849999 0.36000001
-0.99000001 -15.342 -1.688 0.37
-0.94599998 -15.412 -1.696 0.36000001
-0.88300002 -15.164 -1.666 0.31999999
-0.83700001 -15.206 -1.67 0.5
-0.81300002 -15.195 -1.669 0.25999999
-0.76499999 -15.198 -1.669 0.58999997
-0.71700001 -15.194 -1.668 0.31
-0.67000002 -15.2 -1.669 0.57999998
-0.625 -15.29 -1.679 0.31
-0.574 -15.21 -1.669 0.47
-0.52700001 -15.226 -1.671 0.36000001
-0.505 -15.276 -1.677 0.34
-0.45500001 -15.226 -1.671 0.46000001
-0.40700001 -15.224 -1.67 0.41999999
-0.36000001 -15.233 -1.671 0.36000001
-0.31099999 -15.216 -1.669 0.52999997
-0.264 -15.219 -1.669 0.31999999
-0.23999999 -15.229 -1.671 0.51999998
-0.192 -15.234 -1.671 0.28999999
-0.14399999 -15.236 -1.671 0.49000001
-0.096000001 -15.268 -1.675 0.38
-0.048 -15.221 -1.669 0.41
-0.001 -15.235 -1.671 0.40000001
0.046999998 -15.221 -1.669 0.41
0.071000002 -15.223 -1.67 0.41
0.119 -15.252 -1.673 0.44
0.167 -15.238 -1.6720001 0.40000001
0.214 -15.216 -1.669 0.36000001
0.26300001 -15.249 -1.673 0.55000001
0.31099999 -15.26 -1.675 0.31
0.359 -15.257 -1.674 0.44999999
0.38600001 -15.379 -1.689 0.44999999
0.433 -15.336 -1.684 0.34
0.48100001 -15.317 -1.682 0.52999997
0.52899998 -15.307 -1.681 0.38
0.57800001 -15.325 -1.684 0.47999999
0.62699997 -15.351 -1.687 0.25
0.67400002 -15.321 -1.684 0.56999999
0.70099998 -15.392 -1.692 0.27000001
0.74699998 -15.344 -1.687 0.62
0.81900001 -15.772 -1.74 0.25999999
0.84399998 -15.347 -1.688 0.47999999
0.89999998 -15.477 -1.704 0.41
0.94999999 -15.484 -1.705 0.20999999
0.99400002 -15.413 -1.697 0.40000001
1.012 -15.327 -1.686 0.41999999
1.064 -15.377 -1.693 0.50999999
1.125 -15.548 -1.715 0.38999999
1.177 -15.578 -1.719 0.23999999
1.209 -15.368 -1.693 0.47999999
1.258 -15.37 -1.694 0.41
1.289 -15.445 -1.704 0.41999999
1.3609999 -15.714 -1.737 0.44
1.388 -15.459 -1.706 0.38
1.4349999 -15.44 -1.705 0.28999999
1.478 -15.377 -1.697 0.46000001
1.535 -15.457 -1.7079999 0.28
1.58 -15.422 -1.704 0.51999998
1.645 -15.803 -1.751 0.18000001
1.641 -15.304 -1.6900001 0.38999999
1.688 -15.297 -1.6900001 0.41
1.737 -15.297 -1.691 0.47
1.7920001 -15.345 -1.697 0.37
1.832 -15.278 -1.6900001 0.34999999
1.872 -15.206 -1.682 0.44
1.903 -15.256 -1.688 0.41
1.95 -15.248 -1.688 0.44999999
1.9960001 -15.226 -1.686 0.38
2.046 -15.235 -1.688 0.47999999
2.0940001 -15.233 -1.688 0.33000001
2.148 -15.265 -1.693 0.54000002
2.201 -15.292 -1.697 0.28999999
2.2130001 -15.208 -1.687 0.40000001
2.2609999 -15.201 -1.687 0.41
2.313 -15.223 -1.691 0.5
2.3629999 -15.229 -1.693 0.27000001
2.405 -15.185 -1.688 0.47999999
2.4619999 -15.238 -1.696 0.28999999
2.474 -15.158 -1.686 0.56999999
2.5320001 -15.214 -1.694 0.37
2.573 -15.167 -1.689 0.41999999
2.622 -15.165 -1.6900001 0.5
2.6800001 -15.217 -1.698 0.27000001
2.7219999 -15.175 -1.694 0.56
2.776 -15.204 -1.698 0.28999999
2.8039999 -15.217 -1.7 0.47
2.846 -15.181 -1.697 0.31999999
2.8929999 -15.166 -1.696 0.38999999
2.951 -15.213 -1.7029999 0.46000001
3.0109999 -15.262 -1.711 0.31999999
3.0610001 -15.263 -1.712 0.38
3.118 -15.298 -1.717 0.36000001
3.1400001 -15.281 -1.716 0.38999999
3.1919999 -15.291 -1.7180001 0.34999999
3.2420001 -15.292 -1.72 0.58999997
3.3110001 -15.377 -1.732 0.34
3.348 -15.316 -1.725 0.28999999
3.3959999 -15.305 -1.725 0.47999999
3.4489999 -15.316 -1.728 0.31
3.47 -15.299 -1.727 0.58999997
3.612 -15.69 -1.777 0.27000001
3.5810001 -15.339 -1.734 0.41
3.6170001 -15.275 -1.728 0.37
3.6930001 -15.379 -1.743 0.47
3.7539999 -15.42 -1.749 0.37
3.7809999 -15.427 -1.751 0.36000001
3.8180001 -15.367 -1.745 0.28999999
3.8610001 -15.334 -1.742 0.58999997
4.0209999 -15.758 -1.7970001 0.23999999
3.9560001 -15.306 -1.742 0.41999999
4.1040001 -15.671 -1.79 0.44999999
4.0999999 -15.461 -1.7640001 0.41
4.178 -15.654 -1.79 0.28999999
4.145 -15.338 -1.751 0.27000001
4.1690001 -15.239 -1.74 0.5
4.2729998 -15.426 -1.766 0.37
4.296 -15.321 -1.7539999 0.25
4.3210001 -15.229 -1.744 0.63999999
4.414 -15.372 -1.7640001 0.25999999
4.428 -15.329 -1.76 0.46000001
4.539 -15.528 -1.7869999 0.34
4.5489998 -15.384 -1.77 0.49000001
4.5869999 -15.336 -1.766 0.25999999
4.6139998 -15.253 -1.757 0.44999999
4.691 -15.331 -1.7690001 0.46000001
4.7529998 -15.36 -1.775 0.38
4.7540002 -15.279 -1.765 0.38999999
4.8109999 -15.294 -1.7690001 0.34
4.8579998 -15.275 -1.7690001 0.52999997
5.0139999 -15.594 -1.812 0.38
5.0510001 -15.542 -1.807 0.27000001
5.073 -15.443 -1.796 0.43000001
5.0939999 -15.426 -1.795 0.41
5.1069999 -15.305 -1.7819999 0.38999999
5.1789999 -15.36 -1.791 0.38999999
5.23 -15.351 -1.7920001 0.28999999
5.2810001 -15.344 -1.793 0.55000001
5.3769999 -15.464 -1.811 0.30000001
5.4089999 -15.398 -1.804 0.43000001
5.434 -15.394 -1.8049999 0.46000001
5.4860001 -15.386 -1.806 0.34
5.5349998 -15.37 -1.806 0.47
5.618 -15.448 -1.819 0.28
5.6950002 -15.507 -1.829 0.47999999
5.698 -15.368 -1.813 0.34999999
5.757 -15.378 -1.817 0.30000001
5.7919998 -15.396 -1.8200001 0.5
5.8379998 -15.373 -1.8200001 0.31999999
5.902 -15.395 -1.825 0.49000001
5.9450002 -15.363 -1.823 0.38
6.0219998 -15.417 -1.8329999 0.38
6.0560002 -15.363 -1.8279999 0.40000001
6.118 -15.377 -1.832 0.41
6.1849999 -15.474 -1.847 0.41999999
6.2800002 -15.57 -1.862 0.38999999
6.2820001 -15.435 -1.847 0.38
6.3299999 -15.413 -1.846 0.44999999
6.402 -15.45 -1.854 0.47999999
6.5170002 -15.589 -1.875 0.27000001
6.4489999 -15.359 -1.846 0.36000001
6.5009999 -15.348 -1.847 0.47999999
6.553 -15.337 -1.848 0.34
6.605 -15.325 -1.85 0.47999999
6.7080002 -15.43 -1.8660001 0.37
6.7989998 -15.505 -1.8789999 0.41
6.8239999 -15.431 -1.872 0.38
6.8150001 -15.346 -1.862 0.28
6.8629999 -15.323 -1.862 0.49000001
6.9180002 -15.317 -1.864 0.41
7.0079999 -15.386 -1.876 0.31
7.0320001 -15.311 -1.869 0.41999999
7.1079998 -15.35 -1.878 0.38
7.184 -15.387 -1.886 0.37
7.2049999 -15.369 -1.885 0.28999999
7.243 -15.325 -1.882 0.60000002
7.421 -15.572 -1.918 0.33000001
7.5440001 -15.704 -1.9400001 0.38999999
7.5440001 -15.579 -1.926 0.27000001
7.6469998 -15.665 -1.941 0.5
7.678 -15.604 -1.936 0.34
7.7059999 -15.599 -1.937 0.27000001
7.717 -15.498 -1.926 0.36000001
7.8410001 -15.625 -1.947 0.25999999
7.9679999 -15.752 -1.9680001 0.38
7.96 -15.616 -1.9529999 0.30000001
7.9770002 -15.529 -1.944 0.38999999
8.0369997 -15.585 -1.954 0.44
8.0900002 -15.567 -1.955 0.43000001
8.2259998 -15.707 -1.977 0.28999999
8.1560001 -15.456 -1.946 0.49000001
8.309 -15.627 -1.974 0.27000001
8.3039999 -15.499 -1.959 0.58999997
8.5930004 -15.916 -2.0209999 0.40000001
8.5889997 -15.85 -2.0139999 0.20999999
8.4729996 -15.52 -1.972 0.41999999
8.5109997 -15.475 -1.969 0.30000001
8.5539999 -15.437 -1.967 0.43000001
8.6260004 -15.452 -1.973 0.38
8.6859999 -15.446 -1.976 0.38999999
8.8070002 -15.546 -1.994 0.40000001
8.7959995 -15.47 -1.9859999 0.28999999
8.8360004 -15.427 -1.983 0.5
8.9910002 -15.584 -2.01 0.28
9.0439997 -15.563 -2.0109999 0.43000001
9.0699997 -15.495 -2.0050001 0.38
9.1190004 -15.467 -2.0050001 0.36000001
9.1829996 -15.465 -2.0090001 0.43000001
9.2159996 -15.464 -2.0109999 0.41999999
9.2370005 -15.389 -2.0039999 0.28999999
9.3520002 -15.471 -2.02 0.33000001
9.4610004 -15.539 -2.0339999 0.47
9.5170002 -15.521 -2.036 0.20999999
9.5839996 -15.522 -2.04 0.46000001
9.625 -15.534 -2.0439999 0.44999999
9.7390003 -15.608 -2.059 0.20999999
10.352 -16.469999 -2.1889999 0.51999998
10.261 -16.212999 -2.1559999 0.28999999
9.8439999 -15.45 -2.05 0.25
9.8920002 -15.417 -2.05 0.34999999
10.006 -15.488 -2.0639999 0.47
10.038 -15.484 -2.066 0.38999999
10.115 -15.495 -2.073 0.44
10.162 -15.462 -2.072 0.25999999
10.128 -15.306 -2.0539999 0.56999999
10.316 -15.482 -2.085 0.34
10.381 -15.474 -2.0880001 0.28999999
10.395 -15.443 -2.086 0.46000001
10.433 -15.395 -2.0840001 0.36000001
10.525 -15.426 -2.0929999 0.23999999
10.516 -15.31 -2.0810001 0.44999999
10.605 -15.336 -2.0899999 0.44999999
10.635 -15.276 -2.086 0.43000001
11.213 -15.996 -2.1989999 0.23999999
10.709 -15.229 -2.086 0.44
10.767 -15.21 -2.089 0.28999999
10.898 -15.292 -2.1059999 0.5
11.069 -15.429 -2.132 0.33000001
11.151 -15.441 -2.1389999 0.38
11.207 -15.415 -2.141 0.43000001
11.483 -15.69 -2.188 0.28
11.344 -15.45 -2.154 0.44999999
11.547 -15.623 -2.1860001 0.38999999
11.615 -15.612 -2.1900001 0.18000001
11.544 -15.415 -2.165 0.52999997
11.714 -15.541 -2.1900001 0.28999999
11.689 -15.406 -2.175 0.41999999
11.789 -15.437 -2.1849999 0.23999999
12.124 -15.823 -2.2479999 0.5
12.171 -15.781 -2.247 0.36000001
11.972 -15.424 -2.198 0.28999999
12.053 -15.428 -2.204 0.36000001
12.22 -15.54 -2.2279999 0.36000001
12.38 -15.641 -2.25 0.27000001
12.297 -15.438 -2.224 0.47
12.432 -15.556 -2.2460001 0.40000001
12.507 -15.55 -2.2509999 0.41999999
12.39 -15.305 -2.2179999 0.36000001
12.657 -15.535 -2.2609999 0.30000001
12.735 -15.531 -2.266 0.41
12.805 -15.517 -2.2709999 0.38
12.812 -15.475 -2.267 0.40000001
12.864 -15.439 -2.2679999 0.38999999
12.926 -15.414 -2.27 0.31999999
12.971 -15.37 -2.27 0.47999999
13.035 -15.348 -2.273 0.40000001
13.134 -15.366 -2.2820001 0.37
13.189 -15.333 -2.2839999 0.41999999
13.22 -15.32 -2.2850001 0.36000001
13.315 -15.332 -2.2939999 0.30000001
13.368 -15.296 -2.2950001 0.47999999
13.426 -15.265 -2.296 0.31
13.419 -15.162 -2.286 0.28999999
13.446 -15.096 -2.283 0.37
13.484 -15.043 -2.2809999 0.37
13.551 -15.07 -2.289 0.31999999
13.629 -15.062 -2.2950001 0.28999999
13.665 -15.006 -2.2920001 0.28
13.714 -14.965 -2.293 0.34
13.786 -14.949 -2.2969999 0.25999999
13.826 -14.898 -2.296 0.25
13.857 -14.885 -2.2969999 0.31999999
13.9 -14.837 -2.2969999 0.31
13.941 -14.787 -2.296 0.28999999
13.978 -14.733 -2.2939999 0.25999999
14.027 -14.692 -2.2950001 0.31999999
14.064 -14.64 -2.293 0.30000001
14.095 -14.58 -2.29 0.19
14.113 -14.552 -2.289 0.40000001
14.176 -14.526 -2.293 0.2
14.191 -14.45 -2.2869999 0.38
14.255 -14.424 -2.29 0.19
14.297 -14.376 -2.29 0.13
13.545 -13.537 -2.152 0.38999999
14.215 -14.116 -2.26 0.18000001
14.407 -14.261 -2.289 0.30000001
14.433 -14.197 -2.286 0.22
14.374 -14.051 -2.2679999 0.22
14.357 -13.946 -2.2579999 0.44999999
14.282 -13.787 -2.2379999 0.27000001
14.365 -13.78 -2.2449999 0.31999999
14.332 -13.705 -2.2349999 0.36000001
14.388 -13.673 -2.237 0.36000001
14.432 -13.629 -2.2379999 0.31
14.342 -13.458 -2.2149999 0.38999999
14.349 -13.381 -2.2090001 0.31
14.454 -13.394 -2.22 0.37
14.474 -13.328 -2.2160001 0.33000001
14.495 -13.305 -2.2160001 0.34
14.469 -13.198 -2.2049999 0.28999999
14.496 -13.139 -2.2030001 0.34
14.559 -13.114 -2.2060001 0.34
14.599 -13.067 -2.2060001 0.23
14.637 -13.018 -2.2060001 0.5
14.78 -13.063 -2.2219999 0.38
14.723 -12.971 -2.21 0.28999999
14.602 -12.784 -2.1830001 0.38999999
14.699 -12.787 -2.1930001 0.36000001
14.764 -12.762 -2.197 0.34
14.779 -12.695 -2.1930001 0.38
14.881 -12.701 -2.2030001 0.31
14.93 -12.662 -2.204 0.47
14.982 -12.665 -2.2090001 0.40000001
15.072 -12.66 -2.217 0.25
15.166 -12.659 -2.2260001 0.31
15.24 -12.639 -2.2309999 0.38
15.313 -12.619 -2.237 0.41
15.351 -12.569 -2.237 0.38999999
15.389 -12.52 -2.2360001 0.34
15.444 -12.524 -2.2420001 0.34
15.511 -12.498 -2.2460001 0.44
15.588 -12.479 -2.2520001 0.34
15.664 -12.459 -2.2579999 0.37
15.747 -12.444 -2.2650001 0.43000001
15.83 -12.429 -2.2720001 0.38
15.885 -12.432 -2.277 0.38
15.946 -12.4 -2.2809999 0.40000001
16.004 -12.364 -2.2839999 0.5
16.018999 -12.295 -2.28 0.31
16.007 -12.207 -2.2720001 0.33000001
16.014 -12.132 -2.267 0.28999999
16.025999 -12.063 -2.263 0.20999999
16.021 -12.02 -2.26 0.37
16.028999 -11.947 -2.2550001 0.20999999
16.034 -11.873 -2.25 0.31
16.030001 -11.792 -2.244 0.25
16.021999 -11.709 -2.237 0.16
16.047001 -11.65 -2.2349999 0.16
16.035 -11.603 -2.2309999 0.17
14.379 -10.339 -1.975 0.23999999
14.505 -10.361 -1.989 0.34
14.573 -10.341 -1.995 0.23999999
14.666 -10.337 -2.0039999 0.31
14.763 -10.336 -2.013 0.25999999
14.786 -10.283 -2.0120001 0.41
14.931 -10.349 -2.0309999 0.38
14.792 -10.184 -2.0050001 0.37
14.769 -10.101 -1.997 0.30000001
14.895 -10.118 -2.0109999 0.37
14.907 -10.057 -2.0079999 0.47999999
14.902 -9.9860001 -2.003 0.28
15.061 -10.024 -2.0220001 0.41
15.035 -9.9729996 -2.016 0.31999999
15.147 -9.9790001 -2.0280001 0.40000001
15.107 -9.8850002 -2.017 0.38
15.168 -9.8570004 -2.0220001 0.38
15.157 -9.7819996 -2.0150001 0.38
15.242 -9.7690001 -2.023 0.37
15.106 -9.6149998 -1.999 0.38
15.199 -9.6409998 -2.01 0.28999999
15.229 -9.5930004 -2.01 0.38999999
15.372 -9.6149998 -2.027 0.41
15.26 -9.4790001 -2.006 0.41
15.396 -9.4969997 -2.0220001 0.25
15.345 -9.3990002 -2.01 0.36000001
15.475 -9.4449997 -2.026 0.28
15.537 -9.415 -2.0309999 0.28999999
15.53 -9.3450003 -2.026 0.44
15.555 -9.2930002 -2.0250001 0.34
15.481 -9.184 -2.0109999 0.27000001
15.515 -9.1379995 -2.0109999 0.41
15.571 -9.1049995 -2.0150001 0.30000001
15.493 -9.0270004 -2.0020001 0.38999999
15.528 -8.9820004 -2.003 0.30000001
15.618 -8.9689999 -2.0120001 0.31999999
15.565 -8.8739996 -2 0.34
15.557 -8.8039999 -1.995 0.30000001
15.605 -8.7670002 -1.998 0.43000001
15.589 -8.6940002 -1.992 0.37
15.577 -8.6549997 -1.988 0.31
15.605 -8.6070004 -1.989 0.31
15.54 -8.507 -1.976 0.38999999
15.301 -8.3149996 -1.939 0.25
15.413 -8.3129997 -1.951 0.43000001
15.395 -8.2410002 -1.9450001 0.23
15.183 -8.066 -1.911 0.23999999
15.373 -8.1359997 -1.936 0.43000001
15.294 -8.033 -1.9220001 0.23
15.196 -7.921 -1.905 0.28999999
15.212 -7.869 -1.903 0.41
15.214 -7.809 -1.9 0.30000001
15.316 -7.8010001 -1.911 0.25
15.371 -7.7979999 -1.9170001 0.46000001
15.14 -7.6220002 -1.882 0.27000001
15.409 -7.6960001 -1.915 0.31999999
15.422 -7.6430001 -1.914 0.31999999
15.507 -7.6240001 -1.9220001 0.43000001
15.261 -7.4439998 -1.885 0.25999999
15.476 -7.4879999 -1.911 0.28999999
15.38 -7.4120002 -1.897 0.44999999
15.149 -7.243 -1.862 0.28
15.398 -7.302 -1.893 0.30000001
15.302 -7.198 -1.877 0.25
15.607 -7.2810001 -1.915 0.37
15.352 -7.1040001 -1.878 0.37
15.398 -7.0669999 -1.881 0.25
15.505 -7.086 -1.8940001 0.34999999
15.393 -6.9770002 -1.876 0.34
15.342 -6.8959999 -1.8660001 0.34999999
15.357 -6.8449998 -1.865 0.36000001
15.333 -6.776 -1.859 0.30000001
15.507 -6.7950001 -1.8789999 0.30000001
15.428 -6.7319999 -1.867 0.34999999
15.531 -6.7189999 -1.878 0.38999999
15.638 -6.7059999 -1.89 0.30000001
15.648 -6.6529999 -1.888 0.38
15.722 -6.6259999 -1.895 0.41
15.732 -6.572 -1.8940001 0.33000001
15.602 -6.46 -1.874 0.27000001
15.517 -6.3959999 -1.8609999 0.38
15.34 -6.2680001 -1.835 0.23999999
15.568 -6.303 -1.863 0.36000001
15.582 -6.2519999 -1.862 0.31
15.845 -6.3000002 -1.8940001 0.33000001
15.818 -6.2319999 -1.888 0.41
15.947 -6.224 -1.902 0.28
15.805 -6.1409998 -1.882 0.33000001
15.804 -6.0830002 -1.88 0.36000001
14.385 -5.4879999 -1.691 0.23
15.788 -5.9629998 -1.873 0.47
15.747 -5.8920002 -1.865 0.18000001
15.931 -5.9029999 -1.887 0.49000001
14.95 -5.4879999 -1.756 0.2
15.894 -5.8039999 -1.878 0.38
14.819 -5.3610001 -1.735 0.20999999
14.725 -5.2750001 -1.721 0.41999999
14.963 -5.3070002 -1.75 0.34999999
15.202 -5.3379998 -1.779 0.25
15.122 -5.256 -1.766 0.23
15.112 -5.1999998 -1.763 0.44999999
14.936 -5.1129999 -1.739 0.25
15.108 -5.119 -1.7589999 0.34
15.077 -5.0560002 -1.753 0.31999999
15.534 -5.1539998 -1.8099999 0.28999999
15.399 -5.0560002 -1.791 0.36000001
15.526 -5.0430002 -1.8049999 0.30000001
15.479 -5.0009999 -1.798 0.41
15.217 -4.8639998 -1.762 0.33000001
15.435 -4.8800001 -1.788 0.28999999
15.19 -4.7509999 -1.755 0.27000001
15.714 -4.8600001 -1.8200001 0.25999999
15.324 -4.6869998 -1.768 0.25
15.367 -4.6479998 -1.772 0.47
15.346 -4.6149998 -1.768 0.23999999
15.439 -4.5900002 -1.778 0.25999999
15.455 -4.5419998 -1.778 0.51999998
15.814 -4.5929999 -1.822 0.31999999
15.848 -4.5489998 -1.825 0.25
16.045 -4.5510001 -1.848 0.37
16.075001 -4.5040002 -1.85 0.34
15.984 -4.4520001 -1.8380001 0.41
13.434 -3.701 -1.511 0.20999999
15.87 -4.3130002 -1.8200001 0.28999999
15.98 -4.289 -1.832 0.52999997
16.028999 -4.2480001 -1.837 0.23
16.177 -4.2329998 -1.854 0.28999999
16.216999 -4.1890001 -1.857 0.30000001
16.049 -4.119 -1.835 0.44999999
16.098 -4.0780001 -1.84 0.31
15.959 -3.9890001 -1.8200001 0.25
16.031 -3.954 -1.8279999 0.51999998
15.773 -3.8380001 -1.794 0.22
16.052 -3.852 -1.827 0.33000001
15.874 -3.757 -1.803 0.28999999
15.981 -3.756 -1.816 0.25999999
15.929 -3.691 -1.808 0.38999999
15.785 -3.6059999 -1.789 0.23
15.866 -3.572 -1.7970001 0.40000001
15.97 -3.5420001 -1.809 0.34
15.943 -3.484 -1.804 0.38
15.455 -3.352 -1.742 0.23999999
15.499 -3.3110001 -1.7460001 0.44999999
15.53 -3.267 -1.749 0.34
15.515 -3.2130001 -1.7460001 0.34
15.381 -3.135 -1.728 0.36000001
15.22 -3.052 -1.706 0.38999999
15.264 -3.0109999 -1.711 0.28
15.146 -2.964 -1.6950001 0.44999999
15.152 -2.915 -1.6950001 0.27000001
14.616 -2.766 -1.627 0.47999999
14.834 -2.7579999 -1.653 0.36000001
14.71 -2.688 -1.637 0.31999999
14.653 -2.6300001 -1.628 0.50999999
14.689 -2.589 -1.632 0.40000001
14.717 -2.5699999 -1.635 0.41999999
14.768 -2.5309999 -1.64 0.37
14.819 -2.4909999 -1.646 0.31
14.887 -2.4549999 -1.653 0.31999999
14.908 -2.4100001 -1.655 0.40000001
14.859 -2.3540001 -1.648 0.41
14.164 -2.223 -1.561 0.27000001
13.993 -2.151 -1.539 0.47999999
14.08 -2.119 -1.549 0.23999999
14.118 -2.079 -1.553 0.44999999
14.553 -2.096 -1.6059999 0.25999999
14.734 -2.075 -1.628 0.41999999
14.115 -1.943 -1.55 0.38
14.128 -1.9220001 -1.551 0.38999999
14.16 -1.881 -1.554 0.38
15.162 -1.964 -1.678 0.38999999
14.54 -1.8380001 -1.6 0.18000001
15.481 -1.906 -1.716 0.46000001
15.807 -1.895 -1.755 0.33000001
15.82 -1.847 -1.756 0.33000001
15.663 -1.804 -1.7359999 0.31
15.659 -1.753 -1.735 0.31999999
15.653 -1.7029999 -1.734 0.31
15.646 -1.653 -1.732 0.28999999
15.658 -1.554 -1.733 0.41
15.651 -1.529 -1.7309999 0.63999999
15.64 -1.478 -1.729 0.63
15.662 -1.431 -1.732 0.28
15.649 -1.38 -1.729 0.28
15.655 -1.331 -1.73 0.31999999
15.655 -1.281 -1.729 0.31999999
15.663 -1.233 -1.73 0.31
15.661 -1.2079999 -1.729 0.31
15.676 -1.159 -1.7309999 0.31999999
15.666 -1.109 -1.729 0.31
15.666 -1.0599999 -1.728 0.28999999
15.675 -1.011 -1.729 0.28999999
15.674 -0.96100003 -1.729 0.28
15.681 -0.912 -1.729 0.28
15.668 -0.88700002 -1.727 0.28999999
15.679 -0.838 -1.728 0.27000001
15.672 -0.78799999 -1.727 0.20999999
15.676 -0.73900002 -1.727 0.38999999
15.664 -0.68900001 -1.726 0.25
15.669 -0.63999999 -1.726 0.27000001
15.67 -0.59100002 -1.726 0.25
15.636 -0.565 -1.722 0.18000001
15.669 -0.51700002 -1.725 0.44
15.661 -0.46700001 -1.724 0.25
15.654 -0.41800001 -1.723 0.25999999
15.671 -0.36899999 -1.725 0.25999999
15.664 -0.31999999 -1.724 0.27000001
15.659 -0.27000001 -1.724 0.28999999
15.656 -0.24600001 -1.723 0.28
15.661 -0.197 -1.724 0.27000001
15.657 -0.147 -1.723 0.25999999
15.657 -0.097999997 -1.723 0.25999999
15.652 -0.048999999 -1.722 0.20999999
14.952 0.017000001 -1.7130001 0.28999999
14.944 0.064000003 -1.712 0.28
14.957 0.111 -1.714 0.28999999
14.943 0.13500001 -1.712 0.30000001
14.937 0.182 -1.711 0.28999999
14.934 0.229 -1.711 0.28999999
14.939 0.27599999 -1.712 0.30000001
14.923 0.322 -1.71 0.27000001
14.923 0.36899999 -1.71 0.28999999
14.916 0.41600001 -1.709 0.30000001
14.912 0.43900001 -1.709 0.28
14.914 0.486 -1.709 0.28999999
14.899 0.53200001 -1.707 0.28999999
14.899 0.579 -1.7079999 0.27000001
14.907 0.62699997 -1.709 0.27000001
14.915 0.67400002 -1.71 0.27000001
14.899 0.72000003 -1.7079999 0.25999999
14.905 0.74400002 -1.709 0.27000001
14.915 0.79100001 -1.711 0.23
14.908 0.838 -1.71 0.18000001
14.912 0.88499999 -1.711 0.43000001
14.893 0.93099999 -1.709 0.25
14.896 0.97799999 -1.71 0.25999999
14.908 1.002 -1.712 0.23999999
14.897 1.049 -1.711 0.20999999
14.89 1.095 -1.71 0.41999999
14.878 1.141 -1.709 0.25
14.875 1.188 -1.709 0.25999999
14.879 1.235 -1.71 0.27000001
14.869 1.2819999 -1.709 0.25999999
14.863 1.3049999 -1.709 0.27000001
14.851 1.351 -1.7079999 0.28999999
14.847 1.397 -1.7079999 0.30000001
14.836 1.443 -1.707 0.27000001
14.826 1.489 -1.706 0.28999999
14.825 1.536 -1.707 0.28999999
14.826 1.584 -1.7079999 0.30000001
14.819 1.6059999 -1.707 0.30000001
14.802 1.652 -1.706 0.30000001
14.793 1.698 -1.705 0.30000001
14.794 1.745 -1.706 0.31
14.792 1.7920001 -1.706 0.31
14.777 1.837 -1.705 0.33000001
14.765 1.883 -1.704 0.31999999
14.762 1.906 -1.704 0.31999999
14.75 1.952 -1.704 0.31999999
14.74 1.997 -1.7029999 0.31999999
14.733 2.0439999 -1.7029999 0.31999999
14.741 2.092 -1.705 0.31
14.736 2.138 -1.705 0.30000001
14.735 2.1860001 -1.706 0.31999999
14.724 2.2079999 -1.705 0.30000001
14.715 2.2539999 -1.705 0.27000001
14.717 2.3010001 -1.706 0.30000001
14.7 2.346 -1.705 0.28999999
14.697 2.3929999 -1.705 0.28999999
14.699 2.441 -1.706 0.27000001
14.699 2.464 -1.707 0.27000001
14.697 2.5109999 -1.7079999 0.2
14.683 2.5569999 -1.707 0.44999999
14.662 2.5999999 -1.705 0.25
14.661 2.648 -1.706 0.2
14.657 2.694 -1.707 0.41999999
14.65 2.7409999 -1.707 0.23
14.634 2.7620001 -1.705 0.18000001
14.619 2.8069999 -1.705 0.41999999
14.614 2.8529999 -1.705 0.25
14.59 2.8959999 -1.7029999 0.25
14.571 2.9400001 -1.702 0.27000001
14.556 2.984 -1.701 0.28
14.543 3.006 -1.7 0.28
14.54 3.053 -1.701 0.25999999
14.516 3.095 -1.699 0.28
14.501 3.1400001 -1.698 0.28
14.491 3.1849999 -1.698 0.28999999
14.485 3.2320001 -1.699 0.28999999
14.474 3.277 -1.699 0.28999999
14.469 3.3 -1.699 0.31
14.453 3.3440001 -1.698 0.28
14.433 3.3870001 -1.697 0.28999999
14.422 3.4319999 -1.697 0.28999999
14.417 3.4790001 -1.698 0.31
14.404 3.5239999 -1.697 0.30000001
14.391 3.569 -1.697 0.30000001
14.395 3.5940001 -1.698 0.30000001
14.376 3.6370001 -1.697 0.30000001
14.361 3.681 -1.697 0.28999999
14.343 3.7249999 -1.696 0.28999999
14.335 3.7709999 -1.697 0.28
14.31 3.812 -1.6950001 0.2
14.277 3.852 -1.692 0.46000001
14.278 3.8759999 -1.693 0.25
14.279 3.925 -1.6950001 0.23
14.265 3.9690001 -1.6950001 0
14.287 4.0229998 -1.699 0.1
14.305 4.0770001 -1.7029999 0.23999999
14.265 4.1139998 -1.7 0.30000001
14.269 4.164 -1.702 0.28
14.267 4.1869998 -1.702 0.28
14.25 4.2309999 -1.702 0.27000001
14.242 4.277 -1.7029999 0.28
14.234 4.3239999 -1.7029999 0.27000001
14.205 4.3639998 -1.701 0.28999999
14.192 4.4089999 -1.701 0.27000001
14.194 4.434 -1.7029999 0.27000001
14.193 4.4829998 -1.704 0.27000001
14.17 4.5240002 -1.7029999 0.30000001
14.159 4.5700002 -1.704 0.28
14.141 4.6129999 -1.7029999 0.28999999
14.117 4.6539998 -1.702 0.27000001
14.106 4.6999998 -1.702 0.28999999
14.087 4.7179999 -1.701 0.30000001
14.065 4.7600002 -1.7 0.30000001
14.054 4.8049998 -1.7 0.30000001
14.035 4.848 -1.7 0.30000001
14.018 4.8920002 -1.7 0.31999999
13.997 4.934 -1.699 0.31
13.974 4.9749999 -1.698 0.30000001
13.958 4.994 -1.697 0.31999999
13.942 5.0380001 -1.697 0.30000001
13.921 5.0799999 -1.696 0.28999999
13.909 5.125 -1.697 0.31999999
13.88 5.164 -1.6950001 0.28
13.858 5.2049999 -1.694 0.28999999
13.836 5.2470002 -1.693 0.25
13.816 5.2639999 -1.692 0.30000001
13.711 5.2740002 -1.6799999 0.31999999
13.666 5.3060002 -1.676 0.22
13.589 5.3249998 -1.6670001 0.51999998
13.559 5.3629999 -1.666 0.38999999
13.295 5.3070002 -1.632 0.31999999
13.175 5.3080001 -1.617 0.38999999
13.215 5.3470001 -1.624 0.43000001
13.267 5.4169998 -1.6339999 0.25
13.28 5.4710002 -1.638 0.62
13.193 5.4840002 -1.628 0.27000001
13.073 5.4829998 -1.614 0.36000001
13.014 5.506 -1.608 0.38
12.91 5.4860001 -1.595 0.27000001
12.823 5.4970002 -1.585 0.38
12.746 5.5110002 -1.577 0.36000001
12.688 5.5339999 -1.571 0.28999999
12.667 5.572 -1.571 0.23
12.659 5.6160002 -1.572 0.31
12.605 5.6399999 -1.567 0.34
12.594 5.6589999 -1.567 0.34999999
12.593 5.7059999 -1.569 0.46000001
12.593 5.7529998 -1.571 0.36000001
12.681 5.842 -1.586 0.41
12.643 5.8720002 -1.584 0.37
12.603 5.902 -1.581 0.5
12.753 5.9970002 -1.603 0.25
12.711 6.026 -1.6 0.50999999
12.601 6.0219998 -1.587 0.44999999
12.569 6.0560002 -1.585 0.38
12.55 6.0949998 -1.585 0.31999999
12.576 6.1560001 -1.592 0.38999999
12.54 6.1880002 -1.589 0.41
12.459 6.1719999 -1.579 0.47
12.337 6.1599998 -1.564 0.34
12.332 6.2059999 -1.566 0.44999999
12.363 6.2709999 -1.574 0.30000001
12.321 6.2979999 -1.5700001 0.62
12.421 6.3979998 -1.5880001 0
20.198 11.036 -2.744 0
4.546 2.902 -0.491 0
4.6430001 2.984 -0.50700003 0
4.9759998 3.217 -0.55900002 0
5.3969998 3.5120001 -0.62400001 0
5.395 3.5339999 -0.62599999 0
5.3990002 3.549 -0.62699997 0
5.3930001 3.569 -0.62800002 0
4.8439999 3.2309999 -0.546 0
4.6009998 3.0910001 -0.50999999 0
4.5869999 3.1029999 -0.509 0
5.2309999 3.5580001 -0.61000001 0
5.3920002 3.691 -0.63700002 0
5.3660002 3.6860001 -0.634 0
4.5809999 3.1719999 -0.514 0
4.5630002 3.181 -0.51200002 0
4.5560002 3.198 -0.51300001 0
4.552 3.217 -0.514 0
4.5539999 3.2390001 -0.51599997 0
4.5650001 3.2579999 -0.51800001 0
4.5669999 3.2809999 -0.51999998 0
4.5650001 3.3010001 -0.52100003 0
4.553 3.3139999 -0.52100003 0
4.5489998 3.3329999 -0.52200001 0
4.5609999 3.3640001 -0.52600002 0
4.5890002 3.4059999 -0.53200001 0
5.4169998 4.0279999 -0.66399997 0
4.3590002 3.27 -0.498 0.1
4.3649998 3.2950001 -0.5 0.15000001
4.3319998 3.2920001 -0.49700001 0.33000001
4.322 3.306 -0.49700001 0.23999999
4.3070002 3.316 -0.49599999 0
4.2350001 3.2820001 -0.486 0
3.793 3.5929999 -0.46900001 0
9.9960003 11.655 -1.765 0.16
9.9490004 11.675 -1.762 0.25
9.8900003 11.68 -1.758 0.28999999
9.835 11.69 -1.755 0.28999999
9.7580004 11.672 -1.747 0.30000001
9.7220001 11.666 -1.743 0.28999999
9.6630001 11.671 -1.739 0.27000001
9.6000004 11.669 -1.733 0.28999999
9.5459995 11.678 -1.73 0.28999999
9.4849997 11.678 -1.725 0.30000001
9.4300003 11.685 -1.721 0.30000001
9.3710003 11.687 -1.717 0.31
9.3260002 11.669 -1.711 0.28
9.2659998 11.669 -1.706 0.30000001
9.2110004 11.674 -1.7029999 0.30000001
9.1420002 11.663 -1.696 0.28999999
9.0860004 11.666 -1.692 0.30000001
9.0200005 11.657 -1.686 0.30000001
8.9630003 11.659 -1.682 0.30000001
8.9200001 11.641 -1.676 0.30000001
8.8699999 11.652 -1.674 0.31
8.8050003 11.642 -1.668 0.30000001
8.7469997 11.641 -1.663 0.23
8.6949997 11.648 -1.66 0.36000001
8.6429996 11.654 -1.656 0.25
9.2959995 12.615 -1.8049999 0.13
9.2650003 12.613 -1.802 0.41
9.2399998 12.663 -1.806 0.25
9.2399998 12.747 -1.814 0.23
9.1809998 12.75 -1.8099999 0.28999999
9.1289997 12.761 -1.807 0.37
9.0710001 12.765 -1.804 0.28
8.9969997 12.745 -1.796 0.40000001
8.9709997 12.751 -1.795 0.37
8.8839998 12.713 -1.784 0.28999999
8.8430004 12.739 -1.784 0.27000001
8.7950001 12.755 -1.7819999 0.25999999
8.7600002 12.791 -1.784 0.28999999
8.7440004 12.853 -1.789 0.31
8.7370005 12.886 -1.7920001 0.31
8.6730003 12.879 -1.7869999 0.31999999
8.6479998 12.929 -1.79 0.33000001
8.6070004 12.956 -1.79 0.31999999
8.5810003 13.005 -1.793 0.25999999
8.5080004 12.984 -1.786 0.31
8.4840002 13.035 -1.79 0.28
8.4280005 13.039 -1.786 0.31
8.4029999 13.045 -1.785 0.25
8.368 13.081 -1.7869999 0.28999999
8.3269997 13.108 -1.7869999 0.27000001
8.2279997 13.042 -1.773 0.28999999
8.1400003 12.994 -1.762 0.28999999
8.0819998 12.992 -1.758 0.28
8.0500002 13.031 -1.76 0.31
8.0539999 13.084 -1.766 0.28
8.0139999 13.111 -1.766 0.31999999
7.9899998 13.163 -1.77 0.28999999
7.9520001 13.195 -1.771 0.31
7.8759999 13.162 -1.762 0.38
7.7820001 13.098 -1.749 0.25999999
7.7610002 13.11 -1.749 0.23
7.7379999 13.165 -1.7539999 0.20999999
7.671 13.145 -1.747 0.40000001
7.618 13.15 -1.744 0.25
7.5650001 13.154 -1.7410001 0.23999999
7.4920001 13.122 -1.733 0.18000001
7.4169998 13.085 -1.724 0.44
7.4000001 13.104 -1.725 0.25
7.3800001 13.165 -1.7309999 0.25999999
7.3299999 13.173 -1.729 0.28
7.2750001 13.171 -1.725 0.28999999
7.223 13.175 -1.722 0.30000001
7.1719999 13.18 -1.72 0.28999999
7.1209998 13.185 -1.717 0.28999999
7.0869999 13.17 -1.714 0.30000001
7.04 13.182 -1.712 0.28999999
6.9829998 13.176 -1.7079999 0.28999999
6.934 13.184 -1.706 0.30000001
6.881 13.183 -1.7029999 0.30000001
6.8280001 13.181 -1.699 0.30000001
6.7800002 13.19 -1.698 0.30000001
6.7470002 13.178 -1.694 0.30000001
6.6950002 13.178 -1.691 0.30000001
6.6440001 13.18 -1.688 0.30000001
6.5900002 13.176 -1.6849999 0.27000001
6.5419998 13.184 -1.683 0.28999999
6.4889998 13.181 -1.6799999 0.28999999
6.4369998 13.18 -1.677 0.28999999
6.4089999 13.174 -1.674 0.31999999
6.3610001 13.182 -1.673 0.31
6.3109999 13.184 -1.67 0.28
6.2550001 13.173 -1.666 0.28999999
6.21 13.185 -1.665 0.28999999
6.1609998 13.189 -1.663 0.28999999
6.1069999 13.181 -1.659 0.33000001
6.0780001 13.171 -1.656 0.30000001
6.0279999 13.172 -1.653 0.30000001
5.973 13.162 -1.649 0.28999999
5.9239998 13.162 -1.647 0.30000001
5.8779998 13.172 -1.646 0.28999999
5.8249998 13.163 -1.642 0.28999999
5.7690001 13.149 -1.637 0.28999999
5.7480001 13.156 -1.637 0.28
5.6890001 13.134 -1.631 0.19
5.6440001 13.144 -1.63 0.43000001
5.5999999 13.155 -1.6289999 0.22
5.546 13.143 -1.625 0.23999999
5.4990001 13.148 -1.623 0.18000001
5.4559999 13.159 -1.623 0.12
5.4359999 13.17 -1.623 0
5.3940001 13.185 -1.623 0
5.3990002 13.318 -1.6390001 0.12
5.4559999 13.577 -1.6720001 0.13
5.427 13.629 -1.677 0.36000001
5.3909998 13.665 -1.6799999 0.2
5.348 13.68 -1.679 0.28999999
5.309 13.644 -1.673 0.28
5.2659998 13.66 -1.673 0.23
5.2340002 13.705 -1.677 0.47
5.191 13.723 -1.677 0.31999999
5.1690001 13.795 -1.6849999 0.25999999
5.0970001 13.735 -1.674 0.38999999
5.0650001 13.781 -1.679 0.30000001
5.0560002 13.822 -1.683 0.38999999
4.9840002 13.76 -1.6720001 0.28
4.9320002 13.751 -1.669 0.27000001
4.8709998 13.718 -1.663 0.28999999
4.8299999 13.739 -1.663 0.38999999
4.8260002 13.864 -1.678 0.36000001
4.777 13.793 -1.668 0.28
4.7449999 13.844 -1.6720001 0.27000001
4.6960001 13.84 -1.67 0.47999999
4.6430001 13.828 -1.666 0.31999999
4.625 13.918 -1.676 0.38999999
4.553 13.848 -1.665 0.31
4.5079999 13.856 -1.664 0.28
4.4860001 13.863 -1.664 0.37
4.454 13.913 -1.669 0.37
4.4159999 13.944 -1.671 0.28999999
4.3670001 13.943 -1.669 0.36000001
4.3099999 13.915 -1.664 0.43000001
4.2509999 13.879 -1.6569999 0.34999999
4.23 13.966 -1.6670001 0.23999999
4.191 13.995 -1.669 0.33000001
4.1459999 13.925 -1.659 0.30000001
4.1160002 13.984 -1.665 0.38999999
4.0799999 14.023 -1.669 0.38
4.027 14.007 -1.665 0.33000001
3.987 14.033 -1.6670001 0.38
3.947 14.061 -1.669 0.34999999
3.9200001 14.048 -1.666 0.36000001
3.8740001 14.053 -1.665 0.25
3.8269999 14.055 -1.664 0.34
3.7869999 14.084 -1.666 0.34999999
3.733 14.06 -1.661 0.25999999
3.698 14.104 -1.666 0.47999999
3.6530001 14.116 -1.666 0.23
3.6270001 14.106 -1.664 0.51999998
3.5710001 14.069 -1.6569999 0.38999999
3.5109999 14.019 -1.649 0.23999999
3.4790001 14.078 -1.655 0.33000001
3.4289999 14.068 -1.653 0.43000001
3.3900001 14.1 -1.655 0.40000001
3.3299999 14.045 -1.647 0.37
3.3050001 14.036 -1.645 0.38999999
3.2650001 14.062 -1.647 0.43000001
3.276 14.312 -1.679 0
1.402 6.283 -0.62400001 0.14
1.376 6.2600002 -0.62099999 0.20999999
1.359 6.2740002 -0.62199998 0.20999999
3.0250001 14.134 -1.649 0.34
2.987 14.172 -1.653 0.41999999
2.948 14.211 -1.6569999 0.36000001
2.905 14.226 -1.658 0.38999999
2.859 14.229 -1.6569999 0.44
2.799 14.164 -1.647 0.37
2.766 14.227 -1.654 0.40000001
2.7479999 14.257 -1.658 0.30000001
2.698 14.24 -1.654 0.52999997
2.6530001 14.245 -1.654 0.38
2.6110001 14.268 -1.656 0.43000001
2.5680001 14.286 -1.6569999 0.37
2.517 14.259 -1.653 0.5
2.47 14.253 -1.651 0.31
2.4560001 14.306 -1.6569999 0.40000001
2.4170001 14.351 -1.6619999 0.44999999
2.3610001 14.29 -1.653 0.41
2.309 14.254 -1.648 0.38
2.2720001 14.31 -1.654 0.38
2.23 14.339 -1.6569999 0.43000001
2.187 14.356 -1.658 0.41
2.165 14.365 -1.659 0.40000001
2.1129999 14.327 -1.653 0.33000001
2.0599999 14.28 -1.646 0.43000001
2.0209999 14.324 -1.651 0.34999999
1.977 14.34 -1.652 0.43000001
1.9349999 14.37 -1.655 0.38
1.8890001 14.368 -1.654 0.34
1.865 14.361 -1.653 0.43000001
1.814 14.316 -1.646 0.41
1.768 14.313 -1.645 0.33000001
1.71 14.215 -1.632 0.47
1.664 14.208 -1.63 0.36000001
1.6160001 14.188 -1.627 0.41
1.571 14.189 -1.627 0.36000001
1.545 14.156 -1.622 0.47999999
1.5 14.152 -1.6210001 0.43000001
1.4529999 14.135 -1.618 0.50999999
1.431 14.363 -1.647 0.28999999
1.393 14.436 -1.656 0.41999999
1.342 14.381 -1.648 0.38
1.301 14.431 -1.654 0.38999999
1.278 14.435 -1.654 0.41
1.2359999 14.475 -1.659 0.34999999
1.1900001 14.474 -1.658 0.44
1.145 14.48 -1.658 0.37
1.101 14.501 -1.661 0.40000001
1.057 14.525 -1.663 0.38999999
1.0039999 14.431 -1.651 0.46000001
0.98299998 14.452 -1.653 0.38
0.93800002 14.465 -1.655 0.44999999
0.89399999 14.494 -1.658 0.36000001
0.85000002 14.522 -1.661 0.44
0.80299997 14.505 -1.659 0.34999999
0.759 14.519 -1.66 0.44
0.713 14.518 -1.66 0.41
0.69 14.513 -1.659 0.37
0.64300001 14.485 -1.655 0.44999999
0.60000002 14.559 -1.664 0.36000001
0.55500001 14.568 -1.665 0.41
0.50800002 14.544 -1.6619999 0.44999999
0.463 14.558 -1.664 0.34
0.43799999 14.511 -1.6569999 0.46000001
0.39300001 14.522 -1.659 0.37
0.347 14.515 -1.658 0.46000001
0.303 14.564 -1.664 0.37
0.257 14.571 -1.665 0.44999999
0.211 14.573 -1.665 0.30000001
0.16500001 14.532 -1.659 0.47999999
0.142 14.531 -1.659 0.41999999
0.096000001 14.527 -1.659 0.33000001
0.050999999 14.501 -1.655 0.43000001
0.0049999999 14.478 -1.652 0.34
