# .PCD v0.7 - Point Cloud Data file format
VERSION 0.7
FIELDS x y z intensity
SIZE 4 4 4 4
TYPE F F F F
COUNT 1 1 1 1
WIDTH 1412
HEIGHT 1
VIEWPOINT 0 0 0 1 0 0 0
POINTS 1412
DATA ascii
8.1639996 -1.073 -1.712 0.34
8.1680002 -1.048 -1.712 0.33000001
8.1689997 -1.022 -1.711 0.31999999
8.1780005 -0.99699998 -1.7130001 0.31
8.1730003 -0.97000003 -1.711 0.30000001
8.1759996 -0.94400001 -1.711 0.31999999
8.1870003 -0.93300003 -1.7130001 0.33000001
8.1859999 -0.90700001 -1.712 0.31999999
8.1949997 -0.88099998 -1.7130001 0.31999999
8.1899996 -0.85500002 -1.712 0.25999999
8.1850004 -0.82800001 -1.71 0.36000001
8.1969995 -0.80400002 -1.712 0.33000001
8.1999998 -0.778 -1.712 0.31999999
8.2030001 -0.76499999 -1.7130001 0.31
8.1949997 -0.73900002 -1.71 0.31999999
8.2019997 -0.713 -1.711 0.28999999
8.2040005 -0.68699998 -1.711 0.30000001
8.2119999 -0.662 -1.7130001 0.30000001
8.21 -0.63599998 -1.712 0.30000001
8.2119999 -0.61000001 -1.712 0.30000001
8.2049999 -0.597 -1.71 0.30000001
8.2089996 -0.57099998 -1.71 0.28999999
8.2159996 -0.546 -1.712 0.31999999
8.2119999 -0.51899999 -1.71 0.28
8.2180004 -0.49399999 -1.711 0.28999999
8.2080002 -0.46700001 -1.709 0.30000001
8.2130003 -0.442 -1.709 0.30000001
8.2119999 -0.42899999 -1.709 0.30000001
8.2110004 -0.403 -1.709 0.28999999
8.2080002 -0.377 -1.7079999 0.28999999
8.2209997 -0.352 -1.71 0.31999999
8.2139997 -0.32499999 -1.709 0.28
8.2150002 -0.30000001 -1.709 0.31
8.2159996 -0.27399999 -1.709 0.31999999
8.2110004 -0.26100001 -1.707 0.31
8.2119999 -0.235 -1.707 0.31999999
8.2180004 -0.20900001 -1.709 0.30000001
8.2089996 -0.183 -1.706 0.31
8.2040005 -0.15700001 -1.705 0.31999999
8.2019997 -0.132 -1.705 0.31999999
8.1949997 -0.118 -1.7029999 0.28999999
8.1990004 -0.093000002 -1.704 0.34999999
8.2010002 -0.067000002 -1.704 0.33000001
8.1969995 -0.041000001 -1.7029999 0.28999999
8.2069998 -0.016000001 -1.706 0.34
7.8790002 0.001 -1.702 0.19
7.8709998 0.026000001 -1.7 0.25
7.8730001 0.037999999 -1.701 0.19
7.8779998 0.063000001 -1.702 0.25
7.8649998 0.086999997 -1.699 0.23
7.8579998 0.112 -1.697 0.18000001
7.8699999 0.13699999 -1.7 0.25999999
7.8730001 0.162 -1.701 0.23
7.8670001 0.186 -1.7 0.20999999
7.868 0.199 -1.7 0.25
7.8639998 0.223 -1.699 0.22
7.8569999 0.248 -1.698 0.23
7.8600001 0.273 -1.699 0.23
7.869 0.29800001 -1.701 0.2
7.8579998 0.322 -1.699 0.25
7.8540001 0.33399999 -1.698 0.23
7.8610001 0.359 -1.7 0.2
7.8540001 0.384 -1.698 0.23999999
7.8429999 0.40799999 -1.696 0.23
7.8530002 0.433 -1.699 0.2
7.8460002 0.45699999 -1.697 0.23999999
7.8499999 0.48199999 -1.699 0.2
7.8460002 0.49399999 -1.698 0.23
7.8439999 0.51899999 -1.698 0.2
7.836 0.54299998 -1.697 0.22
7.8369999 0.56800002 -1.697 0.2
7.829 0.59200001 -1.696 0.23999999
7.8499999 0.61900002 -1.701 0.20999999
7.8390002 0.64300001 -1.699 0.12
7.836 0.65499997 -1.698 0.20999999
7.8239999 0.67799997 -1.696 0.11
7.8239999 0.70300001 -1.697 0.19
7.822 0.72799999 -1.697 0.11
7.823 0.75300002 -1.697 0.18000001
7.8280001 0.778 -1.699 0.1
7.8080001 0.801 -1.6950001 0.18000001
7.8109999 0.81400001 -1.696 0.2
7.8200002 0.83899999 -1.699 0.1
7.8140001 0.86299998 -1.698 0.18000001
7.803 0.88700002 -1.696 0.11
7.8099999 0.91299999 -1.698 0.19
7.7989998 0.93599999 -1.697 0.2
7.7940001 0.96100003 -1.696 0.1
7.8140001 0.97600001 -1.701 0.18000001
7.7800002 0.99599999 -1.694 0.050000001
7.7870002 1.022 -1.696 0.16
7.789 1.0470001 -1.697 0.11
7.7740002 1.0700001 -1.6950001 0.19
7.777 1.095 -1.696 0.11
7.7690001 1.119 -1.6950001 0.18000001
7.7579999 1.13 -1.693 0.20999999
7.77 1.156 -1.697 0.19
7.7620001 1.1799999 -1.696 0.20999999
7.7579999 1.205 -1.696 0.19
7.7410002 1.227 -1.692 0.23
7.7620001 1.255 -1.698 0.2
7.7389998 1.2640001 -1.693 0.23
7.7470002 1.29 -1.696 0.19
7.7350001 1.313 -1.694 0.12
7.723 1.336 -1.692 0.2
7.723 1.3609999 -1.693 0.2
7.7160001 1.385 -1.693 0.23999999
7.7020001 1.4069999 -1.691 0.22
7.7020001 1.42 -1.691 0.2
7.711 1.447 -1.694 0.23999999
7.6929998 1.4680001 -1.691 0.23
7.6859999 1.492 -1.691 0.19
7.6890001 1.518 -1.692 0.27000001
7.677 1.54 -1.691 0.25
7.6750002 1.552 -1.691 0.18000001
7.6719999 1.577 -1.691 0.27000001
7.6490002 1.597 -1.687 0.25
7.6500001 1.623 -1.688 0.25
7.6599998 1.65 -1.692 0.23999999
7.6279998 1.668 -1.686 0.18000001
7.6290002 1.693 -1.687 0.28
7.6370001 1.7079999 -1.6900001 0.25
7.619 1.729 -1.687 0.25
7.6209998 1.755 -1.688 0.25999999
7.612 1.778 -1.688 0.25999999
7.6100001 1.802 -1.688 0.27000001
7.5890002 1.823 -1.6849999 0.25999999
7.6149998 1.854 -1.692 0.25
7.5739999 1.857 -1.683 0.19
7.5819998 1.8839999 -1.687 0.28999999
7.5830002 1.91 -1.688 0.25
7.5700002 1.932 -1.687 0.25999999
7.5679998 1.956 -1.688 0.23
7.5609999 1.98 -1.688 0.18000001
7.5419998 2 -1.684 0.28999999
7.5370002 2.0120001 -1.684 0.25
7.5549998 2.0420001 -1.6900001 0.25999999
7.5430002 2.0639999 -1.688 0.23999999
7.5209999 2.0840001 -1.6849999 0.20999999
7.526 2.1110001 -1.688 0.28
7.4990001 2.128 -1.683 0.23999999
7.5029998 2.155 -1.6849999 0.25999999
7.5089998 2.1700001 -1.688 0.25
7.4819999 2.187 -1.683 0.2
7.4920001 2.2160001 -1.687 0.28
7.4899998 2.2409999 -1.688 0.23
7.4759998 2.2620001 -1.686 0.20999999
7.474 2.2869999 -1.688 0.25
7.4780002 2.3010001 -1.689 0.23
7.454 2.3199999 -1.6849999 0.18000001
7.4710002 2.3510001 -1.691 0.28
7.447 2.369 -1.687 0.19
7.4390001 2.392 -1.687 0.25
7.4260001 2.414 -1.686 0.23
7.4190001 2.437 -1.686 0.2
7.415 2.4489999 -1.686 0.25
7.4050002 2.471 -1.6849999 0.19
7.395 2.494 -1.6849999 0.12
7.3800001 2.5150001 -1.683 0.2
7.3740001 2.5380001 -1.683 0.11
7.3829999 2.5669999 -1.688 0.18000001
7.3579998 2.585 -1.683 0.12
7.3520002 2.596 -1.683 0.2
7.3400002 2.6170001 -1.682 0.11
7.3410001 2.6440001 -1.684 0.18000001
7.316 2.661 -1.6799999 0.050000001
7.3099999 2.684 -1.681 0.18000001
7.3010001 2.707 -1.681 0.1
7.2870002 2.7279999 -1.679 0.18000001
7.2849998 2.74 -1.6799999 0.11
7.2820001 2.7650001 -1.681 0.18000001
7.277 2.79 -1.682 0.20999999
7.2509999 2.806 -1.678 0.090000004
7.243 2.829 -1.678 0.2
7.2459998 2.8570001 -1.681 0.11
7.2360001 2.8789999 -1.681 0.18000001
7.2259998 2.888 -1.679 0.20999999
7.2129998 2.9089999 -1.678 0.1
7.198 2.9289999 -1.677 0.19
7.1960001 2.9549999 -1.679 0.11
7.1849999 2.977 -1.678 0.18000001
7.1690001 2.9960001 -1.677 0.20999999
7.1570001 3.0050001 -1.675 0.1
7.165 3.0350001 -1.679 0.18000001
7.1430001 3.052 -1.676 0.22
7.1370001 3.076 -1.677 0.19
7.1199999 3.095 -1.675 0.22
7.1069999 3.1159999 -1.674 0.19
7.086 3.1329999 -1.6720001 0.23
7.092 3.1489999 -1.674 0.19
7.0749998 3.168 -1.673 0.23999999
7.0650001 3.191 -1.673 0.19
7.0570002 3.214 -1.673 0.25
7.0479999 3.2360001 -1.674 0.19
7.0279999 3.2539999 -1.671 0.25
7.0120001 3.273 -1.669 0.22
7.0170002 3.289 -1.6720001 0.2
7.0040002 3.3099999 -1.671 0.23999999
6.993 3.332 -1.671 0.23
6.9759998 3.3499999 -1.669 0.20999999
6.9650002 3.372 -1.669 0.25
6.9699998 3.402 -1.674 0.19
6.9419999 3.415 -1.669 0.25
6.9439998 3.4289999 -1.671 0.23
6.9289999 3.4489999 -1.67 0.2
6.9289999 3.4760001 -1.673 0.27000001
6.9060001 3.4920001 -1.669 0.25
6.8899999 3.5109999 -1.668 0.18000001
6.8800001 3.533 -1.669 0.25999999
6.8730001 3.5569999 -1.669 0.25
6.8509998 3.559 -1.665 0.19
6.8520002 3.5869999 -1.669 0.25999999
6.8340001 3.605 -1.6670001 0.22
6.8280001 3.6289999 -1.668 0.2
6.8179998 3.652 -1.669 0.25
6.8000002 3.6689999 -1.6670001 0.20999999
6.7870002 3.6900001 -1.666 0.2
6.7880001 3.704 -1.668 0.25
6.7740002 3.7249999 -1.668 0.23
6.7620001 3.7460001 -1.668 0.19
6.7490001 3.766 -1.6670001 0.25999999
6.73 3.783 -1.665 0.23
6.723 3.8069999 -1.6670001 0.20999999
6.7210002 3.8199999 -1.668 0.23999999
6.7119999 3.8429999 -1.669 0.2
6.6929998 3.8599999 -1.6670001 0.23
6.6760001 3.878 -1.665 0.22
6.6739998 3.905 -1.668 0.11
6.6420002 3.914 -1.663 0.2
6.6409998 3.9419999 -1.666 0.11
6.6279998 3.948 -1.664 0.2
6.6240001 3.974 -1.666 0.11
6.6230001 4.0019999 -1.669 0.18000001
6.5960002 4.0139999 -1.665 0.20999999
6.585 4.0349998 -1.666 0.1
6.5689998 4.0539999 -1.665 0.18000001
6.5619998 4.079 -1.6670001 0.2
6.553 4.0869999 -1.666 0.1
6.5380001 4.1069999 -1.665 0.17
6.5170002 4.1220002 -1.663 0.050000001
6.5190001 4.152 -1.6670001 0.17
6.4889998 4.1620002 -1.663 0.039999999
6.4879999 4.1890001 -1.666 0.18000001
6.4660001 4.2049999 -1.664 0.050000001
6.461 4.2160001 -1.664 0.16
6.4499998 4.237 -1.664 0.050000001
6.441 4.2610002 -1.666 0.18000001
6.421 4.276 -1.664 0.050000001
6.4050002 4.2940001 -1.663 0.16
6.3979998 4.3189998 -1.665 0.2
6.3870001 4.3410001 -1.666 0.090000004
6.3670001 4.342 -1.6619999 0.18000001
6.349 4.3590002 -1.661 0.050000001
6.3590002 4.3959999 -1.668 0.18000001
6.309 4.3899999 -1.6569999 0.050000001
6.3080001 4.4190001 -1.661 0
6.2870002 4.434 -1.659 0
6.3179998 4.4710002 -1.67 0
6.29 4.4809999 -1.666 0.050000001
6.2810001 4.5040002 -1.6670001 0.15000001
6.2410002 4.5050001 -1.66 0.20999999
6.2259998 4.5240002 -1.66 0.18000001
6.2259998 4.553 -1.664 0.23
6.2059999 4.5700002 -1.6619999 0.2
6.1900001 4.572 -1.66 0.22
6.197 4.6079998 -1.666 0.19
6.1599998 4.6100001 -1.659 0.23
6.1469998 4.6300001 -1.66 0.22
6.1399999 4.6560001 -1.6619999 0.2
6.1110001 4.664 -1.658 0.25
6.0890002 4.677 -1.655 0.22
6.0999999 4.7010002 -1.661 0.19
6.0710001 4.71 -1.6569999 0.25999999
6.052 4.7249999 -1.655 0.2
6.046 4.7509999 -1.658 0.25
6.0240002 4.7639999 -1.656 0.23
6.0040002 4.7789998 -1.655 0.18000001
5.9949999 4.803 -1.656 0.25999999
5.974 4.802 -1.652 0.23
5.9629998 4.8239999 -1.654 0.2
5.9660001 4.8579998 -1.659 0.27000001
5.9250002 4.855 -1.651 0.25
5.9219999 4.8839998 -1.655 0.23999999
5.9169998 4.9109998 -1.658 0.20999999
5.881 4.9120002 -1.652 0.28
5.8720002 4.9200001 -1.651 0.25
5.8649998 4.9460001 -1.654 0.25999999
5.8449998 4.961 -1.653 0.27000001
5.8309999 4.98 -1.653 0.25999999
5.8270001 5.0089998 -1.6569999 0.25
5.789 5.0079999 -1.65 0.20999999
5.8000002 5.0339999 -1.656 0.28
5.7789998 5.0469999 -1.654 0.25
5.7529998 5.0560002 -1.651 0.27000001
5.7480001 5.0840001 -1.655 0.25999999
5.7319999 5.1020002 -1.655 0.25999999
5.7129998 5.118 -1.654 0.25
5.697 5.1350002 -1.654 0.18000001
5.6859999 5.1420002 -1.653 0.28
5.6630001 5.1529999 -1.65 0.25
5.651 5.1750002 -1.652 0.25999999
5.6399999 5.198 -1.654 0.25
5.6329999 5.223 -1.656 0.25999999
5.6090002 5.2340002 -1.654 0.28999999
5.5970001 5.256 -1.655 0.25999999
5.586 5.2620001 -1.655 0.28999999
5.5580001 5.2690001 -1.651 0.28999999
5.5409999 5.2859998 -1.651 0.34
5.5159998 5.296 -1.648 0.31
5.4899998 5.303 -1.645 0.31999999
5.4619999 5.3099999 -1.641 0.31999999
5.4250002 5.3060002 -1.635 0.34
5.402 5.3010001 -1.63 0.34
5.3940001 5.3260002 -1.633 0.38
5.3769999 5.3429999 -1.633 0.33000001
5.3520002 5.3520002 -1.63 0.38
5.3280001 5.362 -1.628 0.33000001
5.2940001 5.3600001 -1.622 0.33000001
5.3010001 5.402 -1.63 0.36000001
5.2919998 5.4089999 -1.63 0.36000001
5.302 5.454 -1.6390001 0.37
5.276 5.4619999 -1.636 0.31
5.283 5.5040002 -1.6440001 0.28999999
5.257 5.5100002 -1.641 0.31999999
5.2179999 5.5040002 -1.6339999 0.30000001
5.1929998 5.5120001 -1.631 0.30000001
5.1669998 5.5019999 -1.625 0.30000001
5.1440001 5.5120001 -1.623 0.28999999
5.1069999 5.507 -1.617 0.28
5.0780001 5.5100002 -1.613 0.28
5.0430002 5.507 -1.607 0.30000001
5.0120001 5.507 -1.602 0.30000001
4.9770002 5.5040002 -1.596 0.28
4.961 5.5029998 -1.5930001 0.27000001
4.9320002 5.5050001 -1.589 0.28999999
4.901 5.5050001 -1.584 0.30000001
4.8670001 5.5009999 -1.5779999 0.27000001
4.8400002 5.506 -1.575 0.31999999
4.8179998 5.5149999 -1.573 0.30000001
4.8000002 5.513 -1.5700001 0.30000001
4.7579999 5.4980001 -1.561 0.28
4.7329998 5.5040002 -1.558 0.28999999
4.7030001 5.5040002 -1.554 0.28999999
4.678 5.5100002 -1.551 0.31
4.6440001 5.5050001 -1.545 0.31
4.6170001 5.5079999 -1.5420001 0.30000001
4.5960002 5.5 -1.5369999 0.28999999
4.579 5.5149999 -1.5369999 0.33000001
4.5560002 5.5229998 -1.535 0.28999999
4.539 5.5370002 -1.535 0.27000001
4.5149999 5.5440001 -1.533 0.28
4.4980001 5.5580001 -1.533 0.28999999
4.4780002 5.5689998 -1.5319999 0.28999999
4.4679999 5.592 -1.535 0.25999999
4.4489999 5.5869999 -1.531 0.27000001
4.4369998 5.6069999 -1.533 0.27000001
4.4120002 5.612 -1.53 0.28
4.4060001 5.6409998 -1.535 0.30000001
4.3790002 5.6420002 -1.531 0.38999999
4.3429999 5.6329999 -1.525 0.36000001
4.3369999 5.6430001 -1.525 0.34
4.3039999 5.6360002 -1.52 0.38
4.2659998 5.6230001 -1.512 0.36000001
4.2389998 5.6240001 -1.508 0.36000001
4.2119999 5.625 -1.505 0.38
4.1939998 5.638 -1.505 0.34
4.1789999 5.6539998 -1.506 0.38999999
4.177 5.6700001 -1.508 0.37
4.151 5.6729999 -1.505 0.34
4.1459999 5.7030001 -1.51 0.38999999
4.1160002 5.6999998 -1.506 0.33000001
4.1059999 5.724 -1.5089999 0.38999999
4.085 5.7319999 -1.507 0.36000001
4.0999999 5.7909999 -1.521 0.33000001
4.0970001 5.8070002 -1.523 0.36000001
4.073 5.8119998 -1.521 0.41
4.0469999 5.8140001 -1.518 0.34
4.0289998 5.8260002 -1.518 0.43000001
4.006 5.8330002 -1.516 0.41
3.9820001 5.8369999 -1.5140001 0.37
3.954 5.835 -1.51 0.37
3.9579999 5.8610001 -1.515 0.40000001
3.9530001 5.8920002 -1.521 0.36000001
3.9400001 5.9130001 -1.523 0.36000001
3.9070001 5.9039998 -1.517 0.31999999
3.8959999 5.928 -1.52 0.34999999
3.8789999 5.9429998 -1.521 0.34999999
3.8629999 5.9590001 -1.522 0.38
3.858 5.9710002 -1.524 0.33000001
3.8469999 5.9970002 -1.527 0.37
3.823 6 -1.525 0.34
3.8039999 6.0120001 -1.525 0.36000001
3.7820001 6.0190001 -1.524 0.36000001
3.7650001 6.0349998 -1.525 0.38
3.7479999 6.0479999 -1.525 0.37
3.7360001 6.0510001 -1.524 0.31999999
3.721 6.0689998 -1.526 0.37
3.7030001 6.0819998 -1.526 0.31
3.721 6.1560001 -1.543 0.38
3.7090001 6.1810002 -1.5470001 0.33000001
3.7079999 6.223 -1.5549999 0.36000001
3.6900001 6.237 -1.556 0.36000001
3.654 6.198 -1.544 0.38
3.625 6.1919999 -1.539 0.31999999
3.6170001 6.224 -1.544 0.36000001
3.608 6.2540002 -1.549 0.37
3.589 6.2670002 -1.55 0.34
3.5699999 6.2779999 -1.55 0.36000001
3.5580001 6.3049998 -1.554 0.37
3.5510001 6.3150001 -1.5549999 0.34
3.5239999 6.3130002 -1.552 0.31999999
3.503 6.322 -1.551 0.36000001
3.47 6.309 -1.545 0.38999999
3.448 6.3150001 -1.544 0.37
3.437 6.3429999 -1.548 0.34
3.424 6.3670001 -1.552 0.34999999
3.411 6.3660002 -1.55 0.38999999
3.381 6.3579998 -1.545 0.31999999
3.345 6.3390002 -1.5369999 0.36000001
3.3269999 6.3530002 -1.538 0.37
3.3039999 6.3579998 -1.5369999 0.34999999
3.276 6.3509998 -1.5319999 0.33000001
3.263 6.375 -1.536 0.36000001
3.257 6.3889999 -1.538 0.37
3.2379999 6.401 -1.539 0.41
3.223 6.4219999 -1.541 0.37
3.1989999 6.4250002 -1.539 0.36000001
3.1900001 6.4580002 -1.545 0.34999999
3.161 6.448 -1.54 0.36000001
3.1470001 6.4720001 -1.544 0.37
3.1389999 6.4819999 -1.545 0.36000001
3.1359999 6.527 -1.554 0.34
3.1240001 6.5570002 -1.559 0.33000001
3.1129999 6.586 -1.564 0.34
3.109 6.6329999 -1.574 0.36000001
3.1370001 6.7490001 -1.601 0.36000001
3.1440001 6.8189998 -1.6160001 0.34999999
3.102 6.756 -1.599 0.31999999
3.1159999 6.8439999 -1.619 0.31999999
3.108 6.882 -1.626 0.31999999
3.0650001 6.8439999 -1.614 0.43000001
3.052 6.8730001 -1.619 0.34999999
3.0380001 6.9000001 -1.623 0.38999999
2.9949999 6.862 -1.6109999 0.28999999
2.9990001 6.9000001 -1.62 0.31999999
3.01 6.987 -1.6390001 0.40000001
2.8870001 6.756 -1.579 0.25
2.961 6.993 -1.636 0.33000001
2.9360001 6.993 -1.6339999 0.38
2.901 6.9720001 -1.626 0.33000001
2.882 6.9879999 -1.628 0.38
2.8859999 7.0310001 -1.637 0.30000001
2.8429999 6.987 -1.624 0.33000001
2.8239999 7.0029998 -1.626 0.37
2.8139999 7.0430002 -1.6339999 0.36000001
2.796 7.0630002 -1.637 0.38
2.7780001 7.0809999 -1.6390001 0.38999999
2.7509999 7.0780001 -1.636 0.34
2.714 7.0149999 -1.619 0.34999999
2.7079999 7.066 -1.63 0.37
2.704 7.1220002 -1.641 0.38999999
2.6559999 7.0609999 -1.624 0.33000001
2.579 6.921 -1.5880001 0.31999999
2.5439999 6.8940001 -1.579 0.37
2.5369999 6.9070001 -1.581 0.31999999
2.5190001 6.9260001 -1.584 0.31
2.467 6.8499999 -1.563 0.34
2.4389999 6.8369999 -1.558 0.38
2.4130001 6.8319998 -1.5549999 0.36000001
2.3959999 6.8540001 -1.559 0.38
2.3740001 6.8600001 -1.558 0.36000001
2.3610001 6.8930001 -1.5650001 0.46000001
2.369 6.9520001 -1.5779999 0.25999999
2.316 6.8649998 -1.5549999 0.33000001
2.293 6.869 -1.554 0.38
2.2579999 6.835 -1.544 0.38999999
2.2309999 6.8260002 -1.54 0.40000001
2.2130001 6.842 -1.543 0.38999999
2.191 6.8470001 -1.5420001 0.41
2.1900001 6.8839998 -1.55 0.36000001
2.2049999 7.0079999 -1.579 0.41
2.164 6.9530001 -1.564 0.31999999
2.1159999 6.8730001 -1.543 0.20999999
2.128 6.9910002 -1.5700001 0.25999999
2.204 7.3280001 -1.65 0.25999999
2.4400001 8.1709995 -1.852 0.23
2.425 8.2139997 -1.8609999 0.23999999
2.3929999 8.2010002 -1.8559999 0.19
2.368 8.21 -1.8559999 0.28999999
2.3369999 8.2010002 -1.852 0.23999999
2.3139999 8.2159996 -1.854 0.25999999
2.286 8.217 -1.853 0.28
2.267 8.198 -1.847 0.27000001
2.2420001 8.2049999 -1.847 0.25999999
2.2160001 8.2119999 -1.847 0.27000001
2.187 8.2080002 -1.845 0.27000001
2.1589999 8.2049999 -1.842 0.27000001
2.1329999 8.2119999 -1.842 0.28
2.105 8.2110004 -1.84 0.28
2.0910001 8.2110004 -1.84 0.27000001
2.062 8.2019997 -1.836 0.23
2.036 8.2089996 -1.836 0.28
2.0079999 8.2069998 -1.834 0.25
1.982 8.2119999 -1.834 0.27000001
1.954 8.2080002 -1.831 0.25
1.927 8.2110004 -1.831 0.25
1.901 8.2130003 -1.83 0.25
1.885 8.2030001 -1.827 0.2
1.8559999 8.1949997 -1.823 0.059999999
1.597 7.1409998 -1.572 0.17
1.804 8.2049999 -1.823 0.25999999
1.779 8.2119999 -1.823 0.27000001
1.495 6.9920001 -1.533 0.18000001
1.49 7.0209999 -1.539 0.37
1.465 7.0120001 -1.536 0.31
1.645 8.0179996 -1.773 0.11
1.437 7.0999999 -1.5549999 0.20999999
1.63 8.2069998 -1.8150001 0.25
1.6 8.1929998 -1.811 0.19
1.576 8.2060003 -1.813 0.28999999
1.562 8.2030001 -1.811 0.25
1.534 8.1940002 -1.808 0.25999999
1.507 8.1949997 -1.807 0.27000001
1.48 8.1920004 -1.8049999 0.27000001
1.454 8.191 -1.804 0.27000001
1.427 8.1899996 -1.803 0.25999999
1.399 8.1809998 -1.799 0.25999999
1.386 8.1829996 -1.799 0.25999999
1.3609999 8.1890001 -1.8 0.25
1.331 8.1680002 -1.794 0.18000001
1.306 8.1780005 -1.795 0.28
1.279 8.1709995 -1.793 0.25
1.256 8.1920004 -1.7970001 0.23999999
1.227 8.1789999 -1.793 0.18000001
1.214 8.1789999 -1.7920001 0.28
1.186 8.165 -1.788 0.25
1.16 8.165 -1.7869999 0.2
1.135 8.1759996 -1.789 0.27000001
1.109 8.1719999 -1.7869999 0.25
1.082 8.1660004 -1.785 0.19
1.056 8.1669998 -1.785 0.27000001
1.043 8.1709995 -1.785 0.25
1.016 8.1610003 -1.7819999 0.19
0.991 8.1680002 -1.783 0.27000001
0.96399999 8.1590004 -1.78 0.23
0.93800002 8.158 -1.779 0.18000001
0.91299999 8.1669998 -1.78 0.27000001
0.88700002 8.1700001 -1.78 0.23
0.87300003 8.158 -1.777 0.2
0.847 8.1619997 -1.778 0.25
0.82200003 8.1709995 -1.779 0.19
0.796 8.1669998 -1.778 0.23999999
0.76999998 8.1680002 -1.777 0.20999999
0.74400002 8.1619997 -1.776 0.23
0.71899998 8.1759996 -1.778 0.19
0.70499998 8.158 -1.774 0.050000001
0.67900002 8.158 -1.773 0.17
0.65200001 8.151 -1.771 0.050000001
0.62800002 8.1719999 -1.776 0.16
0.602 8.1680002 -1.774 0.18000001
0.57700002 8.1739998 -1.775 0.17
0.55000001 8.1660004 -1.773 0.039999999
0.53799999 8.1709995 -1.774 0
0.51300001 8.1820002 -1.776 0
0.48699999 8.1820002 -1.776 0
0.463 8.2220001 -1.785 0
0.43799999 8.2410002 -1.789 0
0.41100001 8.2150002 -1.7819999 0
0.38800001 8.2810001 -1.7970001 0
0.37599999 8.2930002 -1.8 0
0.352 8.3620005 -1.816 0
0.32499999 8.342 -1.811 0
0.30599999 8.5489998 -1.859 0
0.28299999 8.6789999 -1.888 0
0.25400001 8.6090002 -1.872 0
0.23100001 8.7840004 -1.9119999 0
0.21600001 8.7679996 -1.909 0
0.18700001 8.6479998 -1.881 0
0.16 8.651 -1.881 0
0.133 8.665 -1.8839999 0
0.106 8.6920004 -1.891 0
0.078000002 8.7060003 -1.8940001 0
0.050999999 8.724 -1.898 0.029999999
0.037 8.7939997 -1.914 0.13
0.0099999998 8.835 -1.924 0.039999999
-0.017999999 8.8879995 -1.936 0
-0.046 8.9049997 -1.9400001 0.059999999
-0.074000001 8.9049997 -1.9400001 0.090000004
-0.102 8.8800001 -1.934 0.090000004
-0.13 8.8929996 -1.937 0.090000004
-0.14399999 8.908 -1.941 0.079999998
-0.17200001 8.8800001 -1.934 0.090000004
-0.2 8.8990002 -1.939 0.18000001
-0.227 8.8710003 -1.933 0.050000001
-0.255 8.8509998 -1.928 0.16
-0.28299999 8.8780003 -1.934 0.11
-0.31099999 8.8789997 -1.9349999 0.18000001
-0.32600001 8.8879995 -1.937 0.22
-0.35299999 8.8629999 -1.932 0.1
-0.38299999 8.915 -1.944 0.079999998
-0.412 8.9309998 -1.948 0.2
-0.43900001 8.908 -1.943 0.11
-0.46599999 8.8990002 -1.941 0.14
-0.49599999 8.9289999 -1.948 0.18000001
-0.50999999 8.934 -1.95 0.090000004
-0.53399998 8.8620005 -1.933 0.079999998
-0.55699998 8.7939997 -1.918 0.039999999
-0.58700001 8.8140001 -1.923 0.07
-0.61299998 8.7950001 -1.919 0.079999998
-0.64099997 8.7980003 -1.92 0.16
-0.671 8.8249998 -1.927 0.16
-0.68699998 8.8500004 -1.933 0.16
-0.71700001 8.8800001 -1.941 0.17
-0.74599999 8.8920002 -1.944 0.039999999
-0.77399999 8.882 -1.942 0.15000001
-0.80400002 8.8999996 -1.947 0.050000001
-0.829 8.8769999 -1.942 0.07
-0.85399997 8.8430004 -1.9349999 0.14
-0.86900002 8.849 -1.937 0.039999999
-0.89700001 8.8470001 -1.937 0
-0.92000002 8.7989998 -1.926 0
-0.94 8.7299995 -1.911 0
-0.963 8.6870003 -1.901 0
-0.99000001 8.684 -1.901 0
-1.017 8.6730003 -1.9 0
-1.035 8.7139997 -1.91 0
-1.051 8.6160002 -1.887 0
-1.079 8.6199999 -1.8890001 0
-1.105 8.6110001 -1.888 0
-1.109 8.4370003 -1.848 0
-1.12 8.3219995 -1.822 0
-1.147 8.3199997 -1.822 0
-1.1440001 8.2080002 -1.7970001 0
-1.173 8.2259998 -1.802 0
-1.1950001 8.1929998 -1.795 0
-1.219 8.1800003 -1.793 0.029999999
-1.24 8.1490002 -1.786 0.039999999
-1.2690001 8.1660004 -1.791 0.039999999
-1.293 8.151 -1.789 0.07
-1.304 8.1389999 -1.786 0.15000001
-1.335 8.1660004 -1.794 0.16
-1.355 8.125 -1.785 0.039999999
-1.38 8.1190004 -1.785 0.16
-1.411 8.1450005 -1.7920001 0.19
-1.433 8.1219997 -1.7869999 0.090000004
-1.4579999 8.1169996 -1.7869999 0.18000001
-1.475 8.1379995 -1.793 0.11
-1.4960001 8.1059999 -1.786 0.18000001
-1.525 8.1210003 -1.791 0.11
-1.553 8.1309996 -1.794 0.20999999
-1.5779999 8.1199999 -1.793 0.18000001
-1.604 8.1210003 -1.794 0.25999999
-1.633 8.1330004 -1.799 0.23
-1.642 8.1120005 -1.794 0.19
-1.671 8.1239996 -1.798 0.27000001
-1.701 8.1370001 -1.803 0.25
-1.722 8.1090002 -1.7970001 0.2
-1.751 8.1230001 -1.802 0.28
-1.778 8.1230001 -1.803 0.25
-1.8049999 8.1230001 -1.804 0.25
-1.816 8.1140003 -1.803 0.25999999
-1.846 8.1260004 -1.807 0.25999999
-1.869 8.1079998 -1.804 0.27000001
-1.898 8.1219997 -1.809 0.25999999
-1.928 8.1309996 -1.813 0.27000001
-1.9529999 8.1230001 -1.812 0.27000001
-1.978 8.1160002 -1.812 0.27000001
-1.995 8.1289997 -1.816 0.27000001
-2.0190001 8.118 -1.8150001 0.27000001
-2.0450001 8.1140003 -1.8150001 0.27000001
-2.075 8.1239996 -1.819 0.27000001
-2.102 8.1219997 -1.8200001 0.27000001
-2.1300001 8.1260004 -1.823 0.28
-2.1600001 8.1370001 -1.827 0.27000001
-2.1719999 8.1309996 -1.827 0.28
-2.2 8.1300001 -1.8279999 0.27000001
-2.2290001 8.1359997 -1.831 0.28
-2.2550001 8.1330004 -1.832 0.28
-2.2820001 8.1300001 -1.8329999 0.27000001
-2.312 8.1389999 -1.837 0.27000001
-2.3380001 8.132 -1.837 0.27000001
-2.3559999 8.1450005 -1.841 0.28
-2.382 8.1409998 -1.842 0.27000001
-2.4089999 8.1379995 -1.8430001 0.27000001
-2.4349999 8.132 -1.8430001 0.28
-2.467 8.1459999 -1.849 0.28
-2.4909999 8.1330004 -1.847 0.28999999
-2.52 8.1359997 -1.85 0.28
-2.5350001 8.1379995 -1.851 0.28999999
-2.563 8.1389999 -1.854 0.28999999
-2.5899999 8.1330004 -1.854 0.28999999
-2.6170001 8.132 -1.8559999 0.28
-2.6459999 8.1330004 -1.858 0.28
-2.675 8.1359997 -1.8609999 0.25
-2.707 8.1459999 -1.865 0.28
-2.714 8.125 -1.8609999 0.2
-2.7449999 8.1309996 -1.865 0.28999999
-2.756 8.0819998 -1.855 0.2
-2.806 8.1429996 -1.872 0.25
-2.5179999 7.171 -1.637 0.38999999
-2.8729999 8.0889997 -1.865 0.23999999
-2.8940001 8.1079998 -1.8710001 0.23
-2.934 8.1379995 -1.881 0.20999999
-2.96 8.132 -1.882 0.28
-2.993 8.1409998 -1.886 0.22
-3.0139999 8.1210003 -1.883 0.17
-3.0480001 8.1330004 -1.8890001 0.28999999
-3.0710001 8.1160002 -1.887 0.23999999
-3.095 8.1420002 -1.895 0.23999999
-3.112 8.1090002 -1.8890001 0.12
-3.0320001 7.829 -1.822 0.19
-3.1760001 8.1230001 -1.897 0.25
-3.2079999 8.1300001 -1.901 0.25
-3.2320001 8.1140003 -1.9 0.20999999
-3.2690001 8.1330004 -1.9069999 0.28
-3.2739999 8.1099997 -1.903 0.22
-2.8210001 6.9330001 -1.6109999 0.16
-2.819 6.869 -1.597 0.34999999
-2.8629999 6.9120002 -1.61 0.43000001
-2.9159999 6.9780002 -1.6289999 0.25
-2.9590001 7.0170002 -1.641 0.33000001
-2.9779999 7.0029998 -1.64 0.30000001
-2.994 7.0089998 -1.642 0.30000001
-3.017 7.0009999 -1.643 0.43000001
-3.0120001 6.9310002 -1.627 0.27000001
-3.0050001 6.8559999 -1.6109999 0.28
-3.036 6.869 -1.617 0.44
-3.0680001 6.8829999 -1.623 0.28999999
-3.066 6.8200002 -1.609 0.30000001
-3.158 6.994 -1.655 0.31999999
-3.132 6.8800001 -1.628 0.30000001
-3.1789999 6.9250002 -1.642 0.34999999
-3.2090001 6.9320002 -1.646 0.38
-3.227 6.9130001 -1.6440001 0.31999999
-3.2360001 6.8769999 -1.637 0.36000001
-3.2460001 6.842 -1.631 0.36000001
-3.2720001 6.868 -1.6390001 0.31999999
-3.316 6.9050002 -1.651 0.34999999
-3.3540001 6.928 -1.66 0.38999999
-3.355 6.8759999 -1.649 0.37
-3.385 6.8829999 -1.654 0.34
-3.4130001 6.8839998 -1.6569999 0.38999999
-3.4260001 6.8559999 -1.652 0.41
-3.4030001 6.7849998 -1.635 0.31999999
-3.4519999 6.8280001 -1.649 0.37
-3.4660001 6.803 -1.646 0.38999999
-3.4849999 6.7870002 -1.6440001 0.37
-3.4990001 6.7620001 -1.641 0.37
-3.4809999 6.677 -1.6210001 0.34
-3.497 6.6560001 -1.618 0.34
-3.516 6.6669998 -1.623 0.37
-3.5320001 6.6459999 -1.62 0.41
-3.5650001 6.6570001 -1.626 0.38
-3.602 6.677 -1.6339999 0.36000001
-3.641 6.698 -1.643 0.36000001
-3.668 6.6960001 -1.646 0.40000001
-3.7149999 6.7329998 -1.658 0.36000001
-3.72 6.717 -1.655 0.34999999
-3.7320001 6.6880002 -1.651 0.34
-3.7780001 6.7199998 -1.663 0.34
-3.8269999 6.757 -1.676 0.37
-3.8469999 6.744 -1.675 0.38
-3.8529999 6.704 -1.668 0.36000001
-3.855 6.6599998 -1.66 0.34
-3.8570001 6.6389999 -1.655 0.34
-3.888 6.645 -1.66 0.34999999
-3.921 6.6529999 -1.666 0.34
-3.947 6.6490002 -1.668 0.41
-3.9530001 6.612 -1.661 0.33000001
-3.9719999 6.5960002 -1.66 0.34
-4.0009999 6.599 -1.664 0.36000001
-3.99 6.5570002 -1.655 0.41
-3.9419999 6.434 -1.625 0.31999999
-3.95 6.401 -1.619 0.34999999
-3.97 6.3889999 -1.619 0.38
-3.994 6.3829999 -1.6210001 0.31999999
-4.0089998 6.362 -1.619 0.34
-4.0229998 6.3400002 -1.6160001 0.34
-4.0240002 6.3200002 -1.613 0.37
-4.0370002 6.296 -1.609 0.38999999
-4.0419998 6.2610002 -1.603 0.38
-4.0640001 6.2509999 -1.604 0.25
-4.0949998 6.256 -1.609 0.44999999
-4.1240001 6.2579999 -1.613 0.36000001
-4.1430001 6.243 -1.613 0.36000001
-4.1609998 6.25 -1.6160001 0.41
-4.1919999 6.2529998 -1.6210001 0.33000001
-4.21 6.2379999 -1.62 0.34
-4.2119999 6.1989999 -1.613 0.34999999
-4.2290001 6.1810002 -1.612 0.34
-4.2550001 6.177 -1.614 0.38
-4.2919998 6.1890001 -1.622 0.33000001
-4.3119998 6.197 -1.626 0.33000001
-4.3189998 6.1659999 -1.6210001 0.37
-4.3410001 6.1570001 -1.622 0.37
-4.3709998 6.158 -1.626 0.36000001
-4.3909998 6.1459999 -1.627 0.36000001
-4.414 6.1360002 -1.628 0.38
-4.461 6.1599998 -1.6390001 0.38
-4.4629998 6.1420002 -1.636 0.40000001
-4.4990001 6.152 -1.642 0.41
-4.5380001 6.164 -1.65 0.34999999
-4.5419998 6.1300001 -1.6440001 0.31
-4.402 5.9029999 -1.5829999 0.41
-4.4320002 5.9039998 -1.587 0.38999999
-4.5570002 6.0310001 -1.628 0.31
-4.5890002 6.053 -1.637 0.36000001
-4.6020002 6.0310001 -1.6339999 0.36000001
-4.6069999 5.9980001 -1.6289999 0.36000001
-4.625 5.9819999 -1.628 0.37
-4.5949998 5.9060001 -1.61 0.37
-4.5580001 5.8210001 -1.59 0.34
-4.5710001 5.7989998 -1.587 0.37
-4.5929999 5.809 -1.592 0.31
-4.6209998 5.8060002 -1.596 0.36000001
-4.6739998 5.8340001 -1.609 0.40000001
-4.7090001 5.8410001 -1.615 0.38
-4.737 5.8379998 -1.618 0.31999999
-4.7069998 5.7639999 -1.601 0.33000001
-4.6989999 5.7179999 -1.591 0.43000001
-4.7080002 5.711 -1.591 0.38
-4.77 5.7480001 -1.607 0.34999999
-4.8239999 5.776 -1.62 0.34
-4.8460002 5.7659998 -1.622 0.37
-4.862 5.7470002 -1.6210001 0.37
-4.875 5.7259998 -1.619 0.36000001
-4.869 5.6830001 -1.61 0.38999999
-4.8699999 5.6659999 -1.608 0.33000001
-4.9130001 5.6799998 -1.617 0.34
-4.908 5.6389999 -1.609 0.36000001
-4.9349999 5.6329999 -1.612 0.36000001
-4.9439998 5.6090002 -1.609 0.36000001
-4.9590001 5.5910001 -1.608 0.38
-4.993 5.592 -1.613 0.34999999
-5.0139999 5.599 -1.618 0.37
-5.0279999 5.579 -1.617 0.38
-5.0609999 5.5799999 -1.622 0.31999999
-5.0739999 5.559 -1.62 0.34
-5.0780001 5.5279999 -1.6160001 0.38999999
-5.099 5.5170002 -1.617 0.41999999
-5.1339998 5.5190001 -1.623 0.36000001
-5.1479998 5.5170002 -1.625 0.38
-5.1620002 5.4980001 -1.624 0.34999999
-5.1919999 5.494 -1.628 0.28999999
-5.198 5.467 -1.624 0.28
-5.2179999 5.4530001 -1.625 0.27000001
-5.2509999 5.4530001 -1.631 0.27000001
-5.2659998 5.434 -1.63 0.25
-5.276 5.427 -1.63 0.27000001
-5.3080001 5.4260001 -1.635 0.28999999
-5.3369999 5.4219999 -1.6390001 0.28
-5.3600001 5.4099998 -1.641 0.28999999
-5.401 5.4180002 -1.649 0.28
-5.414 5.3969998 -1.648 0.28
-5.4510002 5.3990002 -1.654 0.28999999
-5.4910002 5.4219999 -1.664 0.28999999
-5.5079999 5.4050002 -1.664 0.28
-5.5180001 5.381 -1.6619999 0.31
-5.573 5.4000001 -1.674 0.25999999
-5.5910001 5.3839998 -1.675 0.27000001
-5.6389999 5.3959999 -1.6849999 0.25
-5.665 5.3860002 -1.688 0.22
-5.6919999 5.3940001 -1.693 0.38
-5.7210002 5.388 -1.697 0.30000001
-5.7750001 5.4050002 -1.709 0.25
-5.7979999 5.3920002 -1.711 0.34
-5.829 5.3870001 -1.715 0.28999999
-5.8759999 5.3959999 -1.725 0.30000001
-5.895 5.3790002 -1.725 0.28
-5.9120002 5.3779998 -1.728 0.25999999
-5.9559999 5.3839998 -1.737 0.23999999
-5.967 5.3600001 -1.735 0.31
-5.9829998 5.3400002 -1.734 0.36000001
-6.0100002 5.3299999 -1.738 0.38
-6.0310001 5.3150001 -1.739 0.38999999
-6.0770001 5.3210001 -1.748 0.44999999
-6.1040001 5.3280001 -1.7539999 0.30000001
-6.1220002 5.3109999 -1.7539999 0.27000001
-6.1440001 5.2950001 -1.756 0.25999999
-6.1560001 5.2719998 -1.7539999 0.27000001
-6.1420002 5.2270002 -1.745 0.25999999
-6.1290002 5.1830001 -1.7359999 0.28999999
-6.1409998 5.1599998 -1.735 0.38999999
-6.1490002 5.1500001 -1.735 0.38
-6.1880002 5.1500001 -1.742 0.31999999
-6.2160001 5.1399999 -1.745 0.34999999
-6.2329998 5.1220002 -1.7460001 0.36000001
-6.2740002 5.1220002 -1.753 0.41
-6.3189998 5.125 -1.762 0.30000001
-6.342 5.112 -1.7640001 0.20999999
-6.355 5.105 -1.765 0.25
-6.375 5.0890002 -1.766 0.23
-6.382 5.0619998 -1.7640001 0.2
-6.4099998 5.0510001 -1.767 0.25
-6.4260001 5.0310001 -1.767 0.23
-6.4369998 5.007 -1.766 0.2
-6.4580002 4.9899998 -1.767 0.25
-6.4720001 4.9850001 -1.7690001 0.23
-6.4860001 4.9629998 -1.7690001 0.2
-6.507 4.948 -1.771 0.27000001
-6.5250001 4.928 -1.771 0.25
-6.5419998 4.9089999 -1.771 0.2
-6.5619998 4.8920002 -1.773 0.27000001
-6.5799999 4.8740001 -1.774 0.25
-6.5780001 4.8559999 -1.771 0.2
-6.598 4.8390002 -1.772 0.25999999
-6.618 4.822 -1.774 0.23
-6.6329999 4.8010001 -1.774 0.20999999
-6.6550002 4.7849998 -1.776 0.28
-6.671 4.7649999 -1.776 0.25
-6.6830001 4.7420001 -1.775 0.20999999
-6.698 4.737 -1.777 0.28
-6.7129998 4.7160001 -1.777 0.25
-6.7259998 4.6929998 -1.777 0.2
-6.7410002 4.6719999 -1.777 0.27000001
-6.7610002 4.6539998 -1.778 0.23
-6.777 4.6339998 -1.779 0.18000001
-6.7930002 4.6139998 -1.779 0.27000001
-6.8000002 4.6030002 -1.779 0.23
-6.8260002 4.5900002 -1.7819999 0.18000001
-6.836 4.5650001 -1.781 0.25999999
-6.8530002 4.546 -1.7819999 0.18000001
-6.8660002 4.5229998 -1.781 0.25
-6.8800001 4.5009999 -1.781 0.19
-6.902 4.5 -1.785 0.23999999
-6.9120002 4.4759998 -1.785 0.19
-6.9229999 4.4520001 -1.784 0.22
-6.9499998 4.4390001 -1.7869999 0.19
-6.9559999 4.4120002 -1.785 0.12
-6.9629998 4.3860002 -1.783 0.20999999
-6.9850001 4.369 -1.785 0.11
-6.9850001 4.3540001 -1.784 0.18000001
-7.0009999 4.3330002 -1.784 0.11
-7.0180001 4.3130002 -1.785 0.2
-7.0279999 4.289 -1.784 0.11
-7.0549998 4.2750001 -1.788 0.18000001
-7.0630002 4.25 -1.786 0.22
-7.0879998 4.2350001 -1.789 0.19
-7.0910001 4.2059999 -1.7869999 0.20999999
-7.0960002 4.1939998 -1.786 0.1
-7.1040001 4.1690001 -1.785 0.2
-7.1209998 4.1490002 -1.786 0.11
-7.1269999 4.1220002 -1.784 0.18000001
-7.152 4.1069999 -1.7869999 0.11
-7.1599998 4.0809999 -1.786 0.19
-7.1659999 4.0549998 -1.784 0.2
-7.1869998 4.052 -1.788 0
-7.1659999 4.0110002 -1.779 0
-7.1680002 3.983 -1.776 0
-7.1789999 3.9590001 -1.776 0
-7.1950002 3.938 -1.777 0
-7.2069998 3.9159999 -1.777 0
-7.2329998 3.9000001 -1.78 0
-7.2199998 3.8789999 -1.776 0
-7.2509999 3.8659999 -1.78 0
-7.257 3.8399999 -1.779 0.050000001
-7.2579999 3.812 -1.776 0.039999999
-7.2820001 3.7950001 -1.779 0.17
-7.289 3.77 -1.778 0.2
-7.2969999 3.7590001 -1.778 0.1
-7.303 3.733 -1.777 0.19
-7.3099999 3.7079999 -1.776 0.20999999
-7.3330002 3.691 -1.779 0.17
-7.3499999 3.6700001 -1.78 0.23999999
-7.3600001 3.6459999 -1.78 0.18000001
-7.3699999 3.622 -1.779 0.25
-7.3909998 3.619 -1.783 0.18000001
-7.3850002 3.5869999 -1.779 0.23
-7.4029999 3.5669999 -1.78 0.19
-7.4320002 3.552 -1.785 0.23
-7.4250002 3.52 -1.78 0.23
-7.4380002 3.4979999 -1.781 0.2
-7.4699998 3.484 -1.786 0.23999999
-7.4530001 3.4619999 -1.78 0.22
-7.474 3.4430001 -1.783 0.2
-7.5050001 3.4289999 -1.788 0.23999999
-7.4980001 3.3970001 -1.784 0.19
-7.5100002 3.3740001 -1.784 0.23999999
-7.5380001 3.359 -1.789 0.2
-7.5240002 3.3239999 -1.7819999 0.12
-7.533 3.3139999 -1.783 0.2
-7.559 3.2969999 -1.7869999 0.11
-7.553 3.266 -1.783 0.2
-7.5689998 3.2449999 -1.785 0.11
-7.592 3.2260001 -1.788 0.18000001
-7.5949998 3.2 -1.786 0.11
-7.6059999 3.1760001 -1.786 0.2
-7.6259999 3.1700001 -1.79 0.11
-7.6139998 3.138 -1.785 0.18000001
-7.6370001 3.119 -1.788 0.19
-7.6570001 3.099 -1.79 0.1
-7.6399999 3.0639999 -1.784 0.18000001
-7.658 3.0439999 -1.786 0.11
-7.6859999 3.027 -1.79 0.17
-7.6799998 3.01 -1.788 0.050000001
-7.6929998 2.9879999 -1.789 0.18000001
-7.7080002 2.9660001 -1.79 0.050000001
-7.7059999 2.937 -1.7869999 0.17
-7.7210002 2.915 -1.789 0.050000001
-7.75 2.898 -1.794 0.17
-7.7480001 2.8699999 -1.791 0.18000001
-7.7529998 2.858 -1.791 0.18000001
-7.7709999 2.8369999 -1.793 0.17
-7.7690001 2.8080001 -1.79 0.18000001
-7.7789998 2.7850001 -1.791 0.16
-7.8039999 2.766 -1.795 0.18000001
-7.7969999 2.7360001 -1.791 0.090000004
-7.8109999 2.7130001 -1.7920001 0.090000004
-7.8410001 2.71 -1.799 0.079999998
-7.8400002 2.6819999 -1.796 0.090000004
-7.8449998 2.6559999 -1.795 0
-7.829 2.6229999 -1.789 0
-7.8039999 2.5880001 -1.781 0
-7.8210001 2.566 -1.784 0
-7.842 2.546 -1.7869999 0
-7.8179998 2.5250001 -1.78 0.02
-7.8740001 2.5150001 -1.7920001 0.15000001
-7.9120002 2.5 -1.799 0.19
-7.9159999 2.474 -1.798 0.090000004
-7.9219999 2.448 -1.798 0.18000001
-7.9559999 2.431 -1.804 0.19
-7.941 2.4000001 -1.799 0.1
-7.9450002 2.3870001 -1.799 0.18000001
-7.9770002 2.369 -1.804 0.11
-7.9749999 2.342 -1.802 0.19
-7.9759998 2.3150001 -1.801 0.11
-8.0170002 2.299 -1.809 0.18000001
-7.987 2.2639999 -1.8 0.20999999
-7.994 2.2390001 -1.8 0.19
-8.0159998 2.2309999 -1.804 0.23
-8.0120001 2.2030001 -1.802 0.18000001
-8.0150003 2.177 -1.801 0.23999999
-8.0410004 2.1559999 -1.8049999 0.2
-8.0190001 2.1240001 -1.799 0.23
-8.0430002 2.1029999 -1.803 0.19
-8.0469999 2.0769999 -1.802 0.23999999
-8.0360003 2.0610001 -1.799 0.22
-8.0500002 2.0369999 -1.8 0.20999999
-8.0640001 2.0139999 -1.802 0.23999999
-8.0430002 1.982 -1.796 0.23
-8.0609999 1.96 -1.799 0.19
-8.0749998 1.936 -1.8 0.25999999
-8.0609999 1.919 -1.796 0.25
-8.0679998 1.895 -1.7970001 0.2
-8.0909996 1.873 -1.801 0.27000001
-8.073 1.842 -1.795 0.25
-8.092 1.8200001 -1.798 0.2
-8.1110001 1.7970001 -1.801 0.27000001
-8.1049995 1.7690001 -1.799 0.25
-8.1000004 1.755 -1.7970001 0.25999999
-8.1230001 1.733 -1.801 0.27000001
-8.1169996 1.705 -1.798 0.25999999
-8.1260004 1.6799999 -1.799 0.25999999
-8.1420002 1.6569999 -1.802 0.25999999
-8.1339998 1.6289999 -1.799 0.25999999
-8.1470003 1.605 -1.8 0.25
-8.1560001 1.58 -1.801 0.25999999
-8.1540003 1.566 -1.8 0.25999999
-8.165 1.5420001 -1.802 0.19
-8.1739998 1.517 -1.803 0.27000001
-8.1630001 1.488 -1.799 0.25
-8.177 1.464 -1.801 0.19
-8.1780005 1.438 -1.8 0.27000001
-8.1730003 1.411 -1.798 0.23999999
-8.1899996 1.401 -1.802 0.20999999
-8.1929998 1.374 -1.801 0.25
-8.1929998 1.348 -1.8 0.23999999
-8.2089996 1.324 -1.803 0.2
-8.2130003 1.298 -1.803 0.25
-8.1999998 1.27 -1.799 0.19
-8.21 1.258 -1.801 0.23999999
-8.2370005 1.2359999 -1.806 0.2
-8.2270002 1.2079999 -1.803 0.23999999
-8.2460003 1.184 -1.807 0.19
-8.2379999 1.1569999 -1.804 0.12
-8.2419996 1.131 -1.804 0.2
-8.2530003 1.1059999 -1.806 0.11
-8.257 1.0930001 -1.806 0.18000001
-8.2539997 1.067 -1.8049999 0.11
-8.2670002 1.0420001 -1.807 0.2
-8.2700005 1.016 -1.807 0.11
-8.2779999 0.99000001 -1.808 0.2
-8.2810001 0.96399999 -1.808 0.11
-8.2989998 0.94 -1.812 0.18000001
-8.2869997 0.926 -1.808 0.20999999
-8.3000002 0.90100002 -1.811 0.1
-8.2930002 0.87300003 -1.808 0.18000001
-8.3009996 0.84799999 -1.8099999 0.20999999
-8.302 0.82200003 -1.809 0.2
-8.3120003 0.796 -1.811 0.1
-8.3050003 0.76899999 -1.809 0.18000001
-8.3129997 0.74400002 -1.8099999 0.20999999
-8.3120003 0.73100001 -1.8099999 0.1
-8.3199997 0.70499998 -1.811 0.18000001
-8.3030005 0.67699999 -1.807 0.050000001
-8.3269997 0.653 -1.812 0.17
-8.3210001 0.62599999 -1.8099999 0.2
-8.3190002 0.60000002 -1.809 0.1
-8.3299999 0.574 -1.811 0.16
-8.3199997 0.56 -1.808 0.20999999
-8.3249998 0.53399998 -1.809 0.1
-8.3369999 0.509 -1.812 0.2
-8.323 0.48199999 -1.808 0.1
-8.3380003 0.456 -1.811 0.18000001
-8.3290005 0.43000001 -1.809 0.22
-8.3290005 0.403 -1.808 0.18000001
-8.3389997 0.391 -1.811 0.23999999
-8.3339996 0.36399999 -1.809 0.19
-8.3360004 0.338 -1.809 0.23
-8.3369999 0.31200001 -1.809 0.2
-8.3389997 0.28600001 -1.8099999 0.25
-8.3479996 0.25999999 -1.812 0.20999999
-8.3389997 0.233 -1.809 0.18000001
-8.3470001 0.22 -1.811 0.25999999
-8.342 0.19400001 -1.8099999 0.2
-8.3500004 0.168 -1.812 0.13
-8.3649998 0.142 -1.8150001 0.18000001
-8.3470001 0.115 -1.811 0.22
-8.3520002 0.089000002 -1.812 0.16
-8.342 0.063000001 -1.809 0.27000001
-8.3479996 0.050000001 -1.811 0.23999999
-8.3500004 0.024 -1.811 0.19
-8.342 -0.0020000001 -1.809 0.25999999
-8.3479996 -0.028999999 -1.811 0.23
-8.3520002 -0.055 -1.812 0.2
-8.3520002 -0.081 -1.812 0.25
-8.342 -0.093999997 -1.809 0.22
-8.3570004 -0.121 -1.813 0.2
-8.3470001 -0.147 -1.811 0.25
-8.3479996 -0.17299999 -1.811 0.22
-8.3479996 -0.199 -1.811 0.20999999
-8.349 -0.226 -1.812 0.25
-8.3439999 -0.252 -1.811 0.19
-8.3479996 -0.278 -1.812 0.23999999
-8.368 -0.292 -1.817 0.19
-8.3559999 -0.31799999 -1.814 0.12
-8.3529997 -0.34400001 -1.813 0.2
-8.3599997 -0.37 -1.8150001 0.11
-8.3559999 -0.39700001 -1.8150001 0.2
-8.349 -0.42300001 -1.813 0.11
-8.3610001 -0.44999999 -1.817 0.2
-8.3509998 -0.46200001 -1.814 0.11
-8.3529997 -0.48899999 -1.8150001 0.19
-8.3599997 -0.51499999 -1.817 0.11
-8.3389997 -0.54000002 -1.813 0.18000001
-8.3450003 -0.56699997 -1.814 0.11
-8.3520002 -0.59399998 -1.817 0.18000001
-8.3339996 -0.60600001 -1.813 0.050000001
-8.3400002 -0.63300002 -1.814 0.18000001
-8.3590002 -0.66100001 -1.819 0.1
-8.3570004 -0.68699998 -1.819 0.18000001
-8.3339996 -0.71100003 -1.814 0.050000001
-8.3559999 -0.74000001 -1.8200001 0.18000001
-8.342 -0.76499999 -1.817 0.2
-8.3369999 -0.778 -1.817 0.1
-8.3579998 -0.80599999 -1.822 0.18000001
-8.3170004 -0.82800001 -1.813 0.050000001
-8.3319998 -0.85600001 -1.817 0.18000001
-8.3409996 -0.884 -1.8200001 0.11
-8.3280001 -0.90899998 -1.817 0.2
-8.3170004 -0.93400002 -1.816 0.11
-8.3529997 -0.95099998 -1.824 0.18000001
-8.3240004 -0.97500002 -1.818 0.20999999
-8.3249998 -1.001 -1.819 0.18000001
-8.3360004 -1.029 -1.822 0.23
-8.3149996 -1.053 -1.818 0.2
-8.3140001 -1.079 -1.819 0.23
-8.3120003 -1.1059999 -1.819 0.18000001
-8.3030005 -1.118 -1.817 0.25
-8.3050003 -1.145 -1.819 0.19
-8.3030005 -1.171 -1.819 0.23
-8.2840004 -1.1950001 -1.816 0.22
-8.2629995 -1.2180001 -1.812 0
-8.2629995 -1.245 -1.813 0
-8.2449999 -1.2690001 -1.809 0
-8.2819996 -1.288 -1.818 0
-8.2969999 -1.317 -1.823 0.11
-8.2869997 -1.342 -1.822 0.090000004
-8.2889996 -1.369 -1.823 0.2
-8.2629995 -1.391 -1.818 0.19
-8.2469997 -1.415 -1.8150001 0.28
-8.2620001 -1.4450001 -1.8200001 0.25
-8.2580004 -1.457 -1.819 0.25999999
-8.2489996 -1.482 -1.818 0.25999999
-8.2460003 -1.5089999 -1.819 0.27000001
-8.2609997 -1.538 -1.823 0.25
-8.2390003 -1.561 -1.819 0.22
-8.2530003 -1.591 -1.824 0.14
-8.2460003 -1.6160001 -1.823 0.37
-8.2489996 -1.63 -1.825 0.40000001
-8.2250004 -1.652 -1.8200001 0.55000001
-8.243 -1.683 -1.826 0.33000001
-8.2119999 -1.7029999 -1.8200001 0.51999998
-8.2069998 -1.729 -1.8200001 0.51999998
-8.2049999 -1.756 -1.821 0.28999999
-8.198 -1.781 -1.8200001 0.27000001
-8.2049999 -1.796 -1.822 0.27000001
-8.2010002 -1.822 -1.823 0.25999999
-8.1890001 -1.847 -1.822 0.25999999
-8.1870003 -1.873 -1.822 0.25999999
-8.1929998 -1.902 -1.825 0.27000001
-8.1850004 -1.927 -1.825 0.25999999
-8.1940002 -1.956 -1.8279999 0.23
-8.1739998 -1.965 -1.824 0.20999999
-8.1899996 -1.9960001 -1.83 0.38
-8.2010002 -2.026 -1.834 0.36000001
-8.1660004 -2.0450001 -1.827 0.34999999
-8.0880003 -2.052 -1.8099999 0.38999999
-8.0570002 -2.0710001 -1.804 0.37
-7.7399998 -2.0150001 -1.729 0.25
-7.4390001 -1.948 -1.658 0.34999999
-7.5339999 -1.998 -1.683 0.25999999
-7.4770002 -2.0079999 -1.67 0.36000001
-7.4109998 -2.0150001 -1.656 0.34999999
-7.4910002 -2.062 -1.677 0.33000001
-7.6020002 -2.119 -1.705 0.37
-7.586 -2.141 -1.7029999 0.34
-7.6620002 -2.175 -1.722 0.33000001
-7.52 -2.1600001 -1.689 0.31999999
-7.4780002 -2.1730001 -1.681 0.36000001
-7.4819999 -2.2 -1.683 0.40000001
-7.54 -2.243 -1.699 0.34999999
-7.5949998 -2.2850001 -1.714 0.36000001
-7.724 -2.3380001 -1.7460001 0.31
-7.7010002 -2.358 -1.743 0.33000001
-7.645 -2.3670001 -1.7309999 0.34
-7.7379999 -2.4219999 -1.755 0.27000001
-7.7449999 -2.451 -1.7589999 0.34999999
-7.6929998 -2.461 -1.748 0.33000001
-7.698 -2.49 -1.751 0.31
-7.8239999 -2.5439999 -1.783 0.33000001
-7.8920002 -2.5940001 -1.801 0.25999999
-7.941 -2.638 -1.8150001 0.33000001
-8.0249996 -2.694 -1.8380001 0.28999999
-7.9720001 -2.704 -1.827 0.38
-7.927 -2.717 -1.818 0.25999999
-7.848 -2.717 -1.801 0.28999999
-7.835 -2.7260001 -1.799 0.37
-7.7950001 -2.74 -1.791 0.38999999
-7.757 -2.7539999 -1.784 0.27000001
-7.7470002 -2.777 -1.783 0.36000001
-7.8049998 -2.8269999 -1.8 0.33000001
-7.7839999 -2.846 -1.7970001 0.37
-7.6830001 -2.8369999 -1.774 0.25
-7.79 -2.8900001 -1.802 0.34999999
-7.8499999 -2.941 -1.819 0.34
-7.8499999 -2.9690001 -1.821 0.31
-7.8150001 -2.984 -1.8150001 0.37
-7.737 -2.9820001 -1.798 0.27000001
-7.8379998 -3.049 -1.825 0.34
-7.8670001 -3.089 -1.835 0.34999999
-7.7189999 -3.0450001 -1.799 0.25999999
-7.8379998 -3.1199999 -1.831 0.31999999
-7.9109998 -3.1789999 -1.852 0.38
-7.7849998 -3.1559999 -1.823 0.23
-7.8169999 -3.198 -1.8329999 0.38
-7.7280002 -3.1889999 -1.813 0.25
-7.7659998 -3.234 -1.826 0.38
-7.8600001 -3.2880001 -1.85 0.25
-7.7719998 -3.28 -1.831 0.31999999
-7.7709999 -3.3080001 -1.8329999 0.28999999
-7.7709999 -3.3369999 -1.836 0.31
-7.7280002 -3.3469999 -1.8279999 0.28
-7.7360001 -3.3800001 -1.832 0.38
-7.723 -3.4030001 -1.832 0.30000001
-7.7410002 -3.425 -1.8380001 0.28999999
-7.8000002 -3.4809999 -1.855 0.34999999
-7.7160001 -3.4719999 -1.837 0.28
-7.7420001 -3.5139999 -1.846 0.37
-7.7470002 -3.5450001 -1.85 0.30000001
-7.6259999 -3.5190001 -1.822 0.33000001
-7.7319999 -3.5969999 -1.852 0.30000001
-7.8039999 -3.6459999 -1.872 0.37
-7.7690001 -3.6600001 -1.8660001 0.31
-7.7220001 -3.6670001 -1.857 0.34999999
-7.7709999 -3.72 -1.873 0.34999999
-7.7329998 -3.7320001 -1.8660001 0.34
-7.677 -3.7349999 -1.854 0.36000001
-7.6620002 -3.757 -1.854 0.37
-7.7189999 -3.8 -1.87 0.34
-7.7379999 -3.8399999 -1.878 0.34
-7.6789999 -3.8410001 -1.8660001 0.31999999
-7.6630001 -3.8629999 -1.865 0.44
-7.6950002 -3.9089999 -1.876 0.34999999
-7.743 -3.9649999 -1.892 0.31
-7.6199999 -3.9319999 -1.863 0.28
-7.5999999 -3.9360001 -1.859 0.38999999
-7.6300001 -3.983 -1.8710001 0.28
-7.6110001 -4.0029998 -1.869 0.38999999
-7.684 -4.073 -1.891 0.30000001
-7.723 -4.125 -1.905 0.28
-7.7129998 -4.151 -1.906 0.38999999
-7.6900001 -4.1539998 -1.901 0.28
-7.723 -4.2030001 -1.914 0.31999999
-7.7150002 -4.23 -1.915 0.31
-7.7010002 -4.2540002 -1.915 0.34
-7.6729999 -4.27 -1.911 0.28
-7.652 -4.29 -1.909 0.34999999
-7.5929999 -4.2880001 -1.897 0.31999999
-7.605 -4.3109999 -1.902 0.31
-7.6069999 -4.3429999 -1.906 0.30000001
-7.6149998 -4.3800001 -1.9119999 0.40000001
-7.5739999 -4.388 -1.905 0.28999999
-7.54 -4.4000001 -1.899 0.34
-7.5 -4.408 -1.892 0.38999999
-7.494 -4.4359999 -1.8940001 0.30000001
-7.46 -4.4320002 -1.887 0.34
-7.4949999 -4.4850001 -1.9 0.33000001
-7.454 -4.4920001 -1.893 0.33000001
-7.448 -4.52 -1.895 0.38
-7.447 -4.552 -1.899 0.31
-7.4530001 -4.5879998 -1.904 0.34999999
-7.4120002 -4.5949998 -1.897 0.34
-7.448 -4.6329999 -1.909 0.30000001
-7.3850002 -4.6259999 -1.896 0.37
-7.4029999 -4.6700001 -1.905 0.34
-7.3579998 -4.6739998 -1.896 0.28
-7.381 -4.7210002 -1.906 0.37
-7.382 -4.7550001 -1.911 0.28999999
-7.323 -4.7490001 -1.899 0.34999999
-7.3449998 -4.7800002 -1.9069999 0.28
-7.3049998 -4.7870002 -1.9 0.38
-7.073 -4.665 -1.84 0.31999999
-7.125 -4.7319999 -1.858 0.23
-7.1420002 -4.776 -1.867 0.33000001
-7.1350002 -4.8039999 -1.869 0.36000001
-7.125 -4.8299999 -1.8710001 0.34
-7.1539998 -4.8660002 -1.881 0.28999999
-7.0250001 -4.8099999 -1.849 0.36000001
-7.1090002 -4.901 -1.877 0.27000001
-7.2119999 -5.006 -1.91 0.33000001
-7.0380001 -4.9180002 -1.8660001 0.28
-6.9289999 -4.8730001 -1.839 0.31
-6.842 -4.8439999 -1.819 0.34999999
-6.7659998 -4.8060002 -1.799 0.36000001
-6.8860002 -4.9239998 -1.8380001 0.25999999
-6.895 -4.9640002 -1.845 0.31999999
-6.9330001 -5.0250001 -1.86 0.36000001
-6.9679999 -5.0830002 -1.875 0.28999999
-6.9250002 -5.086 -1.867 0.28999999
-6.9039998 -5.1040001 -1.8660001 0.34999999
-6.973 -5.1719999 -1.888 0.27000001
-6.9460001 -5.1849999 -1.885 0.31999999
-6.9390001 -5.2140002 -1.887 0.34
-6.8850002 -5.2080002 -1.877 0.34
-6.9400001 -5.2839999 -1.897 0.37
-6.9260001 -5.3080001 -1.898 0.25999999
-7.0630002 -5.4489999 -1.943 0.41
-6.9889998 -5.4089999 -1.924 0.27000001
-7.0009999 -5.454 -1.933 0.38
-6.8410001 -5.3629999 -1.891 0.30000001
-6.8109999 -5.3740001 -1.887 0.30000001
-6.6799998 -5.3039999 -1.853 0.38
-6.6630001 -5.3249998 -1.853 0.30000001
-6.6209998 -5.3249998 -1.845 0.34999999
-6.618 -5.3400002 -1.847 0.33000001
-6.6479998 -5.3990002 -1.8609999 0.31
-6.585 -5.382 -1.847 0.41999999
-6.6500001 -5.4710002 -1.872 0.30000001
-6.6659999 -5.5190001 -1.882 0.41
-6.6620002 -5.5510001 -1.886 0.31999999
-6.704 -5.6040001 -1.901 0.31999999
-6.756 -5.6849999 -1.9220001 0.28
-6.829 -5.783 -1.95 0.34
-6.756 -5.757 -1.933 0.28999999
-6.73 -5.7719998 -1.931 0.34
-6.7449999 -5.8210001 -1.941 0.34
-6.6009998 -5.7340002 -1.902 0.34
-6.71 -5.8470001 -1.938 0.31
-6.7719998 -5.9390001 -1.9630001 0.31999999
-6.8400002 -6.0370002 -1.99 0.37
-6.8200002 -6.0580001 -1.99 0.30000001
-6.744 -6.0279999 -1.972 0.33000001
-6.7670002 -6.0869999 -1.985 0.33000001
-6.7270002 -6.0890002 -1.979 0.36000001
-6.7459998 -6.1259999 -1.988 0.44999999
-6.5 -5.9390001 -1.916 0.30000001
-6.6700001 -6.1339998 -1.976 0.31
-6.658 -6.1609998 -1.978 0.31999999
-6.5700002 -6.118 -1.956 0.31999999
-6.6079998 -6.1919999 -1.975 0.33000001
-6.5630002 -6.1890001 -1.966 0.36000001
-6.553 -6.1989999 -1.966 0.36000001
-6.5380001 -6.224 -1.9680001 0.40000001
-6.3889999 -6.1199999 -1.926 0.28
-6.5079999 -6.2740002 -1.971 0.33000001
-6.4840002 -6.29 -1.97 0.38999999
-6.369 -6.217 -1.938 0.28999999
-6.3070002 -6.1950002 -1.925 0.34
-6.4029999 -6.3099999 -1.959 0.30000001
-6.3429999 -6.29 -1.946 0.34999999
-6.3260002 -6.3119998 -1.947 0.36000001
-6.3049998 -6.3309999 -1.947 0.31999999
-6.277 -6.342 -1.944 0.38999999
-6.3179998 -6.4250002 -1.964 0.28999999
-6.2049999 -6.3499999 -1.933 0.31999999
-6.198 -6.362 -1.934 0.37
-6.2470002 -6.4530001 -1.957 0.31999999
-6.3179998 -6.5679998 -1.988 0.30000001
-6.2729998 -6.5630002 -1.98 0.38
-6.223 -6.5510001 -1.97 0.28999999
-6.257 -6.6290002 -1.989 0.33000001
-6.2329998 -6.6440001 -1.987 0.31999999
-6.2049999 -6.6360002 -1.9809999 0.43000001
-6.1719999 -6.6420002 -1.977 0.25
-6.2090001 -6.7249999 -1.997 0.34999999
-6.1459999 -6.698 -1.983 0.34999999
-6.112 -6.7030001 -1.978 0.31
-6.0890002 -6.7210002 -1.978 0.36000001
-6.072 -6.723 -1.975 0.31999999
-6.0289998 -6.717 -1.9680001 0.31999999
-6.0619998 -6.7979999 -1.987 0.38
