# .PCD v0.7 - Point Cloud Data file format
VERSION 0.7
FIELDS x y z intensity
SIZE 4 4 4 4
TYPE F F F F
COUNT 1 1 1 1
WIDTH 1418
HEIGHT 1
VIEWPOINT 0 0 0 1 0 0 0
POINTS 1418
DATA ascii
23.322001 -2.7980001 -1.684 0.31999999
23.087 -2.6960001 -1.664 0.22
23.181999 -2.6340001 -1.671 0.38999999
23.122999 -2.553 -1.665 0.23
23.208 -2.4890001 -1.6720001 0.34
23.171 -2.448 -1.668 0.20999999
23.427999 -2.401 -1.688 0.37
23.701 -2.3540001 -1.71 0.37
23.861 -2.2950001 -1.722 0.31999999
23.841 -2.217 -1.72 0.22
23.962999 -2.1530001 -1.729 0.47
24.073 -2.086 -1.738 0.23999999
24.132 -2.053 -1.742 0.2
24.142 -1.978 -1.742 0.38
24.125999 -1.9 -1.7410001 0.22
24.1 -1.822 -1.738 0.18000001
24.125999 -1.748 -1.74 0.28999999
24.132999 -1.6720001 -1.74 0.2
24.150999 -1.635 -1.7410001 0.22
24.136999 -1.558 -1.74 0.18000001
24.160999 -1.483 -1.7410001 0.20999999
24.158001 -1.4069999 -1.74 0.18000001
24.158001 -1.331 -1.74 0.13
24.162001 -1.255 -1.74 0.17
24.181999 -1.1799999 -1.7410001 0.28
24.181999 -1.142 -1.7410001 0.19
24.202999 -1.067 -1.743 0.18000001
24.194 -0.99000001 -1.742 0.17
24.219 -0.91500002 -1.744 0.16
24.23 -0.83899999 -1.744 0.16
24.216999 -0.76200002 -1.743 0.16
24.237 -0.68699998 -1.744 0.23
24.23 -0.64899999 -1.744 0.1
24.222 -0.57200003 -1.743 0.15000001
24.209999 -0.49599999 -1.742 0.1
24.226999 -0.41999999 -1.743 0.16
24.202 -0.34400001 -1.7410001 0.1
24.193001 -0.26699999 -1.74 0.16
24.184 -0.229 -1.739 0.16
24.172001 -0.153 -1.738 0.1
24.173 -0.077 -1.738 0.15000001
24.174999 -0.001 -1.739 0.1
22.469 0.0099999998 -1.7309999 0.20999999
22.433001 0.081 -1.728 0.18000001
22.431 0.15099999 -1.727 0.12
22.452 0.222 -1.729 0.17
22.436001 0.257 -1.728 0.12
22.441 0.32699999 -1.728 0.17
22.444 0.398 -1.729 0.12
22.412001 0.46799999 -1.726 0.16
22.405001 0.53799999 -1.726 0.12
22.403 0.60799998 -1.726 0.16
22.393 0.67900002 -1.725 0.27000001
22.389999 0.71399999 -1.725 0.27000001
22.396999 0.78399998 -1.726 0.27000001
22.375 0.85399997 -1.724 0.27000001
22.351999 0.92299998 -1.722 0.11
22.349001 0.99400002 -1.722 0.16
22.334 1.063 -1.721 0.28999999
22.319 1.133 -1.72 0.2
22.306999 1.1670001 -1.719 0.18000001
22.299 1.237 -1.719 0.30000001
22.275 1.306 -1.717 0.20999999
22.264999 1.376 -1.717 0.18000001
22.253 1.4450001 -1.716 0.31
22.238001 1.5140001 -1.715 0.20999999
22.229 1.584 -1.715 0.19
22.219 1.618 -1.714 0.22
22.222 1.689 -1.715 0.18000001
22.198 1.757 -1.7130001 0.20999999
22.193001 1.827 -1.7130001 0.19
22.202999 1.898 -1.715 0.20999999
22.209 1.969 -1.716 0.19
22.221001 2.0050001 -1.717 0.20999999
22.209 2.0739999 -1.717 0.18000001
22.216 2.145 -1.7180001 0.20999999
22.209 2.2149999 -1.7180001 0.17
22.177999 2.2820001 -1.716 0.13
22.183001 2.3529999 -1.717 0.17
22.176001 2.4230001 -1.717 0.12
22.177999 2.4579999 -1.717 0.17
22.164 2.527 -1.717 0.28999999
22.164 2.598 -1.717 0.27000001
22.146 2.6659999 -1.717 0.25999999
22.118999 2.734 -1.715 0.11
22.113001 2.803 -1.715 0.16
22.096001 2.872 -1.714 0.12
22.087 2.9059999 -1.714 0.16
22.076 2.9749999 -1.714 0.12
22.065001 3.0439999 -1.714 0.16
22.041 3.112 -1.7130001 0.12
22.023001 3.1800001 -1.712 0.17
22.014999 3.2490001 -1.712 0.12
21.993999 3.2809999 -1.711 0.16
21.993999 3.352 -1.712 0.28999999
21.966999 3.4189999 -1.71 0.18000001
21.937 3.484 -1.7079999 0.16
21.903999 3.55 -1.707 0.13
21.882999 3.6170001 -1.706 0.17
21.895 3.6900001 -1.7079999 0.28999999
21.921 3.7290001 -1.711 0.27000001
21.934999 3.803 -1.7130001 0.27000001
21.915001 3.8699999 -1.712 0.25999999
21.912001 3.941 -1.7130001 0.25999999
21.886 4.007 -1.712 0.27000001
21.863001 4.0739999 -1.711 0.11
21.851 4.1430001 -1.711 0.15000001
21.836 4.1750002 -1.71 0.12
21.811001 4.2420001 -1.709 0.16
21.804001 4.3109999 -1.71 0.12
21.782 4.3779998 -1.709 0.16
21.784 4.4499998 -1.71 0.12
21.785 4.5219998 -1.712 0.17
21.768999 4.5539999 -1.711 0.12
21.743 4.6199999 -1.71 0.16
21.698999 4.6820002 -1.707 0.12
21.653 4.743 -1.705 0.17
21.620001 4.8070002 -1.7029999 0.20999999
21.586 4.8699999 -1.701 0.17
21.537001 4.9310002 -1.698 0.23
21.497999 4.9569998 -1.696 0.20999999
21.479 5.0240002 -1.6950001 0.17
21.448999 5.0879998 -1.694 0.41
21.424999 5.1539998 -1.693 0.23
21.398001 5.2179999 -1.692 0.16
21.393 5.2880001 -1.693 0.43000001
21.382 5.3210001 -1.693 0.25
21.382999 5.3930001 -1.6950001 0.25999999
21.358 5.4580002 -1.694 0.23999999
21.322001 5.52 -1.692 0.18000001
21.313999 5.5890002 -1.693 0.43000001
21.285 5.6529999 -1.692 0.25
21.257 5.7179999 -1.691 0.23999999
21.212 5.7410002 -1.688 0.28999999
21.197001 5.809 -1.688 0.38999999
21.164 5.8709998 -1.687 0.31
21.17 5.9439998 -1.689 0.27000001
21.139999 6.0079999 -1.688 0.27000001
21.122999 6.0749998 -1.688 0.28999999
21.09 6.1370001 -1.687 0.28
21.082001 6.171 -1.687 0.30000001
21.073999 6.2399998 -1.688 0.28
21.037001 6.3010001 -1.687 0.36000001
20.997999 6.362 -1.6849999 0.27000001
20.919001 6.4089999 -1.6799999 0.30000001
20.777 6.4369998 -1.669 0.30000001
20.658001 6.4710002 -1.66 0.38
20.551001 6.473 -1.651 0.33000001
20.382999 6.4899998 -1.638 0.37
20.209999 6.5050001 -1.624 0.27000001
19.832001 6.4520001 -1.592 0.31999999
19.705999 6.4790001 -1.582 0.38999999
19.688999 6.5419998 -1.5829999 0.30000001
19.719999 6.5869999 -1.586 0.41
19.597 6.6139998 -1.577 0.25999999
19.298 6.5799999 -1.552 0.25999999
19.25 6.632 -1.549 0.44999999
19.490999 6.7839999 -1.573 0.25999999
19.235001 6.7620001 -1.552 0.28999999
19.354 6.8379998 -1.564 0.27000001
18.728001 6.6830001 -1.508 0.23
18.671 6.7280002 -1.505 0.44
18.705999 6.8080001 -1.51 0.20999999
20.111 7.3930001 -1.641 0.18000001
18.999001 7.0500002 -1.541 0.57999998
18.198999 6.8169999 -1.47 0.18000001
20.08 7.5609999 -1.6440001 0.25
19.811001 7.5300002 -1.6210001 0.43000001
19.115999 7.3340001 -1.559 0.27000001
18.454 7.1459999 -1.5 0.33000001
17.819 6.9629998 -1.444 0.27000001
18.597 7.336 -1.518 0.25999999
17.471001 6.954 -1.416 0.30000001
17.445999 6.9749999 -1.414 0.28999999
18.507999 7.4689999 -1.515 0.31999999
19.360001 7.8860002 -1.596 0.28999999
16.48 6.7690001 -1.331 0.20999999
18.367001 7.6139998 -1.508 0.41
18.455 7.7189999 -1.5190001 0.30000001
17.08 7.2049999 -1.393 0.19
16.999001 7.2020001 -1.386 0.44999999
16.886999 7.217 -1.378 0.28999999
17.657 7.6139998 -1.452 0.30000001
16.517 7.243 -1.349 0.57999998
18.006001 7.9660001 -1.492 0.22
17.639999 7.8369999 -1.4579999 0.25999999
15.671 7.0180001 -1.275 0.2
15.699 7.0900002 -1.28 0.34
16.777 7.6430001 -1.3839999 0.19
15.89 7.2969999 -1.302 0.25999999
17.278 8.0030003 -1.436 0.23
15.459 7.217 -1.266 0.36000001
16.899 7.9239998 -1.404 0.25999999
15.132 7.151 -1.238 0.22
15.066 7.177 -1.234 0.16
14.53 6.9770002 -1.1849999 0.19
16.621 8.0500002 -1.387 0.14
14.3 6.9770002 -1.1670001 0.27000001
15.656 7.7329998 -1.3 0.38999999
14.943 7.4380002 -1.234 0.18000001
15.274 7.664 -1.268 0.18000001
14.893 7.5300002 -1.234 0.28999999
14.819 7.552 -1.229 0.38999999
14.614 7.5339999 -1.212 0.57999998
14.473 7.5190001 -1.201 0.2
14.421 7.5489998 -1.198 0.34999999
14.324 7.5549998 -1.191 0.38999999
14.2 7.5469999 -1.181 0.54000002
14.064 7.5310001 -1.17 0.33000001
14.007 7.5570002 -1.1670001 0.30000001
13.921 7.539 -1.16 0.47999999
13.834 7.5479999 -1.154 0.31999999
13.739 7.552 -1.147 0.54000002
13.386 7.4120002 -1.114 0.22
13.578 7.5749998 -1.136 0.38999999
13.504 7.5890002 -1.131 0.36000001
13.435 7.6059999 -1.126 0.30000001
13.377 7.6009998 -1.122 0.41
13.242 7.579 -1.1109999 0.23999999
13.215 7.619 -1.11 0.34
13.153 7.638 -1.1059999 0.28999999
13.048 7.632 -1.098 0.57999998
12.971 7.6409998 -1.0930001 0.25999999
12.88 7.6149998 -1.085 0.62
12.723 7.5760002 -1.072 0.23
12.716 7.6259999 -1.074 0.44
12.636 7.632 -1.068 0.38
12.523 7.6170001 -1.059 0.46000001
12.384 7.586 -1.0470001 0.34999999
12.267 7.5669999 -1.038 0.41
12.211 7.559 -1.034 0.33000001
12.118 7.5539999 -1.026 0.44
12.04 7.5580001 -1.021 0.34
11.961 7.5599999 -1.015 0.46000001
11.883 7.5630002 -1.01 0.36000001
11.801 7.5630002 -1.0039999 0.47
11.74 7.5500002 -0.99900001 0.36000001
11.655 7.5469999 -0.99299997 0.56
11.584 7.553 -0.98799998 0.28999999
11.505 7.553 -0.98199999 0.50999999
11.445 7.5650001 -0.97799999 0.38
11.372 7.5679998 -0.97299999 0.49000001
11.287 7.5619998 -0.96700001 0.41999999
11.222 7.5440001 -0.96100003 0.41
11.163 7.5560002 -0.958 0.41999999
11.087 7.5549998 -0.95200002 0.44999999
11.019 7.559 -0.94800001 0.41
10.977 7.5809999 -0.94599998 0.51999998
11.301 7.8590002 -0.98199999 0.19
11.379 7.9660001 -0.99299997 0.38
11.525 8.0959997 -1.01 0.37
11.426 8.0799999 -1.002 0.34999999
11.464 8.1610003 -1.0089999 0.44
11.572 8.2930002 -1.023 0.43000001
11.23 8.1009998 -0.98900002 0.2
11.317 8.2180004 -1.001 0.60000002
11.386 8.323 -1.011 0.31999999
11.306 8.2910004 -1.0039999 0.34
11.315 8.3529997 -1.008 0.46000001
11.205 8.3269997 -0.99900001 0.33000001
10.413 7.7859998 -0.917 0.31
10.428 7.849 -0.921 0.58999997
10.487 7.9460001 -0.93000001 0.30000001
10.297 7.8270001 -0.91100001 0.46000001
10.281 7.8649998 -0.912 0.28
10.071 7.7550001 -0.89200002 0.37
10.294 7.9780002 -0.91900003 0.23
10.002 7.802 -0.889 0.56999999
9.9510002 7.8119998 -0.88700002 0.31999999
9.9729996 7.881 -0.89200002 0.36000001
10.073 7.9860001 -0.90399998 0.23
9.9700003 7.9549999 -0.89499998 0.46000001
9.967 8.0039997 -0.898 0.47999999
10.034 8.1099997 -0.90799999 0.2
9.9180002 8.0670004 -0.898 0.41
9.7510004 7.9819999 -0.88200003 0.37
9.7189999 8.033 -0.88300002 0.15000001
9.9519997 8.2790003 -0.912 0.63999999
9.8640003 8.2580004 -0.90499997 0.28
10.046 8.4650002 -0.92799997 0.57999998
20.356001 17.298 -2.095 0.18000001
20.299999 17.361 -2.095 0.25999999
20.278999 17.398001 -2.096 0.17
9.2489996 7.967 -0.84799999 0.1
9.2370005 8.007 -0.85000002 0.14
9.1899996 8.0170002 -0.847 0.20999999
20.070999 17.662001 -2.0969999 0.13
12.472 11.031 -1.23 0.16
12.381 11.02 -1.224 0.40000001
12.319 11 -1.219 0.34
12.237 10.996 -1.2130001 0.43000001
12.155 10.991 -1.2079999 0.36000001
12.092 11.004 -1.204 0.31
12.012 11 -1.199 0.55000001
8.9849997 8.2709999 -0.84899998 0.20999999
11.857 10.995 -1.189 0.36000001
11.812 10.988 -1.186 0.41
11.737 10.987 -1.181 0.33000001
11.669 10.992 -1.177 0.36000001
11.598 10.994 -1.173 0.41
11.529 10.998 -1.169 0.34999999
11.468 11.009 -1.166 0.34999999
11.407 11.018 -1.1619999 0.36000001
11.352 11 -1.158 0.36000001
11.281 11 -1.153 0.40000001
11.216 11.006 -1.15 0.34
11.169 11.028 -1.148 0.43000001
8.2030001 8.1409998 -0.792 0.23
8.1239996 8.1129999 -0.78600001 0.31999999
10.999 11.032 -1.138 0.12
8.0410004 8.1059999 -0.77999997 0.34
8.2779999 8.3990002 -0.81300002 0
10.971 11.214 -1.148 0.07
11.008 11.323 -1.1569999 0.15000001
10.863 11.244 -1.143 0.19
10.825 11.275 -1.143 0.17
10.829 11.315 -1.145 0.15000001
10.833 11.391 -1.15 0.16
10.214 10.874 -1.081 0.22
10.154 10.878 -1.0779999 0.47999999
10.135 10.926 -1.08 0.36000001
10.111 10.97 -1.081 0.50999999
7.559 8.217 -0.759 0
10.054 11.081 -1.085 0.16
9.9949999 11.086 -1.082 0.40000001
7.4970002 8.3590002 -0.764 0.19
7.3470001 8.2950001 -0.75199997 0.16
7.3940001 8.4289999 -0.76300001 0
7.1110001 8.2080002 -0.73299998 0
6.9590001 8.1339998 -0.71899998 0
9.7629995 11.465 -1.0930001 0
9.7740002 11.552 -1.1 0
9.7790003 11.631 -1.105 0
9.7019997 11.763 -1.11 0
9.6809998 11.813 -1.112 0
9.7609997 12.026 -1.13 0
9.75 12.091 -1.1339999 0
9.6969995 12.103 -1.132 0.059999999
9.684 12.164 -1.136 0.14
9.6929998 12.254 -1.142 0.16
9.6920004 12.333 -1.147 0.22
14.919 19.068001 -1.88 0.16
14.911 19.181999 -1.888 0.34999999
13.93 18.034 -1.758 0.28
13.916 18.132999 -1.7640001 0.16
14.557 19.094999 -1.863 0.34999999
14.425 19.046 -1.853 0.41
14.219 18.896 -1.832 0.23999999
14.185 18.912001 -1.831 0.25999999
14.103 18.926001 -1.8279999 0.31999999
13.97 18.871 -1.817 0.38999999
13.98 19.01 -1.8279999 0.30000001
13.79 18.875 -1.809 0.41
13.799 19.013 -1.819 0.30000001
13.676 18.968 -1.809 0.46000001
13.772 19.166 -1.8279999 0.2
13.644 19.113001 -1.818 0.41
13.595 19.172001 -1.8200001 0.44999999
12.828 18.209 -1.714 0.28999999
13.297 19.002001 -1.793 0.34999999
12.485 17.959999 -1.679 0.25
12.507 18.052 -1.687 0.2
12.442 18.079 -1.686 0.46000001
12.413 18.159 -1.6900001 0.28
12.401 18.264 -1.697 0.28
13.144 19.493999 -1.8200001 0.27000001
12.217 18.239 -1.686 0.38
12.121 18.219 -1.6799999 0.20999999
12.725 19.194 -1.779 0.33000001
11.938 18.128 -1.665 0.23
12.611 19.285 -1.78 0.38
12.51 19.261 -1.773 0.30000001
12.346 19.139999 -1.757 0.34999999
12.167 18.993999 -1.738 0.38999999
12.245 19.249001 -1.76 0.25999999
12.256 19.332001 -1.767 0.31999999
12.249 19.455999 -1.775 0.41999999
12.083 19.327 -1.7589999 0.31999999
12.077 19.452999 -1.767 0.41
12.129 19.674999 -1.786 0.23999999
11.847 19.351999 -1.75 0.54000002
4.3979998 7.23 -0.52600002 0.41999999
4.3730001 7.2399998 -0.52600002 0.33000001
10.819 18.115 -1.613 0.20999999
11.629 19.614 -1.7589999 0.28
11.596 19.700001 -1.7640001 0.43000001
11.434 19.563999 -1.747 0.31
11.382 19.617001 -1.749 0.28999999
11.376 19.677999 -1.753 0.31999999
10.498 18.287001 -1.612 0.34
10.401 18.250999 -1.605 0.27000001
10.457 18.485001 -1.625 0.27000001
10.598 18.872 -1.66 0.30000001
10.464 18.771 -1.646 0.20999999
10.59 19.139 -1.679 0.30000001
10.521 19.086 -1.673 0.27000001
10.45 19.098 -1.67 0.31
10.38 19.113001 -1.669 0.31999999
10.24 18.996 -1.654 0.22
10.225 19.113001 -1.6619999 0.37
10.112 19.044001 -1.653 0.27000001
10.11 19.113001 -1.658 0.37
10.03 19.108 -1.654 0.31
9.9560003 19.112 -1.652 0.33000001
9.882 19.115 -1.649 0.34
9.8070002 19.118 -1.646 0.34
9.7390003 19.132999 -1.645 0.38
9.6590004 19.124001 -1.641 0.30000001
9.6149998 19.111 -1.638 0.31999999
9.5530005 19.136999 -1.638 0.44
9.3879995 18.954 -1.617 0.25
9.3719997 19.073 -1.626 0.28
9.323 19.125999 -1.628 0.37
9.2480001 19.122999 -1.625 0.31
9.1780005 19.132 -1.623 0.34
9.1350002 19.118999 -1.6210001 0.34
9.0640001 19.125 -1.618 0.33000001
8.9899998 19.124001 -1.6160001 0.33000001
8.9180002 19.127001 -1.613 0.36000001
8.8450003 19.125999 -1.61 0.33000001
8.7770004 19.136999 -1.609 0.34
8.7060003 19.141001 -1.607 0.34
8.6619997 19.122 -1.604 0.34
8.5900002 19.124001 -1.601 0.34
8.5249996 19.139999 -1.6 0.34
8.4530001 19.139 -1.598 0.34
8.3760004 19.127001 -1.594 0.37
8.3109999 19.142 -1.5930001 0.34
8.2659998 19.121 -1.59 0.34
8.198 19.128 -1.5880001 0.38
8.125 19.122999 -1.585 0.34
8.059 19.135 -1.584 0.31999999
7.994 19.148001 -1.5829999 0.36000001
7.9330001 19.171 -1.5829999 0.31999999
7.8569999 19.159 -1.579 0.30000001
7.7880001 19.160999 -1.577 0.31999999
7.7579999 19.173 -1.577 0.28999999
7.684 19.163 -1.574 0.28999999
7.619 19.174999 -1.573 0.28999999
7.5549998 19.190001 -1.572 0.28999999
7.4879999 19.197001 -1.5700001 0.28999999
7.4180002 19.194 -1.568 0.27000001
7.3839998 19.197001 -1.567 0.28999999
7.316 19.197001 -1.5650001 0.30000001
7.243 19.188999 -1.562 0.28999999
7.1859999 19.219 -1.563 0.36000001
7.0749998 19.105 -1.55 0.28
7.0190001 19.138 -1.551 0.23
6.9790001 19.216 -1.557 0.31999999
6.9400001 19.202999 -1.554 0.31999999
6.8709998 19.200001 -1.552 0.34999999
6.8060002 19.209 -1.551 0.31999999
6.7410002 19.215 -1.55 0.34999999
6.6680002 19.202 -1.546 0.34
6.605 19.212999 -1.546 0.37
6.5370002 19.211 -1.544 0.36000001
6.5009999 19.207001 -1.5420001 0.34999999
6.4359999 19.212 -1.541 0.37
6.369 19.211 -1.539 0.37
6.303 19.214001 -1.5369999 0.37
6.2360001 19.215 -1.536 0.38
6.1690001 19.212999 -1.534 0.33000001
6.1030002 19.214001 -1.5319999 0.38999999
6.0679998 19.209999 -1.531 0.38
6.0009999 19.205999 -1.529 0.38
5.9369998 19.212999 -1.528 0.37
5.8730001 19.218 -1.527 0.34
5.8039999 19.209999 -1.524 0.38999999
5.7399998 19.215 -1.523 0.40000001
5.6729999 19.212 -1.521 0.38999999
5.6360002 19.198 -1.5190001 0.31
5.5739999 19.209999 -1.5190001 0.36000001
5.5089998 19.208 -1.517 0.33000001
5.447 19.219 -1.516 0.38
5.382 19.221001 -1.515 0.38
5.3169999 19.222 -1.5140001 0.31999999
5.2529998 19.224001 -1.512 0.38999999
5.2160001 19.207001 -1.51 0.28999999
5.1529999 19.215 -1.5089999 0.36000001
5.0890002 19.218 -1.508 0.34
5.027 19.226 -1.507 0.36000001
4.9590001 19.211 -1.505 0.28999999
4.8969998 19.221001 -1.5039999 0.33000001
4.8629999 19.212999 -1.503 0.30000001
4.7979999 19.211 -1.501 0.31999999
4.7329998 19.205999 -1.499 0.31
4.6719999 19.219 -1.499 0.31
4.6069999 19.212 -1.497 0.28
4.5409999 19.205 -1.4960001 0.28999999
4.4770002 19.204 -1.494 0.28
4.4439998 19.198999 -1.493 0.27000001
4.3769999 19.184 -1.4910001 0.28999999
4.3119998 19.176001 -1.489 0.28
4.2490001 19.176001 -1.487 0.28999999
4.184 19.166 -1.485 0.27000001
4.1209998 19.166 -1.484 0.28999999
4.059 19.171 -1.484 0.31
4.0229998 19.15 -1.4809999 0.28
3.96 19.150999 -1.48 0.31
3.8970001 19.145 -1.479 0.31999999
3.8329999 19.142 -1.477 0.31
3.773 19.152 -1.477 0.31999999
3.711 19.156 -1.476 0.34999999
3.6489999 19.157 -1.476 0.30000001
3.6170001 19.153 -1.475 0.31
3.553 19.145 -1.473 0.34
3.493 19.153999 -1.473 0.34
3.4300001 19.153 -1.472 0.34
3.368 19.148001 -1.47 0.37
3.306 19.153 -1.47 0.37
3.2449999 19.155001 -1.469 0.34
3.2119999 19.143 -1.4680001 0.38
3.151 19.149 -1.467 0.37
3.0899999 19.153 -1.467 0.34999999
3.0280001 19.15 -1.466 0.41
2.9679999 19.16 -1.466 0.34
2.905 19.153 -1.464 0.41
2.8429999 19.150999 -1.4630001 0.34999999
2.8139999 19.159 -1.464 0.37
2.7509999 19.152 -1.462 0.44
2.691 19.16 -1.462 0.31
2.6289999 19.155001 -1.461 0.46000001
2.5699999 19.169001 -1.462 0.31999999
2.506 19.153 -1.46 0.41999999
2.4779999 19.174999 -1.461 0.33000001
2.414 19.153 -1.459 0.43000001
2.355 19.17 -1.459 0.36000001
2.2939999 19.167999 -1.459 0.38999999
2.234 19.177 -1.459 0.38999999
2.1719999 19.17 -1.4579999 0.47999999
2.1129999 19.183001 -1.4579999 0.30000001
2.0799999 19.162001 -1.456 0.47999999
2.02 19.174999 -1.456 0.31999999
1.959 19.165001 -1.455 0.52999997
1.9 19.188999 -1.457 0.31999999
1.837 19.163 -1.454 0.55000001
1.778 19.183001 -1.455 0.34
1.716 19.166 -1.4529999 0.47999999
1.688 19.193001 -1.455 0.31999999
1.625 19.17 -1.4529999 0.55000001
1.5650001 19.174999 -1.4529999 0.40000001
1.503 19.16 -1.451 0.44999999
1.4450001 19.188999 -1.4529999 0.28999999
1.383 19.171 -1.451 0.47999999
1.323 19.188999 -1.4529999 0.30000001
1.2920001 19.167999 -1.45 0.5
1.232 19.181 -1.451 0.31999999
1.171 19.169001 -1.45 0.51999998
1.112 19.193001 -1.452 0.30000001
1.05 19.166 -1.449 0.51999998
0.991 19.187 -1.451 0.30000001
0.92900002 19.171 -1.449 0.52999997
0.89999998 19.191999 -1.451 0.28999999
0.83899999 19.169001 -1.448 0.51999998
0.77899998 19.193001 -1.45 0.33000001
0.71799999 19.176001 -1.449 0.44999999
0.65799999 19.172001 -1.448 0.43000001
0.59799999 19.176001 -1.448 0.38999999
0.53799999 19.18 -1.448 0.41
0.50700003 19.184 -1.449 0.37
0.447 19.17 -1.447 0.5
0.38699999 19.181 -1.448 0.28
0.32600001 19.172001 -1.447 0.49000001
0.266 19.191 -1.449 0.33000001
0.206 19.167999 -1.447 0.52999997
0.146 19.191 -1.449 0.34
0.116 19.183001 -1.448 0.47
0.055 19.187 -1.448 0.40000001
-0.0049999999 19.177 -1.448 0.46000001
-0.064999998 19.177 -1.448 0.44
-0.125 19.188999 -1.449 0.38
-0.186 19.176001 -1.448 0.56999999
-0.21600001 19.195999 -1.449 0.31999999
-0.27599999 19.174999 -1.448 0.54000002
-0.336 19.184 -1.448 0.30000001
-0.39700001 19.183001 -1.448 0.44999999
-0.45699999 19.191999 -1.449 0.34999999
-0.51700002 19.177999 -1.448 0.58999997
-0.57800001 19.198 -1.45 0.34
-0.60799998 19.179001 -1.449 0.55000001
-0.66900003 19.198999 -1.45 0.31999999
-0.72899997 19.184999 -1.449 0.51999998
-0.79000002 19.201 -1.451 0.31999999
-0.84899998 19.184 -1.45 0.46000001
-0.91000003 19.191 -1.451 0.41999999
-0.97000003 19.186001 -1.45 0.43000001
-1.001 19.202999 -1.452 0.34999999
-1.0599999 19.172001 -1.45 0.54000002
-1.122 19.195999 -1.452 0.30000001
-1.181 19.179001 -1.451 0.51999998
-1.243 19.201 -1.4529999 0.31
-1.302 19.179001 -1.452 0.49000001
-1.363 19.184999 -1.452 0.38
-1.395 19.195999 -1.454 0.41999999
-1.455 19.194 -1.454 0.40000001
-1.515 19.184999 -1.4529999 0.41999999
-1.577 19.198 -1.455 0.41999999
-1.637 19.191 -1.455 0.41
-1.698 19.195999 -1.456 0.38999999
-1.7589999 19.194 -1.456 0.41999999
-1.79 19.200001 -1.457 0.38999999
-1.851 19.204 -1.4579999 0.44
-1.91 19.190001 -1.457 0.47
-1.974 19.212 -1.459 0.31
-2.033 19.198999 -1.459 0.47999999
-2.095 19.211 -1.46 0.28
-2.154 19.184 -1.459 0.5
-2.1860001 19.202999 -1.46 0.34999999
-2.2460001 19.190001 -1.46 0.44999999
-2.3080001 19.194 -1.461 0.40000001
-2.3710001 19.212999 -1.4630001 0.34
-2.4289999 19.188999 -1.462 0.46000001
-2.4909999 19.195 -1.4630001 0.36000001
-2.553 19.193001 -1.464 0.44
-2.585 19.202999 -1.465 0.34999999
-2.6440001 19.188999 -1.464 0.41999999
-2.7079999 19.205999 -1.466 0.41999999
-2.7679999 19.198 -1.466 0.41
-2.8280001 19.183001 -1.466 0.41
-2.882 19.136999 -1.4630001 0.37
-2.9219999 19.197001 -1.4680001 0.43000001
-2.9849999 19.202 -1.47 0.34999999
-3.046 19.200001 -1.47 0.41
-3.1059999 19.188 -1.47 0.40000001
-3.168 19.188 -1.471 0.38
-3.2320001 19.200001 -1.473 0.36000001
-3.2920001 19.188 -1.473 0.41
-3.3239999 19.191999 -1.473 0.38
-3.3870001 19.198999 -1.475 0.36000001
-3.448 19.188999 -1.475 0.34
-3.5109999 19.191 -1.476 0.34999999
-3.573 19.194 -1.477 0.41
-3.6359999 19.194 -1.478 0.30000001
-3.7 19.202999 -1.48 0.36000001
-3.73 19.197001 -1.48 0.34
-3.793 19.198999 -1.4809999 0.31999999
-3.8570001 19.202 -1.483 0.34
-3.9219999 19.215 -1.485 0.33000001
-3.9860001 19.219999 -1.4859999 0.33000001
-4.0489998 19.221001 -1.488 0.31999999
-4.112 19.218 -1.489 0.28999999
-4.145 19.228001 -1.49 0.27000001
-4.21 19.233999 -1.492 0.25
-4.2800002 19.263 -1.495 0.27000001
-4.3410001 19.252001 -1.4960001 0.28
-4.408 19.264999 -1.498 0.28
-4.474 19.275999 -1.5 0.28999999
-4.5359998 19.266001 -1.501 0.27000001
-4.572 19.284 -1.503 0.28999999
-4.638 19.292999 -1.505 0.30000001
-4.7030001 19.296 -1.506 0.31999999
-4.7610002 19.271 -1.505 0.28999999
-4.8280001 19.283001 -1.508 0.31
-4.8940001 19.287001 -1.51 0.34
-4.9549999 19.275999 -1.51 0.30000001
-4.994 19.301001 -1.513 0.38
-5.0570002 19.292999 -1.5140001 0.30000001
-5.1209998 19.288 -1.515 0.33000001
-5.1869998 19.292999 -1.516 0.31999999
-5.2509999 19.288 -1.517 0.34
-5.3150001 19.287001 -1.5190001 0.36000001
-5.382 19.291 -1.521 0.37
-5.4159999 19.298 -1.522 0.38
-5.4829998 19.299999 -1.524 0.38
-5.5489998 19.302 -1.526 0.37
-5.6160002 19.306999 -1.528 0.38
-5.6810002 19.302999 -1.529 0.38
-5.7459998 19.299999 -1.53 0.37
-5.816 19.315001 -1.533 0.38
-5.848 19.311001 -1.534 0.37
-5.915 19.313999 -1.535 0.37
-5.9809999 19.312 -1.5369999 0.36000001
-6.0489998 19.313999 -1.539 0.34999999
-6.118 19.323999 -1.541 0.38
-6.184 19.319 -1.543 0.37
-6.2480001 19.309 -1.544 0.31999999
-6.29 19.337 -1.5470001 0.31
-6.355 19.329 -1.548 0.37
-6.4229999 19.332001 -1.55 0.34
-6.4910002 19.334 -1.552 0.38
-6.5599999 19.336 -1.554 0.33000001
-6.6300001 19.344 -1.557 0.37
-6.6669998 19.351999 -1.559 0.34999999
-6.7350001 19.351999 -1.5599999 0.34999999
-6.8049998 19.357 -1.563 0.34999999
-6.8709998 19.35 -1.564 0.33000001
-6.9439998 19.362 -1.567 0.36000001
-7.0079999 19.35 -1.568 0.34
-7.0809999 19.361 -1.571 0.34
-7.125 19.386 -1.575 0.33000001
-7.1880002 19.368999 -1.575 0.31
-7.263 19.385 -1.579 0.34
-7.335 19.389999 -1.581 0.31
-7.3969998 19.368999 -1.581 0.30000001
-7.4699998 19.377001 -1.584 0.30000001
-7.539 19.375999 -1.586 0.28999999
-7.5780001 19.385 -1.5880001 0.28
-7.6459999 19.379 -1.59 0.28
-7.71 19.363001 -1.591 0.27000001
-7.7820001 19.368 -1.5930001 0.28999999
-7.848 19.354 -1.594 0.30000001
-7.9190001 19.355 -1.597 0.28999999
-7.993 19.362 -1.6 0.31
-8.0310001 19.368 -1.601 0.34
-8.1020002 19.368 -1.604 0.28999999
-8.1719999 19.363001 -1.6059999 0.36000001
-8.2449999 19.365999 -1.608 0.31999999
-8.3190002 19.371 -1.6109999 0.33000001
-8.3909998 19.371 -1.614 0.33000001
-8.4650002 19.372999 -1.6160001 0.34
-8.5139999 19.403999 -1.6210001 0.38
-8.5790005 19.386 -1.6210001 0.31999999
-8.6569996 19.395 -1.625 0.33000001
-8.7349997 19.406 -1.628 0.31999999
-8.8129997 19.417 -1.632 0.41
-8.8409996 19.318001 -1.625 0.25999999
-8.9610004 19.417 -1.637 0.33000001
-9.0059996 19.434999 -1.64 0.34999999
-9.0799999 19.434 -1.643 0.34
-9.1590004 19.443001 -1.647 0.34999999
-9.2360001 19.448999 -1.65 0.34
-9.3170004 19.461 -1.654 0.31999999
-9.3889999 19.455 -1.656 0.28
-9.4720001 19.469999 -1.66 0.38999999
-9.4960003 19.441 -1.659 0.30000001
-9.5830002 19.462999 -1.664 0.28
-9.677 19.5 -1.67 0.31999999
-9.757 19.504999 -1.674 0.34
-9.8339996 19.507 -1.677 0.31999999
-9.9169998 19.518 -1.681 0.30000001
-9.9949999 19.518999 -1.684 0.27000001
-10.044 19.540001 -1.688 0.33000001
-10.121 19.539 -1.691 0.31
-10.212 19.563 -1.696 0.31
-10.29 19.563 -1.699 0.31
-10.373 19.570999 -1.7029999 0.28999999
-10.457 19.58 -1.707 0.28999999
-10.541 19.587999 -1.711 0.37
-10.583 19.591999 -1.7130001 0.28
-10.608 19.492001 -1.707 0.20999999
-10.736 19.580999 -1.719 0.18000001
-10.747 19.455 -1.71 0.37
-10.808 19.421 -1.71 0.56999999
-10.926 19.49 -1.72 0.22
-10.89 19.354 -1.7079999 0.22
-10.925 19.275 -1.704 0.55000001
-12.033 21.07 -1.885 0.22
-11.191 19.455999 -1.729 0.31999999
-11.343 19.577999 -1.744 0.16
-11.881 20.212 -1.8150001 0.57999998
-12.018 20.370001 -1.832 0.19
-12.149 20.445 -1.8430001 0.28999999
-12.172 20.337999 -1.837 0.27000001
-12.191 20.226999 -1.829 0.38
-12.286 20.239 -1.834 0.34
-12.273 20.075001 -1.822 0.22
-12.394 20.131001 -1.831 0.22
-12.421 20.103001 -1.83 0.34
-12.435 19.986 -1.823 0.34
-12.464 19.893 -1.817 0.31999999
-12.372 19.610001 -1.7920001 0.31
-12.476 19.638 -1.799 0.34
-12.497 19.535 -1.793 0.36000001
-12.896 20.018 -1.846 0.14
-13.195 20.410999 -1.888 0.5
-14.321 21.997999 -2.056 0.22
-14.469 22.073 -2.0680001 0.25999999
-13.401 20.306999 -1.891 0.27000001
-13.797 20.764 -1.942 0.23999999
-15.366 22.962999 -2.174 0.12
-14.161 21.024 -1.978 0.16
-14.275 21.120001 -1.99 0.50999999
-14.475 21.271 -2.0109999 0.18000001
-14.573 21.271999 -2.016 0.14
-13.92 20.184999 -1.9069999 0.55000001
-14.085 20.287001 -1.9220001 0.25
-14.474 20.707001 -1.971 0.22
-14.392 20.452999 -1.949 0.23999999
-14.302 20.257999 -1.931 0.40000001
-14.567 20.496 -1.961 0.27000001
-14.485 20.246 -1.939 0.34
-14.761 20.493999 -1.97 0.20999999
-14.63 20.179001 -1.942 0.37
-14.895 20.409 -1.971 0.25999999
-14.973 20.448 -1.978 0.38999999
-15.135 20.533001 -1.992 0.28
-15.222 20.514999 -1.995 0.25
-15.472 20.716 -2.0220001 0.34
-15.345 20.413 -1.994 0.31999999
-15.509 20.496 -2.0090001 0.38999999
-15.622 20.511 -2.0150001 0.30000001
-15.642 20.403 -2.0090001 0.31999999
-15.64 20.334999 -2.0039999 0.30000001
-16.028 20.704 -2.05 0.23999999
-15.829 20.184999 -2.0039999 0.57999998
-15.83 20.055 -1.995 0.22
-16.381001 20.620001 -2.063 0.25
-16.669001 20.846001 -2.0940001 0.34
-16.674 20.785999 -2.0899999 0.27000001
-16.712999 20.701 -2.086 0.43000001
-16.688999 20.539 -2.0739999 0.28999999
-16.719 20.444 -2.069 0.28999999
-16.757999 20.361 -2.066 0.2
-17 20.523001 -2.0899999 0.31999999
-16.947001 20.329 -2.0739999 0.23999999
-17.021999 20.354 -2.0799999 0.46000001
-17.052 20.259001 -2.075 0.25999999
-17.212 20.32 -2.0880001 0.34999999
-17.349001 20.351999 -2.098 0.27000001
-17.524 20.426001 -2.1129999 0.37
-17.538 20.313 -2.1059999 0.28999999
-17.563999 20.278 -2.105 0.34999999
-17.698999 20.305 -2.115 0.30000001
-17.837 20.334 -2.1240001 0.36000001
-18.056999 20.455 -2.145 0.31999999
-18.222 20.511 -2.158 0.37
-18.389999 20.57 -2.171 0.31
-18.440001 20.496 -2.1689999 0.38999999
-18.59 20.597 -2.184 0.27000001
-18.690001 20.576 -2.1889999 0.36000001
-18.945 20.726 -2.2130001 0.25
-19.089001 20.752001 -2.223 0.37
-19.184999 20.725 -2.227 0.34
-19.274 20.691 -2.23 0.37
-19.431 20.728001 -2.2409999 0.34999999
-19.518 20.754999 -2.2479999 0.34
-19.723 20.841 -2.266 0.23999999
-19.822001 20.815001 -2.27 0.47999999
-19.886 20.750999 -2.27 0.25999999
-19.907 20.643 -2.2639999 0.11
-19.98 20.589001 -2.2650001 0
-20.042 20.523001 -2.2650001 0
-20.045 20.462 -2.2609999 0
-20.104 20.393 -2.2609999 0
-20.181999 20.344 -2.263 0
-20.233999 20.268999 -2.2609999 0
-20.285999 20.194 -2.26 0
-20.336 20.117001 -2.2579999 0
-20.379 20.033001 -2.256 0
-20.389999 19.981001 -2.253 0
-20.434 19.899 -2.2509999 0
-20.469999 19.809 -2.2479999 0
-20.506001 19.719 -2.2449999 0
-20.545 19.632999 -2.2420001 0
-20.583 19.546 -2.2390001 0
-20.627001 19.465 -2.237 0
-20.634001 19.410999 -2.234 0
-20.648001 19.302 -2.2290001 0
-20.705 19.233 -2.2279999 0.07
-13.76 12.555 -1.4 0.91000003
-13.789 12.541 -1.401 0.74000001
-13.606 12.298 -1.376 0.18000001
-13.63 12.089 -1.365 0.83999997
-13.646 12.026 -1.363 0.94999999
-13.605 11.915 -1.354 0.99000001
-13.599 11.871 -1.351 0.89999998
-13.63 11.823 -1.35 0.91000003
-13.597 11.721 -1.342 0.95999998
-13.484 11.55 -1.325 0.81999999
-13.683 11.645 -1.344 0
-9.5760002 8.0310001 -0.87300003 0.60000002
-13.574 11.298 -1.317 0.16
-13.663 11.3 -1.323 0.18000001
-13.615 11.189 -1.314 0.58999997
-13.678 11.168 -1.317 0.36000001
-13.701 11.115 -1.316 0.19
-13.68 11.027 -1.309 0.18000001
-13.734 11.036 -1.314 0.16
-13.814 11.029 -1.319 0.18000001
-10.436 8.2329998 -0.94199997 0.54000002
-10.492 8.1709995 -0.94199997 0.40000001
-10.627 8.2220001 -0.954 0.38
-10.645 8.1560001 -0.95200002 0.58999997
-10.583 8.0559998 -0.94199997 0.38999999
-10.688 8.0830002 -0.95099998 0.28999999
-10.919 8.2030001 -0.97299999 0.30000001
-10.934 8.1610003 -0.972 0.46000001
-11.038 8.184 -0.98000002 0.28
-10.715 7.9200001 -0.94400001 0.56999999
-10.755 7.8969998 -0.94599998 0.31999999
-10.821 7.8940001 -0.94999999 0.52999997
-11.071 8.0220003 -0.97399998 0.17
-10.921 7.8610001 -0.95599997 0.47999999
-10.949 7.829 -0.95599997 0.27000001
-10.938 7.796 -0.954 0.54000002
-11.075 7.8410001 -0.96600002 0.27000001
-11.488 8.0780001 -1.006 0.46000001
-10.998 7.684 -0.95200002 0.40000001
-11.594 8.0439997 -1.012 0.31999999
-11.309 7.7950001 -0.98000002 0.30000001
-11.34 7.7639999 -0.98000002 0.57999998
-11.235 7.6659999 -0.96799999 0.36000001
-11.501 7.7940001 -0.99299997 0.28999999
-11.596 7.8049998 -1.001 0.46000001
-11.428 7.6409998 -0.98100001 0.27000001
-11.362 7.5450001 -0.97100002 0.5
-11.533 7.6059999 -0.98699999 0.37
-11.061 7.2459998 -0.93599999 0.44
-11.527 7.5240002 -0.98199999 0.28999999
-11.502 7.4569998 -0.977 0.44999999
-11.647 7.4990001 -0.99000001 0.31
-11.718 7.4920001 -0.995 0.47999999
-11.854 7.527 -1.006 0.44999999
-12.021 7.5799999 -1.021 0.34
-11.949 7.4819999 -1.011 0.36000001
-11.954 7.4590001 -1.01 0.40000001
-12.016 7.4450002 -1.0140001 0.28999999
-12.084 7.4349999 -1.0190001 0.43000001
-12.173 7.4369998 -1.025 0.28999999
-12.249 7.4310002 -1.031 0.44999999
-12.326 7.4239998 -1.036 0.41999999
-12.399 7.441 -1.0420001 0.36000001
-12.45 7.4190001 -1.045 0.58999997
-12.538 7.4180002 -1.051 0.38
-12.622 7.414 -1.057 0.30000001
-12.707 7.4099998 -1.063 0.34
-12.794 7.4070001 -1.0700001 0.30000001
-12.855 7.388 -1.074 0.40000001
-12.96 7.4219999 -1.0829999 0.31
-13.042 7.414 -1.089 0.31999999
-13.132 7.4099998 -1.095 0.34
-13.221 7.4060001 -1.102 0.30000001
-13.309 7.4000001 -1.108 0.31999999
-13.405 7.3990002 -1.115 0.31999999
-13.544 7.4190001 -1.127 0.31
-13.675 7.4629998 -1.138 0.27000001
-13.796 7.473 -1.148 0.36000001
-13.858 7.4499998 -1.152 0.23999999
-13.978 7.4580002 -1.161 0.44999999
-14.097 7.4640002 -1.17 0.38
-14.182 7.4520001 -1.176 0.30000001
-14.287 7.4499998 -1.184 0.36000001
-14.364 7.461 -1.1900001 0.33000001
-14.449 7.448 -1.196 0.34
-14.524 7.4289999 -1.201 0.31999999
-14.602 7.4109998 -1.207 0.28999999
-14.677 7.3909998 -1.212 0.28999999
-14.768 7.3790002 -1.2180001 0.31
-14.857 7.3649998 -1.225 0.25999999
-14.781 7.2979999 -1.216 0.43000001
-15.021 7.3579998 -1.237 0.34
-15.17 7.3709998 -1.249 0.30000001
-15.279 7.3649998 -1.257 0.36000001
-15.392 7.3600001 -1.266 0.34
-15.509 7.3559999 -1.275 0.33000001
-15.631 7.3530002 -1.284 0.36000001
-15.583 7.3010001 -1.278 0.27000001
-15.837 7.3590002 -1.3 0.34
-15.958 7.3540001 -1.309 0.28999999
-15.974 7.3010001 -1.309 0.38999999
-15.9 7.2069998 -1.3 0.31
-16.275999 7.3150001 -1.3329999 0.25999999
-17.159 7.678 -1.415 0.23
-17.278 7.6659999 -1.424 0.43000001
-17.457001 7.6799998 -1.438 0.28
-15.195 6.631 -1.224 0.18000001
-17.796 7.6950002 -1.466 0.44
-17.992001 7.7129998 -1.482 0.28999999
-18.077 7.6820002 -1.487 0.17
-16.403 6.9429998 -1.33 0.25999999
-17.139999 7.1900001 -1.397 0.30000001
-17.108 7.1129999 -1.392 0.23
-16.061001 6.6209998 -1.2920001 0.49000001
-16.054001 6.559 -1.29 0.36000001
-15.845 6.4159999 -1.2690001 0.28
-16.722 6.7090001 -1.348 0.37
-15.892 6.348 -1.27 0.31999999
-16.531 6.5419998 -1.327 0.25999999
-16.780001 6.579 -1.348 0.25
-16.964001 6.5900002 -1.363 0.33000001
-17.101999 6.5809999 -1.374 0.25999999
-17.364 6.6199999 -1.397 0.44999999
-17.212999 6.5009999 -1.381 0.22
-17.156 6.448 -1.375 0.44999999
-17.259001 6.4250002 -1.382 0.28999999
-17.636 6.5019999 -1.415 0.40000001
-17.275 6.3070002 -1.38 0.27000001
-18.402 6.652 -1.4809999 0.28999999
-18.061001 6.4650002 -1.448 0.31999999
-18.344 6.5009999 -1.472 0.28
-18.264 6.441 -1.464 0.36000001
-18.638 6.506 -1.4960001 0.33000001
-18.839001 6.5100002 -1.513 0.25999999
-18.652 6.3800001 -1.494 0.38999999
-18.799 6.3639998 -1.505 0.38
-19.093 6.3959999 -1.53 0.33000001
-19.302999 6.4330001 -1.548 0.37
-19.24 6.3449998 -1.541 0.31999999
-19.323999 6.3049998 -1.546 0.40000001
-19.511 6.2979999 -1.562 0.41999999
-19.861 6.342 -1.591 0.40000001
-19.812 6.2579999 -1.585 0.28999999
-19.802999 6.1869998 -1.5829999 0.38999999
-19.965 6.2030001 -1.596 0.27000001
-20.246 6.2199998 -1.62 0.47
-20 6.0760002 -1.596 0.28999999
-19.952 5.993 -1.59 0.34999999
-19.975 5.9320002 -1.59 0.38999999
-20.517 6.0219998 -1.637 0.25
-20.917 6.0679998 -1.671 0.28999999
-21.16 6.1020002 -1.692 0.36000001
-21.193001 6.039 -1.693 0.40000001
-21.354 6.0120001 -1.706 0.38
-21.573999 6.0009999 -1.724 0.36000001
-21.749001 5.9759998 -1.738 0.38
-21.837999 5.927 -1.744 0.31999999
-21.865 5.8600001 -1.745 0.25999999
-21.879999 5.8270001 -1.745 0.28
-21.892 5.757 -1.745 0.25999999
-21.903999 5.6869998 -1.744 0.28999999
-21.947001 5.6240001 -1.747 0.27000001
-21.945 5.5500002 -1.745 0.25999999
-21.955 5.4790001 -1.744 0.34
-21.988001 5.414 -1.7460001 0.22
-22.011 5.3839998 -1.747 0.44999999
-22.025999 5.3140001 -1.747 0.25
-22.058001 5.2480001 -1.748 0.25999999
-22.069 5.178 -1.748 0.25999999
-22.107 5.1129999 -1.75 0.25
-22.134001 5.046 -1.751 0.18000001
-22.163 4.98 -1.752 0.43000001
-22.165001 4.9439998 -1.751 0.23999999
-22.208 4.8800001 -1.7539999 0.20999999
-22.226999 4.8109999 -1.7539999 0.38
-22.246 4.7420001 -1.7539999 0.20999999
-22.285999 4.677 -1.757 0.23999999
-22.297001 4.6069999 -1.756 0.19
-22.346001 4.5440001 -1.7589999 0.20999999
-22.372999 4.5120001 -1.761 0.18000001
-22.417 4.448 -1.7640001 0.12
-22.444 4.3800001 -1.765 0.17
-22.483 4.3140001 -1.767 0.12
-22.490999 4.243 -1.767 0.16
-22.516001 4.1739998 -1.768 0.28999999
-22.534 4.1409998 -1.7690001 0.27000001
-22.555 4.072 -1.7690001 0.27000001
-22.556 3.9990001 -1.768 0.27000001
-22.556 3.9260001 -1.767 0.11
-22.551001 3.852 -1.766 0.16
-22.552999 3.779 -1.765 0.12
-22.561001 3.7079999 -1.765 0.16
-22.584 3.6389999 -1.766 0.12
-22.598 3.605 -1.766 0.16
-22.618999 3.5350001 -1.767 0.30000001
-22.6 3.4590001 -1.765 0.19
-22.603001 3.3870001 -1.7640001 0.17
-22.59 3.313 -1.762 0.31
-22.584999 3.24 -1.76 0.2
-22.594 3.2049999 -1.761 0.17
-22.613001 3.135 -1.762 0.13
-22.617001 3.063 -1.761 0.17
-22.642 2.994 -1.762 0.28999999
-22.662001 2.924 -1.763 0.18000001
-22.683001 2.855 -1.7640001 0.18000001
-22.698999 2.7839999 -1.765 0.18000001
-22.724001 2.7509999 -1.767 0.18000001
-22.736 2.6800001 -1.767 0.18000001
-22.76 2.6099999 -1.768 0.17
-22.771999 2.539 -1.7690001 0.22
-22.780001 2.4679999 -1.7690001 0.23999999
-22.798 2.3970001 -1.77 0.25
-22.813 2.326 -1.77 0.25
-22.819 2.2909999 -1.771 0.25999999
-22.816 2.2179999 -1.77 0.25999999
-22.785 2.1429999 -1.766 0.11
-22.766001 2.069 -1.7640001 0.16
-22.746 1.995 -1.762 0.28
-22.743 1.923 -1.761 0.2
-22.743999 1.851 -1.761 0.17
-22.724001 1.814 -1.7589999 0.33000001
-22.702999 1.74 -1.756 0.25
-22.707001 1.669 -1.756 0.25
-22.700001 1.597 -1.755 0.34
-22.698999 1.525 -1.755 0.2
-22.548 1.444 -1.7410001 0.40000001
-22.539 1.372 -1.74 0.22
-22.545 1.301 -1.74 0.18000001
-22.565001 1.2309999 -1.742 0.38999999
-22.547001 1.1950001 -1.74 0.22
-22.559 1.124 -1.7410001 0.18000001
-22.572001 1.054 -1.742 0.38999999
-22.577 0.98299998 -1.742 0.23
-22.596001 0.91299999 -1.743 0.18000001
-22.622999 0.84299999 -1.745 0.41
-22.621 0.77200001 -1.745 0.23
-22.642 0.73699999 -1.747 0.2
-22.656 0.66600001 -1.748 0.37
-22.672001 0.59500003 -1.749 0.2
-22.664 0.52399999 -1.748 0.23999999
-22.67 0.45199999 -1.748 0.20999999
-22.679001 0.38100001 -1.749 0.23
-22.695999 0.31 -1.75 0.2
-22.708 0.27500001 -1.751 0.20999999
-22.716999 0.204 -1.752 0.18000001
-22.714001 0.132 -1.752 0.31999999
-22.714001 0.061000001 -1.752 0.2
-22.726 -0.011 -1.753 0.16
-22.722 -0.082000002 -1.752 0.13
-22.736 -0.118 -1.7539999 0.17
-22.733 -0.189 -1.753 0.12
-22.743999 -0.26100001 -1.7539999 0.16
-22.75 -0.33199999 -1.755 0.12
-22.76 -0.40400001 -1.756 0.17
-22.750999 -0.47499999 -1.755 0.12
-22.743 -0.54699999 -1.755 0.17
-22.742001 -0.58200002 -1.755 0.28999999
-22.754 -0.65399998 -1.756 0.19
-22.76 -0.72600001 -1.757 0.16
-22.746 -0.79699999 -1.756 0.13
-22.740999 -0.86799997 -1.755 0.17
-22.743999 -0.94 -1.756 0.22
-22.739 -1.011 -1.756 0.19
-22.743999 -1.0470001 -1.756 0.20999999
-22.728001 -1.118 -1.755 0.19
-22.740999 -1.191 -1.757 0.23
-22.719 -1.261 -1.755 0.2
-22.729 -1.3329999 -1.756 0.23
-22.73 -1.405 -1.757 0.18000001
-22.718 -1.476 -1.756 0.23
-22.716 -1.512 -1.756 0.18000001
-22.705 -1.582 -1.756 0.33000001
-22.702 -1.654 -1.756 0.20999999
-22.694 -1.725 -1.756 0.18000001
-22.707001 -1.798 -1.757 0.31
-22.697001 -1.869 -1.757 0.2
-22.695 -1.9400001 -1.757 0.17
-22.686001 -1.976 -1.757 0.31999999
-22.667999 -2.046 -1.756 0.2
-22.665001 -2.1170001 -1.756 0.18000001
-22.656 -2.188 -1.756 0.20999999
-22.655001 -2.26 -1.756 0.18000001
-22.642 -2.3310001 -1.756 0.22
-22.632999 -2.402 -1.756 0.18000001
-22.641001 -2.438 -1.757 0.23
-22.669001 -2.513 -1.76 0.18000001
-22.724001 -2.592 -1.765 0.30000001
-22.655001 -2.6559999 -1.76 0.28999999
-22.690001 -2.733 -1.7640001 0.20999999
-22.688999 -2.8050001 -1.7640001 0.38
-22.700001 -2.842 -1.766 0.23
-22.712999 -2.9170001 -1.768 0.23
-22.556999 -2.9679999 -1.755 0.17
-22.283001 -3.003 -1.732 0.30000001
-22.114 -3.0510001 -1.7180001 0.38
-21.913 -3.0929999 -1.701 0.38
-21.57 -3.1140001 -1.673 0.36000001
-21.555 -3.1459999 -1.6720001 0.27000001
-21.423 -3.1949999 -1.661 0.34999999
-21.409 -3.2620001 -1.661 0.38999999
-21.712999 -3.3789999 -1.688 0.37
-21.722 -3.45 -1.6900001 0.23999999
-21.844999 -3.54 -1.701 0.16
-20.197001 -3.336 -1.559 0.41
-20.181999 -3.3659999 -1.558 0.63
-21.495001 -3.6559999 -1.673 0.25
-21.391001 -3.7079999 -1.665 0.28
-21.297001 -3.76 -1.658 0.38
-21.395 -3.8469999 -1.668 0.30000001
-21.431 -3.9230001 -1.6720001 0.28999999
-21.200001 -3.9489999 -1.653 0.36000001
-21.559 -4.052 -1.6849999 0.30000001
-21.705 -4.1500001 -1.699 0.31
-21.735001 -4.2270002 -1.702 0.28999999
-21.604 -4.2719998 -1.692 0.41
-21.542 -4.3299999 -1.688 0.23999999
-21.854 -4.4640002 -1.717 0.33000001
-21.775999 -4.52 -1.711 0.34999999
-21.514999 -4.5 -1.689 0.27000001
-21.565001 -4.5819998 -1.694 0.43000001
-21.533001 -4.6459999 -1.693 0.28999999
-21.415001 -4.691 -1.684 0.38999999
-21.344 -4.7449999 -1.679 0.36000001
-21.391001 -4.8260002 -1.684 0.34999999
-21.254999 -4.8309999 -1.673 0.34
-21.083 -4.8610001 -1.659 0.34
-21.063999 -4.9260001 -1.659 0.38
-20.909 -4.9590001 -1.646 0.43000001
-21.030001 -5.0580001 -1.658 0.38999999
-21.098 -5.1440001 -1.666 0.31999999
-21.150999 -5.2280002 -1.6720001 0.38999999
-21.358999 -5.3150001 -1.691 0.31
-21.346001 -5.3829999 -1.692 0.34999999
-21.374001 -5.4619999 -1.6950001 0.34999999
-21.370001 -5.533 -1.697 0.31999999
-21.291 -5.5830002 -1.691 0.36000001
-21.181 -5.6259999 -1.683 0.41
-21.371 -5.7480001 -1.701 0.28999999
-21.35 -5.7789998 -1.7 0.38999999
-21.405001 -5.8660002 -1.707 0.30000001
-21.782 -6.0430002 -1.742 0.28
-21.509001 -6.04 -1.72 0.34999999
-21.540001 -6.1220002 -1.724 0.41
-21.848 -6.2839999 -1.753 0.27000001
-22.042999 -6.415 -1.773 0.31999999
-22.134001 -6.48 -1.7819999 0.38999999
-21.995001 -6.5139999 -1.771 0.31
-22.042999 -6.6040001 -1.777 0.30000001
-21.966999 -6.6560001 -1.772 0.34
-21.858 -6.698 -1.7640001 0.44999999
-21.573 -6.6849999 -1.7410001 0.33000001
-21.653999 -6.7849998 -1.75 0.23999999
-22.044001 -6.9450002 -1.786 0.31
-22.087 -7.0349998 -1.7920001 0.33000001
-22 -7.0840001 -1.786 0.20999999
-21.813 -7.099 -1.771 0.44
-21.823 -7.178 -1.774 0.40000001
-21.858999 -7.2659998 -1.779 0.36000001
-21.774 -7.276 -1.773 0.25999999
-22.079 -7.4559999 -1.802 0.37
-22.087999 -7.5359998 -1.8049999 0.23
-22.066 -7.6059999 -1.8049999 0.38
-21.985001 -7.6550002 -1.8 0.28
-22.118999 -7.7800002 -1.8150001 0.30000001
-22.122999 -7.8600001 -1.817 0.38
-22.163 -7.9130001 -1.822 0.31999999
-22.344 -8.0570002 -1.841 0.36000001
-22.247 -8.1009998 -1.834 0.30000001
-22.362 -8.2229996 -1.847 0.36000001
-22.370001 -8.3059998 -1.85 0.28999999
-22.202 -8.323 -1.837 0.46000001
-22.309999 -8.4429998 -1.85 0.28999999
-22.849001 -8.6890001 -1.901 0.31
-22.509001 -8.6409998 -1.872 0.34999999
-22.857 -8.8570004 -1.906 0.34
-22.872 -8.9460001 -1.91 0.34
-22.642 -8.9379997 -1.892 0.36000001
-22.851 -9.1029997 -1.914 0.30000001
-22.707001 -9.0869999 -1.902 0.27000001
-22.687 -9.1619997 -1.902 0.28999999
-22.638 -9.2250004 -1.901 0.27000001
-22.775 -9.3649998 -1.916 0.31
-22.780001 -9.4510002 -1.919 0.36000001
-22.681 -9.493 -1.913 0.27000001
-22.465 -9.4860001 -1.895 0.31999999
-22.490999 -9.5380001 -1.899 0.34
-22.688 -9.7060003 -1.92 0.34
-22.660999 -9.7790003 -1.921 0.28999999
-22.813 -9.9300003 -1.938 0.23
-22.983999 -10.091 -1.957 0.31
-22.759001 -10.077 -1.939 0.33000001
-23.073999 -10.304 -1.971 0.37
-22.757999 -10.205 -1.943 0.20999999
-23.18 -10.483 -1.9859999 0.30000001
-23.077999 -10.524 -1.98 0.44999999
-22.377001 -10.288 -1.916 0.28
-22.280001 -10.328 -1.91 0.28999999
-22.382 -10.462 -1.923 0.25
-22.326 -10.521 -1.921 0.34
-22.233999 -10.52 -1.914 0.33000001
-22.719999 -10.838 -1.9630001 0.25
-23.135 -11.126 -2.006 0.23
-23.084 -11.191 -2.0039999 0.40000001
-22.195 -10.845 -1.923 0.20999999
-22.924999 -11.293 -1.9960001 0.38
-22.763 -11.301 -1.984 0.33000001
-22.841 -11.385 -1.993 0.28999999
-22.766001 -11.437 -1.989 0.28999999
-22.712999 -11.5 -1.988 0.28
-22.657 -11.561 -1.9859999 0.36000001
-23.063 -11.86 -2.029 0.34
-23.094999 -11.969 -2.0350001 0.28999999
-22.527 -11.809 -1.9859999 0.38999999
-22.608999 -11.943 -1.997 0.20999999
-22.493999 -11.972 -1.99 0.2
-22.778 -12.216 -2.0209999 0.36000001
-22.562 -12.191 -2.0039999 0.25
-22.447001 -12.22 -1.9960001 0.33000001
-22.445 -12.265 -1.998 0.34
-22.572001 -12.427 -2.0139999 0.25999999
-22.681 -12.58 -2.029 0.28
-22.664 -12.664 -2.0309999 0.33000001
-22.438 -12.63 -2.013 0.37
-22.129999 -12.548 -1.9859999 0.31
-22.054001 -12.597 -1.982 0.2
-22.080999 -12.658 -1.987 0.43000001
-22.26 -12.854 -2.0090001 0.27000001
-22.17 -12.895 -2.0039999 0.28999999
-22.804001 -13.361 -2.0710001 0.22
-21.761999 -12.841 -1.971 0.38999999
-21.832001 -12.975 -1.982 0.25999999
-22.539 -13.492 -2.0569999 0.2
-22.618999 -13.588 -2.0669999 0.30000001
-22.561001 -13.65 -2.066 0.43000001
-22.438999 -13.673 -2.0580001 0.34999999
-22.079 -13.548 -2.026 0.25999999
-22.407 -13.847 -2.063 0.31999999
-22.306 -13.882 -2.0580001 0.28999999
-22.205 -13.867 -2.05 0.31999999
-22.385 -14.078 -2.072 0.25
-21.868 -13.848 -2.0239999 0.34999999
-21.697001 -13.836 -2.0109999 0.34999999
-22.427999 -14.402 -2.0899999 0.31999999
-22.108 -14.295 -2.062 0.20999999
-22.209999 -14.46 -2.0769999 0.28999999
-22.292 -14.563 -2.0880001 0.36000001
-22.205999 -14.607 -2.0840001 0.25
-22.212 -14.711 -2.089 0.34
-22.129 -14.756 -2.086 0.31999999
-22.045 -14.8 -2.082 0.38
-21.958 -14.842 -2.0769999 0.30000001
-21.865999 -14.88 -2.073 0.30000001
-21.914 -14.964 -2.0799999 0.31999999
-21.823 -15.002 -2.076 0.31
-21.927999 -15.176 -2.092 0.34
-21.716999 -15.131 -2.0739999 0.37
-21.782 -15.278 -2.086 0.34
-21.503 -15.183 -2.062 0.22
-21.721001 -15.44 -2.0899999 0.37
-21.666 -15.452 -2.0869999 0.27000001
-21.635 -15.533 -2.089 0.31999999
-21.641001 -15.641 -2.0940001 0.28999999
-21.650999 -15.752 -2.1010001 0.31999999
-21.591999 -15.813 -2.0999999 0.44
-21.542 -15.88 -2.0999999 0.25
-21.545 -15.934 -2.1029999 0.34999999
-21.500999 -16.007 -2.1029999 0.34
-21.465 -16.084999 -2.105 0.31
-21.351 -16.104 -2.098 0.30000001
-21.346001 -16.205999 -2.1029999 0.41
-21.398001 -16.351999 -2.1140001 0.30000001
-21.02 -16.167 -2.079 0.23
-21.346001 -16.472 -2.1170001 0.28
-21.344 -16.577999 -2.122 0.34
-21.256001 -16.617001 -2.118 0.34
-21.08 -16.586 -2.105 0.28999999
-20.889 -16.542 -2.0899999 0.28999999
-20.929001 -16.681 -2.0999999 0.36000001
-20.747 -16.643 -2.086 0.25
-20.618999 -16.593 -2.0739999 0.34999999
-20.690001 -16.757999 -2.0880001 0.33000001
-20.722 -16.893 -2.0969999 0.31
-20.648001 -16.940001 -2.095 0.30000001
-20.653 -17.052999 -2.1010001 0.40000001
-20.559 -17.084999 -2.0969999 0.34999999
-20.587999 -17.218 -2.1059999 0.25
-20.521 -17.216999 -2.102 0.34
-20.455 -17.271 -2.0999999 0.40000001
-20.417 -17.35 -2.102 0.31999999
-20.25 -17.318001 -2.0899999 0.31999999
-20.181999 -17.370001 -2.0880001 0.22
-20.056999 -17.372 -2.0799999 0.37
-20.073999 -17.497 -2.0880001 0.28
-20.021 -17.507 -2.085 0.31999999
-19.978001 -17.58 -2.0869999 0.34999999
-19.938999 -17.657 -2.089 0.36000001
-19.958 -17.785999 -2.0969999 0.38999999
-19.915001 -17.861 -2.099 0.28999999
-19.747999 -17.823 -2.086 0.38999999
-19.523001 -17.674 -2.063 0.31999999
-19.431999 -17.702999 -2.059 0.25999999
-19.452 -17.834999 -2.0680001 0.37
-19.469 -17.962999 -2.076 0.22
-19.135 -17.766001 -2.0439999 0.37
-19.183001 -17.923 -2.056 0.28
-19.148001 -18.004 -2.0580001 0.30000001
-19.205 -18.115 -2.069 0.31999999
-19.079 -18.108999 -2.0599999 0.20999999
-18.888 -18.041 -2.0439999 0.34
-18.959 -18.223 -2.0599999 0.30000001
-18.724001 -18.110001 -2.0380001 0.31999999
-18.756001 -18.254999 -2.049 0.31
-18.806 -18.42 -2.062 0.25999999
-18.85 -18.521 -2.0710001 0.38999999
-18.844 -18.632 -2.0769999 0.31
-18.65 -18.556 -2.0610001 0.28999999
-18.32 -18.341999 -2.0280001 0.31999999
-18.426001 -18.565001 -2.0480001 0.25
-18.48 -18.737 -2.0610001 0.38999999
-18.353001 -18.725 -2.053 0.37
-18.365999 -18.798 -2.0580001 0.28999999
-18.254 -18.801001 -2.052 0.36000001
-18.039 -18.695999 -2.0320001 0.23999999
-18.115 -18.893999 -2.049 0.38
-17.798 -18.679001 -2.017 0.25
-17.575001 -18.561001 -1.9960001 0.31
-17.862 -18.924999 -2.036 0.28
-17.533001 -18.693001 -2.0020001 0.31999999
-17.521 -18.798 -2.0079999 0.38999999
-17.631001 -19.035999 -2.03 0.34999999
-17.635 -19.162001 -2.0380001 0.28999999
-17.469999 -19.101999 -2.0239999 0.31999999
-17.378 -19.122 -2.02 0.38999999
-17.32 -19.118 -2.017 0.30000001
-17.219 -19.125999 -2.0109999 0.36000001
-17.056 -19.066 -1.998 0.31
-17.011999 -19.136999 -2 0.34
-16.915001 -19.149 -1.995 0.25
-16.993 -19.358999 -2.013 0.34
-16.868999 -19.34 -2.0050001 0.34
-16.771 -19.288 -1.9960001 0.34999999
-16.794001 -19.438999 -2.007 0.31999999
-16.777 -19.542999 -2.013 0.38
-16.629 -19.493999 -2.0020001 0.28
-16.5 -19.466 -1.993 0.27000001
-16.431 -19.507999 -1.992 0.31999999
-16.402 -19.535 -1.992 0.31999999
-16.25 -19.478001 -1.98 0.41999999
-16.073 -19.389 -1.964 0.28
-16.025999 -19.457001 -1.966 0.28
-16.104 -19.677999 -1.985 0.31999999
-16.132999 -19.84 -1.997 0.40000001
-16.063 -19.881001 -1.9960001 0.31
-16.014999 -19.886 -1.994 0.28
-16.035 -20.039 -2.0050001 0.28
-16.018999 -20.149 -2.0120001 0.40000001
-15.919 -20.152 -2.007 0.27000001
-15.877 -20.231001 -2.01 0.41
-15.708 -20.145 -1.995 0.28999999
-15.651 -20.202 -1.9960001 0.28
-15.688 -20.315001 -2.006 0.31999999
-15.574 -20.299 -1.999 0.34999999
-15.416 -20.225 -1.985 0.31999999
-15.375 -20.302999 -1.988 0.36000001
-15.248 -20.267 -1.979 0.27000001
-15.197 -20.332001 -1.9809999 0.34999999
-15.119 -20.361 -1.979 0.28999999
-14.961 -20.212999 -1.961 0.40000001
-15.027 -20.436001 -1.98 0.31999999
