# .PCD v0.7 - Point Cloud Data file format
VERSION 0.7
FIELDS x y z intensity
SIZE 4 4 4 4
TYPE F F F F
COUNT 1 1 1 1
WIDTH 1447
HEIGHT 1
VIEWPOINT 0 0 0 1 0 0 0
POINTS 1447
DATA ascii
-0.81099999 -6.473 -0.52399999 0
-0.801 -6.474 -0.52399999 0
-0.77999997 -6.4710002 -0.523 0
-0.759 -6.4689999 -0.523 0
-0.73799998 -6.4660001 -0.52200001 0
-0.71799999 -6.4640002 -0.52200001 0
-0.69599998 -6.4559999 -0.51999998 0
-0.67400002 -6.441 -0.51800001 0
-0.66500002 -6.4499998 -0.51899999 0
-0.64399999 -6.4460001 -0.51899999 0
-0.62400001 -6.4499998 -0.51899999 0
-0.60299999 -6.4460001 -0.51800001 0
-0.583 -6.4520001 -0.51899999 0
-0.56300002 -6.4549999 -0.51899999 0
-0.54299998 -6.4569998 -0.51899999 0
-0.53100002 -6.4359999 -0.51599997 0
-0.50999999 -6.4200001 -0.514 0
-0.491 -6.4429998 -0.51700002 0
-0.46900001 -6.427 -0.51499999 0
-0.44800001 -6.4169998 -0.514 0
-0.42899999 -6.4359999 -0.51599997 0
-0.40799999 -6.4130001 -0.51300001 0
-0.398 -6.4120002 -0.51300001 0
-0.37799999 -6.4169998 -0.51300001 0
-0.35699999 -6.4159999 -0.51300001 0
-0.33700001 -6.4050002 -0.51200002 0
-0.317 -6.414 -0.51200002 0
-0.29699999 -6.4169998 -0.51300001 0
-0.27599999 -6.4039998 -0.51099998 0
-0.266 -6.395 -0.50999999 0
-0.24600001 -6.3979998 -0.50999999 0
-0.226 -6.414 -0.51200002 0
-0.206 -6.4169998 -0.51200002 0
-0.186 -6.414 -0.51200002 0
-0.16500001 -6.3800001 -0.50800002 0
-0.145 -6.395 -0.50999999 0
-0.13500001 -6.3990002 -0.50999999 0
-0.115 -6.3930001 -0.509 0
-0.094999999 -6.4060001 -0.51099998 0
-0.075000003 -6.3940001 -0.509 0
-0.055 -6.4180002 -0.51200002 0
-0.035 -6.3860002 -0.509 0
-0.014 -6.388 -0.509 0
-0.0040000002 -6.3779998 -0.50800002 0
0.016000001 -6.402 -0.50999999 0
0.035999998 -6.388 -0.509 0
0.056000002 -6.402 -0.50999999 0
0.075999998 -6.4000001 -0.50999999 0
0.096000001 -6.408 -0.51099998 0
0.117 -6.4130001 -0.51200002 0
0.126 -6.401 -0.50999999 0
0.146 -6.3930001 -0.509 0
0.16599999 -6.3779998 -0.50800002 0
0.18700001 -6.408 -0.51099998 0
0.207 -6.4130001 -0.51200002 0
0.228 -6.4180002 -0.51200002 0
0.24699999 -6.402 -0.51099998 0
0.257 -6.4070001 -0.51099998 0
0.278 -6.408 -0.51200002 0
0.29800001 -6.4109998 -0.51200002 0
0.31900001 -6.4180002 -0.51300001 0
0.33700001 -6.3909998 -0.50999999 0
0.35800001 -6.4060001 -0.51200002 0
0.37900001 -6.4070001 -0.51200002 0
0.38999999 -6.4260001 -0.514 0
0.40900001 -6.4109998 -0.51300001 0
0.43000001 -6.4239998 -0.514 0
0.44999999 -6.4200001 -0.514 0
0.47 -6.4089999 -0.51300001 0
0.491 -6.4190001 -0.514 0
0.509 -6.3940001 -0.51200002 0
0.52100003 -6.4130001 -0.514 0
0.54299998 -6.4390001 -0.51700002 0
0.56300002 -6.4330001 -0.51599997 0
0.58399999 -6.434 -0.51700002 0
0.602 -6.4180002 -0.51499999 0
0.625 -6.4380002 -0.51800001 0
0.64300001 -6.4159999 -0.51499999 0
0.65399998 -6.4289999 -0.51700002 0
0.67400002 -6.4229999 -0.51599997 0
0.69700003 -6.4460001 -0.51899999 0
0.71600002 -6.434 -0.51800001 0
0.73900002 -6.4499998 -0.51999998 0
0.75800002 -6.441 -0.51999998 0
0.77899998 -6.4390001 -0.51999998 0
0.78799999 -6.434 -0.51899999 0
0.81099999 -6.4510002 -0.52100003 0
0.829 -6.4349999 -0.51999998 0
0.85100001 -6.4419999 -0.52100003 0
0.87199998 -6.447 -0.52200001 0
0.89300001 -6.448 -0.52200001 0
0.91399997 -6.447 -0.52200001 0
0.92400002 -6.4499998 -0.523 0
0.94400001 -6.4450002 -0.523 0
0.96499997 -6.4439998 -0.523 0
0.98500001 -6.4429998 -0.523 0
1.005 -6.4359999 -0.523 0
1.026 -6.4400001 -0.52399999 0
1.049 -6.4510002 -0.52499998 0
1.071 -6.4590001 -0.52600002 0
1.081 -6.4559999 -0.52600002 0
1.105 -6.4720001 -0.528 0
1.125 -6.4660001 -0.528 0
1.146 -6.4710002 -0.52899998 0
1.1670001 -6.467 -0.52899998 0
1.1900001 -6.4809999 -0.53100002 0
1.2130001 -6.4910002 -0.53299999 0
1.224 -6.4910002 -0.53299999 0
1.2460001 -6.4970002 -0.53399998 0
1.267 -6.493 -0.53399998 0
1.288 -6.4949999 -0.53500003 0
1.309 -6.494 -0.53500003 0
1.3279999 -6.4819999 -0.53399998 0
1.35 -6.4860001 -0.53500003 0
1.3660001 -6.5110002 -0.53799999 0
1.385 -6.5009999 -0.537 0
1.4069999 -6.5 -0.53799999 0
1.429 -6.506 -0.53899997 0
1.451 -6.507 -0.54000002 0
1.475 -6.52 -0.542 0
1.485 -6.5159998 -0.54100001 0
1.507 -6.5170002 -0.542 0
1.5319999 -6.5310001 -0.54400003 0
1.553 -6.526 -0.54400003 0
1.576 -6.5349998 -0.546 0
1.6 -6.5419998 -0.54699999 0
1.627 -6.5619998 -0.55000001 0
1.675 -6.664 -0.56199998 0
1.652 -6.5310001 -0.54699999 0
1.63 -6.3639998 -0.52899998 0
1.642 -6.3299999 -0.52499998 0
1.6569999 -6.3039999 -0.523 0
1.669 -6.2709999 -0.51999998 0
1.6950001 -6.2870002 -0.52200001 0.07
1.717 -6.2919998 -0.52399999 0.090000004
1.7309999 -6.302 -0.52499998 0.15000001
1.7460001 -6.2810001 -0.523 0.30000001
1.767 -6.2800002 -0.52399999 0.11
1.788 -6.2800002 -0.52399999 0
1.801 -6.2490001 -0.52200001 0
1.8279999 -6.27 -0.52499998 0
1.851 -6.276 -0.52600002 0.11
1.858 -6.2620001 -0.52499998 0.1
1.883 -6.2750001 -0.52700001 0.14
1.897 -6.2480001 -0.52399999 0.1
1.906 -6.2080002 -0.51999998 0
1.918 -6.1810002 -0.51800001 0
1.5039999 -4.8130002 -0.359 0
1.521 -4.8140001 -0.36000001 0
1.523 -4.7930002 -0.35800001 0
1.534 -4.777 -0.35699999 0
1.538 -4.7379999 -0.35299999 0
1.5549999 -4.7399998 -0.354 0
1.559 -4.7030001 -0.34999999 0
1.581 -4.717 -0.352 0
1.592 -4.7010002 -0.35100001 0
1.594 -4.6849999 -0.34900001 0
1.6109999 -4.6859999 -0.34999999 0
1.628 -4.6869998 -0.34999999 0
1.643 -4.6830001 -0.35100001 0
1.66 -4.684 -0.35100001 0
1.676 -4.6820002 -0.352 0
1.6900001 -4.6750002 -0.352 0
1.7029999 -4.6890001 -0.354 0
1.722 -4.6950002 -0.35499999 0
1.737 -4.6900001 -0.35499999 0
1.75 -4.6799998 -0.354 0.059999999
1.778 -4.7080002 -0.35800001 0.20999999
1.7920001 -4.7010002 -0.35800001 0.2
1.807 -4.697 -0.35800001 0.19
1.8150001 -4.6939998 -0.35800001 0.23
1.83 -4.6880002 -0.35800001 0.20999999
1.845 -4.684 -0.359 0.31
1.853 -4.6620002 -0.35699999 0.11
1.877 -4.6799998 -0.359 0.13
1.898 -4.6890001 -0.361 0.17
1.92 -4.6989999 -0.36300001 0
1.911 -4.658 -0.359 0
2.592 -6.237 -0.54900002 0
2.615 -6.2379999 -0.55000001 0
2.6359999 -6.2340002 -0.551 0
2.6570001 -6.2270002 -0.551 0
2.675 -6.217 -0.551 0
2.1949999 -5.0689998 -0.41299999 0
2.2019999 -5.0640001 -0.41299999 0.07
2.217 -5.0549998 -0.412 0
2.22 -5.0190001 -0.40900001 0
2.2360001 -5.0120001 -0.40900001 0
2.2590001 -5.0209999 -0.41100001 0
2.279 -5.0229998 -0.412 0
2.306 -5.039 -0.41499999 0.07
2.8169999 -6.119 -0.54699999 0
2.8469999 -6.132 -0.55000001 0
2.145 -4.5970001 -0.36300001 0.050000001
2.152 -4.5760002 -0.361 0.090000004
2.1670001 -4.5710001 -0.361 0.15000001
2.1800001 -4.5599999 -0.361 0.1
2.1860001 -4.5370002 -0.359 0
2.194 -4.5359998 -0.359 0
2.21 -4.5310001 -0.359 0
3.0009999 -6.0840001 -0.55299997 0.13
3.046 -6.1259999 -0.55900002 0.20999999
3.0599999 -6.1059999 -0.55800003 0.31
3.0550001 -6.0489998 -0.55199999 0.2
3.108 -6.1059999 -0.56 0.17
3.099 -6.066 -0.55599999 0.23999999
3.1289999 -6.0760002 -0.55800003 0.2
3.1500001 -6.0710001 -0.55900002 0.23
3.1670001 -6.0560002 -0.55800003 0.28
3.21 -6.0910001 -0.56400001 0.19
3.2290001 -6.0809999 -0.56400001 0.2
3.2539999 -6.0819998 -0.565 0.34999999
3.2650001 -6.0799999 -0.56599998 0.30000001
3.279 -6.059 -0.56400001 0.2
3.3010001 -6.0560002 -0.565 0.33000001
3.3110001 -6.0279999 -0.56300002 0.33000001
3.3440001 -6.0440001 -0.56599998 0.22
3.362 -6.0310001 -0.56599998 0.14
3.3540001 -5.9720001 -0.56 0.50999999
3.3989999 -6.0310001 -0.56800002 0.20999999
3.4560001 -6.086 -0.57599998 0.34
3.49 -6.1009998 -0.57999998 0.18000001
3.477 -6.0349998 -0.57300001 0.14
3.493 -6.0190001 -0.57200003 0.17
3.5079999 -6.0009999 -0.57099998 0.23
3.55 -6.0289998 -0.57599998 0.28999999
3.553 -6.013 -0.57499999 0.23999999
3.5929999 -6.0359998 -0.579 0.2
3.6110001 -6.0229998 -0.579 0.16
3.631 -6.0139999 -0.579 0.44999999
3.6440001 -5.994 -0.57800001 0.11
3.6719999 -5.9959998 -0.57999998 0.44
3.7160001 -6.0250001 -0.58499998 0.23
3.723 -6.0149999 -0.58499998 0.27000001
3.753 -6.0219998 -0.58700001 0.23
3.77 -6.007 -0.58700001 0.30000001
3.789 -5.9949999 -0.58700001 0.31
3.7939999 -5.961 -0.58399999 0.20999999
3.8199999 -5.961 -0.58499998 0.31
3.8299999 -5.9359999 -0.58399999 0.19
3.862 -5.9650002 -0.588 0.46000001
3.9000001 -5.9809999 -0.59200001 0.22
3.895 -5.934 -0.58700001 0.17
3.924 -5.9359999 -0.58899999 0.46000001
3.9749999 -5.9720001 -0.59600002 0.22
3.9979999 -5.9660001 -0.597 0.25999999
4.0279999 -5.9699998 -0.59899998 0.34
4.0300002 -5.954 -0.59799999 0.28
4.0560002 -5.9510002 -0.59899998 0.30000001
4.0710001 -5.9330001 -0.59799999 0.33000001
4.0809999 -5.9070001 -0.59600002 0.31
4.1079998 -5.9070001 -0.59799999 0.23
4.1350002 -5.9060001 -0.60000002 0.23
4.1799998 -5.9299998 -0.60500002 0.28999999
4.1890001 -5.9039998 -0.60299999 0.27000001
4.223 -5.9310002 -0.60799998 0.18000001
4.2509999 -5.9310002 -0.60900003 0.25
4.2670002 -5.914 -0.60900003 0.36000001
4.2950001 -5.914 -0.611 0.23
4.277 -5.8509998 -0.60399997 0.23
4.2969999 -5.8390002 -0.60399997 0.41
4.3559999 -5.881 -0.61199999 0.20999999
4.3569999 -5.8629999 -0.61000001 0.31999999
4.3899999 -5.868 -0.61299998 0.19
4.408 -5.8540001 -0.61299998 0.34
4.4289999 -5.8439999 -0.61299998 0.23
4.4439998 -5.8249998 -0.61299998 0.34999999
4.487 -5.8429999 -0.61699998 0.28999999
4.5180001 -5.8639998 -0.62099999 0.25
4.5279999 -5.8390002 -0.62 0.23999999
4.5560002 -5.8369999 -0.62099999 0.18000001
4.5749998 -5.8239999 -0.62199998 0.2
4.612 -5.8330002 -0.625 0.25
4.625 -5.8119998 -0.62400001 0.23
4.6409998 -5.7950001 -0.62400001 0.40000001
4.6820002 -5.8260002 -0.62900001 0.11
4.7589998 -5.8839998 -0.639 0.43000001
4.8049998 -5.902 -0.64399999 0.2
4.783 -5.8379998 -0.63700002 0.17
4.7309999 -5.7389998 -0.625 0.18000001
4.8460002 -5.8400002 -0.64200002 0.18000001
4.9200001 -5.8899999 -0.65100002 0.28999999
4.9250002 -5.8779998 -0.65100002 0.25999999
4.9619999 -5.8839998 -0.65399998 0.18000001
4.9970002 -5.888 -0.65700001 0.16
5.026 -5.8839998 -0.65799999 0.17
5.0320001 -5.855 -0.65600002 0.25
5.0419998 -5.8280001 -0.65499997 0.31999999
5.053 -5.8049998 -0.65399998 0.31999999
5.053 -5.7870002 -0.65200001 0.18000001
5.0689998 -5.7680001 -0.65200001 0.30000001
5.0949998 -5.7610002 -0.653 0.20999999
5.1290002 -5.7620001 -0.65600002 0.18000001
5.164 -5.7649999 -0.65899998 0.37
5.1890001 -5.757 -0.66000003 0.23
5.223 -5.7579999 -0.662 0.41
5.2779999 -5.7810001 -0.66799998 0.14
5.2870002 -5.7729998 -0.66799998 0.41
5.3369999 -5.7909999 -0.67400002 0.23
5.3460002 -5.7639999 -0.67199999 0.25
5.3709998 -5.7540002 -0.67299998 0.25999999
5.3969998 -5.7459998 -0.67500001 0.27000001
5.4679999 -5.7849998 -0.68300003 0.20999999
5.4120002 -5.7080002 -0.67299998 0.14
5.4499998 -5.7119999 -0.676 0.50999999
5.4720001 -5.6989999 -0.67699999 0.22
5.493 -5.6849999 -0.67699999 0.22
5.5190001 -5.6760001 -0.67799997 0.38
5.552 -5.6739998 -0.68099999 0.17
5.6290002 -5.7160001 -0.69 0.34999999
5.6209998 -5.691 -0.68699998 0.27000001
5.6820002 -5.7160001 -0.69400001 0.34999999
5.7119999 -5.71 -0.69599998 0.31999999
5.704 -5.6669998 -0.69199997 0.30000001
5.7090001 -5.6360002 -0.69 0.16
5.757 -5.6469998 -0.69499999 0.5
5.8239999 -5.678 -0.70200002 0.19
5.8449998 -5.6799998 -0.704 0.33000001
5.8800001 -5.678 -0.70700002 0.30000001
5.9260001 -5.6869998 -0.71100003 0.28
5.9369998 -5.6609998 -0.70999998 0.17
5.9369998 -5.6259999 -0.70700002 0.51999998
6.0190001 -5.6669998 -0.71700001 0.22
6.073 -5.6820002 -0.72299999 0.27000001
6.0879998 -5.678 -0.72299999 0.27000001
6.0970001 -5.651 -0.722 0.2
6.1350002 -5.6500001 -0.72500002 0.34
6.2059999 -5.6789999 -0.73299998 0.28999999
6.1999998 -5.638 -0.73000002 0.30000001
6.2059999 -5.6079998 -0.72799999 0.22
6.2379999 -5.6020002 -0.73000002 0.31999999
6.2680001 -5.6110001 -0.73299998 0.27000001
6.2670002 -5.5749998 -0.73100001 0.28
6.3340001 -5.599 -0.73799998 0.41999999
6.355 -5.5809999 -0.73799998 0.23
6.4159999 -5.599 -0.745 0.25
6.4349999 -5.5799999 -0.745 0.17
6.4180002 -5.5300002 -0.74000001 0.28999999
6.5 -5.5650001 -0.74900001 0.17
6.5009999 -5.5489998 -0.74800003 0.34
6.5489998 -5.5539999 -0.75300002 0.19
6.5949998 -5.5580001 -0.75700003 0.31999999
6.5879998 -5.5170002 -0.75300002 0.22
6.6230001 -5.5100002 -0.75599998 0.36000001
6.6550002 -5.5009999 -0.75800002 0.28999999
6.6789999 -5.5040002 -0.75999999 0.30000001
6.7319999 -5.5110002 -0.76499999 0.34
6.743 -5.4850001 -0.764 0.27000001
6.743 -5.4499998 -0.76200002 0.27000001
6.8099999 -5.4689999 -0.76899999 0.30000001
6.855 -5.4699998 -0.773 0.1
6.8909998 -5.4629998 -0.77600002 0.16
6.9400001 -5.4840002 -0.78100002 0.11
6.9860001 -5.4840002 -0.78500003 0.40000001
7.0139999 -5.4710002 -0.787 0.25
7.1069999 -5.507 -0.79699999 0.28999999
7.152 -5.506 -0.801 0.33000001
7.2389998 -5.5370002 -0.81099999 0.18000001
7.2659998 -5.5209999 -0.81199998 0.31999999
7.25 -5.473 -0.80800003 0.31999999
7.3379998 -5.5209999 -0.81900001 0.16
7.395 -5.5279999 -0.824 0.28999999
7.4060001 -5.5 -0.82300001 0.36000001
7.4679999 -5.5100002 -0.82999998 0.22
7.4819999 -5.4840002 -0.829 0.25
7.5250001 -5.4790001 -0.833 0.34
7.5640001 -5.4699998 -0.83499998 0.30000001
7.585 -5.4679999 -0.83700001 0.20999999
7.6220002 -5.4580002 -0.83999997 0.44999999
7.6700001 -5.4549999 -0.84399998 0.23
7.7350001 -5.4660001 -0.85100001 0.18000001
7.7529998 -5.441 -0.85100001 0.34
7.8010001 -5.4380002 -0.85500002 0.23
7.8470001 -5.434 -0.85900003 0.15000001
7.8769999 -5.4359999 -0.86199999 0.41999999
7.9320002 -5.4369998 -0.86699998 0.18000001
7.9489999 -5.4120002 -0.86699998 0.27000001
7.9990001 -5.4099998 -0.87099999 0.19
8.0319996 -5.3959999 -0.87300003 0.20999999
8.099 -5.4029999 -0.88 0.18000001
8.1110001 -5.3930001 -0.88 0.31
8.1639996 -5.3909998 -0.88499999 0.16
8.1990004 -5.3769999 -0.88800001 0.34999999
8.2709999 -5.3870001 -0.89499998 0.19
8.3070002 -5.3730001 -0.89700001 0.31999999
8.3649998 -5.3740001 -0.903 0.22
8.3889999 -5.3520002 -0.90399998 0.25
8.3450003 -5.3060002 -0.89700001 0.23
8.0100002 -5.059 -0.85100001 0.25
8.0159998 -5.027 -0.85000002 0.15000001
8.0299997 -5.0009999 -0.84899998 0.41
8.0419998 -4.973 -0.84899998 0.22
8.0609999 -4.9499998 -0.84899998 0.20999999
8.0819998 -4.928 -0.85000002 0.090000004
8.6219997 -5.237 -0.91900003 0.12
8.7799997 -5.2950001 -0.93699998 0.23999999
8.8050003 -5.2719998 -0.93800002 0.40000001
8.8830004 -5.2810001 -0.94599998 0.22
8.9429998 -5.2779999 -0.95200002 0.34
8.9809999 -5.263 -0.95499998 0.28999999
9.0220003 -5.2490001 -0.958 0.25999999
9.0679998 -5.256 -0.963 0.37
9.0979996 -5.2360001 -0.96399999 0.23999999
9.1110001 -5.2049999 -0.96399999 0.27000001
9.1409998 -5.184 -0.96600002 0.28
9.165 -5.1589999 -0.96700001 0.5
9.177 -5.1290002 -0.96600002 0.28
9.2139997 -5.1110001 -0.96899998 0.28999999
9.2489996 -5.0929999 -0.97100002 0.47999999
9.2840004 -5.0929999 -0.97500002 0.33000001
9.3909998 -5.1129999 -0.986 0.25999999
9.4029999 -5.0809999 -0.986 0.41
9.6009998 -5.1490002 -1.0089999 0
5.9590001 -3.1830001 -0.55000001 0
5.9250002 -3.141 -0.54400003 0
5.9089999 -3.109 -0.54100001 0.07
5.8979998 -3.0910001 -0.53899997 0.079999998
5.9130001 -3.075 -0.53899997 0.14
5.908 -3.05 -0.53799999 0.1
5.9180002 -3.0309999 -0.53799999 0.16
5.9060001 -3.0020001 -0.53500003 0.1
5.9299998 -2.99 -0.537 0.15000001
5.9120002 -2.9579999 -0.53299999 0.23
5.9130001 -2.947 -0.53299999 0.23999999
5.9169998 -2.9260001 -0.53200001 0.25
5.9260001 -2.9070001 -0.53200001 0.25
5.927 -2.8840001 -0.53100002 0.11
5.9460001 -2.8710001 -0.53299999 0
5.9619999 -2.8559999 -0.53299999 0
5.9790001 -2.8399999 -0.53399998 0
6.0120001 -2.8440001 -0.53799999 0
6.0240002 -2.8269999 -0.53799999 0
6.0570002 -2.819 -0.54100001 0
10.821 -4.973 -1.1210001 0
6.6230001 -3.03 -0.60799998 0.029999999
6.6630001 -3.023 -0.61199999 0.15000001
11.069 -4.9400001 -1.145 0.38
11.15 -4.934 -1.153 0.36000001
11.206 -4.9159999 -1.1569999 0.30000001
11.267 -4.901 -1.163 0.30000001
11.328 -4.8850002 -1.168 0.37
11.401 -4.8740001 -1.175 0.31
11.475 -4.8629999 -1.182 0.31999999
11.536 -4.8670001 -1.189 0.31999999
11.605 -4.8530002 -1.1950001 0.25999999
11.68 -4.842 -1.2029999 0.37
11.743 -4.8239999 -1.2079999 0.28999999
11.827 -4.8150001 -1.216 0.31
11.897 -4.8000002 -1.223 0.36000001
11.955 -4.7800002 -1.228 0.23999999
12.045 -4.7940001 -1.238 0.38
12.116 -4.7779999 -1.245 0.30000001
12.196 -4.7649999 -1.252 0.31
12.261 -4.7459998 -1.258 0.40000001
12.329 -4.7280002 -1.265 0.28999999
12.428 -4.7199998 -1.275 0.25
12.521 -4.7329998 -1.285 0.44
12.573 -4.7080002 -1.289 0.30000001
12.67 -4.698 -1.299 0.25
12.763 -4.6869998 -1.308 0.25999999
12.817 -4.6609998 -1.313 0.33000001
12.893 -4.6430001 -1.3200001 0.20999999
12.997 -4.6339998 -1.331 0.25999999
13.091 -4.6440001 -1.341 0.41
13.184 -4.631 -1.35 0.34
13.251 -4.6079998 -1.3559999 0.28999999
13.283 -4.572 -1.358 0.41
13.256 -4.5159998 -1.353 0.41
13.302 -4.4850001 -1.357 0.25
13.397 -4.4699998 -1.367 0.25
13.468 -4.4699998 -1.374 0.28999999
13.578 -4.4590001 -1.385 0.33000001
13.657 -4.4369998 -1.393 0.25
13.748 -4.4190001 -1.402 0.25999999
14.033 -4.4619999 -1.433 0.2
14.174 -4.4569998 -1.448 0.27000001
14.23 -4.4260001 -1.4529999 0.18000001
14.299 -4.3979998 -1.459 0.30000001
14.329 -4.382 -1.462 0.34
14.352 -4.3400002 -1.4630001 0.36000001
14.362 -4.2940001 -1.4630001 0.34999999
14.365 -4.2459998 -1.462 0.34
14.383 -4.2020001 -1.462 0.34999999
14.388 -4.1539998 -1.461 0.40000001
14.416 -4.1139998 -1.4630001 0.36000001
14.442 -4.0960002 -1.465 0.31
14.451 -4.0500002 -1.465 0.41999999
14.477 -4.0079999 -1.466 0.28999999
14.497 -3.9649999 -1.467 0.44999999
14.554 -3.931 -1.472 0.31999999
14.585 -3.8900001 -1.474 0.36000001
14.605 -3.8469999 -1.475 0.34999999
14.626 -3.8280001 -1.477 0.31999999
14.646 -3.7839999 -1.478 0.31
14.664 -3.7390001 -1.479 0.33000001
14.675 -3.6930001 -1.479 0.28
14.7 -3.6500001 -1.48 0.30000001
14.718 -3.605 -1.4809999 0.25999999
14.746 -3.563 -1.483 0.33000001
14.777 -3.546 -1.4859999 0.31999999
14.796 -3.5009999 -1.487 0.30000001
14.803 -3.454 -1.4859999 0.20999999
14.75 -3.3929999 -1.479 0.41999999
14.836 -3.3640001 -1.487 0.25999999
14.839 -3.3150001 -1.487 0.16
14.847 -3.2679999 -1.4859999 0.5
14.87 -3.2490001 -1.488 0.27000001
14.885 -3.2030001 -1.489 0.27000001
14.901 -3.158 -1.49 0.25999999
14.927 -3.1140001 -1.4910001 0.25999999
14.954 -3.0710001 -1.493 0.25999999
14.975 -3.026 -1.495 0.27000001
15.002 -2.9820001 -1.497 0.25999999
15.021 -2.9619999 -1.498 0.23999999
15.036 -2.915 -1.499 0.18000001
15.06 -2.8710001 -1.501 0.46000001
15.099 -2.829 -1.5039999 0.25
15.113 -2.783 -1.505 0.25
15.134 -2.7379999 -1.506 0.2
15.188 -2.6730001 -1.511 0.50999999
15.225 -2.631 -1.5140001 0.55000001
15.235 -2.5829999 -1.5140001 0.61000001
15.251 -2.5369999 -1.515 0.5
15.271 -2.4909999 -1.516 0.25
15.3 -2.4460001 -1.5190001 0.25
15.326 -2.401 -1.521 0.27000001
15.347 -2.3789999 -1.523 0.27000001
15.36 -2.332 -1.523 0.25999999
15.393 -2.2869999 -1.526 0.25999999
15.418 -2.2420001 -1.528 0.27000001
15.454 -2.197 -1.531 0.25
15.471 -2.1500001 -1.533 0.18000001
15.498 -2.1040001 -1.535 0.41999999
15.509 -2.0810001 -1.536 0.23
15.531 -2.0339999 -1.5369999 0.19
15.561 -1.988 -1.54 0.38999999
15.591 -1.942 -1.543 0.25
15.605 -1.8940001 -1.544 0.20999999
15.634 -1.848 -1.546 0.38
15.66 -1.801 -1.548 0.23
15.69 -1.78 -1.552 0.18000001
15.721 -1.733 -1.554 0.38999999
15.745 -1.686 -1.556 0.22
15.774 -1.638 -1.559 0.2
15.8 -1.591 -1.561 0.38
15.817 -1.543 -1.563 0.23999999
15.84 -1.495 -1.5650001 0.27000001
15.868 -1.472 -1.568 0.2
15.886 -1.423 -1.569 0.34
15.926 -1.376 -1.573 0.38999999
15.962 -1.329 -1.577 0.22
15.964 -1.279 -1.576 0.18000001
15.984 -1.23 -1.5779999 0.41
15.992 -1.1799999 -1.579 0.23999999
16 -1.155 -1.579 0.28
15.991 -1.104 -1.5779999 0.25999999
16.016001 -1.0549999 -1.58 0.25999999
16.004 -1.0039999 -1.579 0.25999999
16.013 -0.954 -1.579 0.25999999
16.069 -0.90700001 -1.585 0.27000001
16.253 -0.86500001 -1.605 0.25
16.448999 -0.85000002 -1.627 0.30000001
16.666 -0.80800003 -1.651 0.18000001
16.820999 -0.76200002 -1.668 0.33000001
16.882999 -0.71200001 -1.674 0.50999999
16.924999 -0.66000003 -1.679 0.25
16.938999 -0.60799998 -1.6799999 0.31999999
16.919001 -0.55400002 -1.678 0.30000001
16.941 -0.528 -1.6799999 0.27000001
16.937 -0.47400001 -1.679 0.28999999
16.938 -0.421 -1.679 0.27000001
16.934 -0.368 -1.679 0.28
16.941 -0.315 -1.679 0.27000001
16.945999 -0.26199999 -1.6799999 0.27000001
16.940001 -0.208 -1.679 0.18000001
16.947001 -0.182 -1.6799999 0.43000001
16.941 -0.12800001 -1.679 0.25
16.952 -0.075000003 -1.6799999 0.18000001
16.974001 -0.022 -1.683 0.38999999
16.066 0.0020000001 -1.681 0.22
16.058001 0.052000001 -1.6799999 0.38
16.068001 0.103 -1.681 0.19
16.073999 0.153 -1.682 0.36000001
16.065001 0.204 -1.681 0.18000001
16.073 0.229 -1.682 0.34999999
16.063999 0.27900001 -1.681 0.18000001
16.070999 0.33000001 -1.682 0.36000001
16.072001 0.38100001 -1.682 0.19
16.076 0.43099999 -1.683 0.38
16.091 0.48199999 -1.6849999 0.2
16.079 0.53200001 -1.684 0.23999999
16.086 0.583 -1.684 0.20999999
16.084999 0.60799998 -1.684 0.18000001
16.087 0.65899998 -1.6849999 0.38999999
16.1 0.70999998 -1.687 0.22
16.101999 0.76099998 -1.687 0.17
16.113001 0.81199998 -1.689 0.43000001
16.125 0.86400002 -1.6900001 0.25
16.145 0.88999999 -1.693 0.27000001
16.164 0.94199997 -1.696 0.20999999
16.150999 0.99199998 -1.694 0.38999999
16.17 1.044 -1.697 0.25
16.176001 1.096 -1.698 0.25999999
16.188999 1.148 -1.7 0.2
16.202999 1.2 -1.702 0.41
16.215 1.226 -1.704 0.25
16.237 1.279 -1.707 0.2
16.247999 1.332 -1.709 0.40000001
16.25 1.383 -1.709 0.23
16.281 1.437 -1.714 0.2
16.296 1.49 -1.716 0.37
16.306999 1.543 -1.7180001 0.22
16.33 1.597 -1.721 0.23
16.347 1.624 -1.723 0.20999999
16.348 1.676 -1.724 0.23
16.363001 1.73 -1.726 0.2
16.379 1.783 -1.729 0.20999999
16.385 1.836 -1.73 0.19
16.399 1.89 -1.733 0.20999999
16.407 1.943 -1.734 0.19
16.409 1.97 -1.735 0
16.434999 2.0250001 -1.739 0.12
16.450001 2.079 -1.7410001 0.30000001
16.447001 2.131 -1.742 0.19
16.459999 2.1860001 -1.744 0.36000001
16.457001 2.2379999 -1.744 0.2
16.462 2.2909999 -1.7460001 0.38
16.462 2.3180001 -1.7460001 0.23
16.461 2.3699999 -1.747 0.19
16.473 2.425 -1.749 0.38999999
16.481001 2.4790001 -1.751 0.23
16.476999 2.5309999 -1.752 0.19
16.497999 2.5869999 -1.755 0.41
16.504 2.641 -1.757 0.23999999
16.502001 2.668 -1.757 0.19
16.509001 2.7219999 -1.7589999 0.40000001
16.507999 2.7750001 -1.76 0.23
16.503 2.8280001 -1.76 0.19
16.52 2.8840001 -1.763 0.40000001
16.518 2.937 -1.7640001 0.23999999
16.507 2.9890001 -1.7640001 0.19
16.525999 3.0190001 -1.767 0.38999999
16.525999 3.073 -1.768 0.23
16.52 3.125 -1.768 0.18000001
16.542 3.1830001 -1.772 0.38999999
16.528 3.234 -1.772 0.22
16.528999 3.289 -1.773 0.18000001
16.542 3.345 -1.776 0.41
16.542999 3.372 -1.777 0.25
16.544001 3.427 -1.778 0.25999999
16.549999 3.4820001 -1.78 0.25
16.555 3.5380001 -1.7819999 0.17
16.569 3.595 -1.785 0.41999999
16.577 3.651 -1.7869999 0.25
16.583 3.707 -1.789 0.25
16.601999 3.7390001 -1.7920001 0.25999999
16.622999 3.7980001 -1.796 0.25999999
16.629999 3.855 -1.799 0.23
16.618 3.9070001 -1.799 0.18000001
16.645 3.9690001 -1.803 0.43000001
16.646 4.0240002 -1.8049999 0.25
16.658001 4.0830002 -1.808 0.25
16.657 4.138 -1.809 0.2
16.681 4.1719999 -1.813 0.41999999
16.683001 4.2280002 -1.8150001 0.25
16.684999 4.2839999 -1.817 0.2
16.705999 4.3460002 -1.821 0.41
16.718 4.4050002 -1.824 0.23999999
16.721001 4.4619999 -1.826 0.18000001
16.733 4.493 -1.8279999 0.41
16.747999 4.553 -1.832 0.23
16.754 4.612 -1.834 0.19
16.77 4.6729999 -1.8380001 0.38999999
16.767 4.7290001 -1.84 0.23
16.771 4.7870002 -1.842 0.18000001
16.785 4.848 -1.845 0.41
16.781 4.875 -1.846 0.25
16.790001 4.9349999 -1.849 0.27000001
16.788 4.9920001 -1.85 0.25999999
16.795 5.0510001 -1.853 0.27000001
16.808001 5.1129999 -1.857 0.28
16.780001 5.1620002 -1.855 0.22
16.76 5.2129998 -1.855 0.14
16.693001 5.2210002 -1.848 0.44999999
16.555 5.2360001 -1.8329999 0.37
16.313999 5.2160001 -1.8049999 0.36000001
16.17 5.2259998 -1.79 0.25
16.16 5.2789998 -1.79 0.2
16.15 5.3319998 -1.791 0.27000001
16.091999 5.369 -1.786 0.2
16.080999 5.4219999 -1.7869999 0.31
16.065001 5.4439998 -1.786 0.2
16.052999 5.4970002 -1.7869999 0.18000001
16.034 5.5469999 -1.786 0.31
16.011 5.5949998 -1.786 0.22
16.01 5.651 -1.788 0.20999999
15.985 5.6989999 -1.7869999 0.18000001
15.967 5.7490001 -1.7869999 0.23999999
15.954 5.7729998 -1.786 0.19
15.947 5.8270001 -1.788 0.22
15.921 5.8740001 -1.7869999 0.20999999
15.908 5.9260001 -1.7869999 0.22
15.888 5.9749999 -1.7869999 0.2
15.88 6.0300002 -1.789 0.20999999
15.861 6.079 -1.789 0.19
15.862 6.1090002 -1.79 0.23
15.784 6.1350002 -1.783 0.22
15.752 6.1799998 -1.781 0.30000001
15.806 6.2589998 -1.79 0.18000001
15.714 6.2800002 -1.781 0.22
15.615 6.2969999 -1.771 0.28
15.688 6.355 -1.7819999 0.27000001
15.596 6.375 -1.773 0.55000001
15.732 6.4879999 -1.7920001 0.23
15.859 6.598 -1.811 0
15.952 6.6960001 -1.825 0.07
15.854 6.7129998 -1.816 0.18000001
15.772 6.737 -1.808 0.30000001
15.68 6.756 -1.799 0.19
15.644 6.77 -1.796 0.20999999
15.524 6.776 -1.783 0.36000001
15.559 6.8499999 -1.79 0.41
15.53 6.895 -1.789 0.18000001
15.463 6.9239998 -1.783 0.27000001
15.419 6.9629998 -1.781 0.38999999
15.461 7.04 -1.789 0.20999999
15.453 7.066 -1.789 0.23999999
15.442 7.119 -1.791 0.2
15.421 7.1690001 -1.791 0.30000001
15.39 7.2129998 -1.79 0.20999999
15.363 7.2589998 -1.789 0.18000001
15.355 7.3140001 -1.791 0.30000001
15.317 7.3559999 -1.789 0.23
15.315 7.3839998 -1.79 0.27000001
15.291 7.4320002 -1.79 0.18000001
15.277 7.4850001 -1.7920001 0.17
15.241 7.526 -1.79 0.13
15.222 7.5770001 -1.791 0.16
15.209 7.6300001 -1.7920001 0.13
15.194 7.6820002 -1.793 0.43000001
15.18 7.7049999 -1.793 0.17
15.172 7.7610002 -1.795 0.36000001
15.167 7.8189998 -1.798 0.18000001
15.144 7.8670001 -1.798 0.14
15.169 7.9400001 -1.804 0
15.168 8.0010004 -1.808 0
15.088 8.0200005 -1.8 0
15.093 8.0530005 -1.803 0.13
15.056 8.0939999 -1.801 0.18000001
14.988 8.118 -1.796 0.28999999
14.956 8.1610003 -1.795 0.2
14.913 8.1990004 -1.7920001 0.28999999
14.871 8.2370005 -1.79 0.20999999
14.776 8.2449999 -1.781 0.28
14.726 8.2480001 -1.776 0.30000001
14.726 8.309 -1.78 0.47999999
14.745 8.3800001 -1.786 0.34
14.748 8.4429998 -1.79 0.16
14.692 8.4729996 -1.786 0.38
14.686 8.5310001 -1.788 0.23
14.658 8.5760002 -1.788 0.34
14.642 8.5979996 -1.788 0.20999999
14.608 8.6400003 -1.7869999 0.31999999
14.583 8.6870003 -1.7869999 0.16
14.544 8.7250004 -1.786 0.25999999
14.511 8.7679996 -1.785 0.19
14.49 8.8179998 -1.786 0.20999999
14.456 8.8590002 -1.785 0.18000001
14.426 8.8719997 -1.783 0.31999999
14.404 8.9209995 -1.783 0.16
14.372 8.9639997 -1.783 0.37
14.346 9.0100002 -1.783 0.2
14.31 9.0509996 -1.7819999 0.18000001
14.292 9.1020002 -1.784 0.20999999
14.25 9.1379995 -1.7819999 0.18000001
14.237 9.1619997 -1.7819999 0.17
14.225 9.217 -1.784 0.41999999
14.223 9.2790003 -1.788 0.2
14.197 9.3260002 -1.789 0.31
14.202 9.3940001 -1.793 0
14.189 9.4490004 -1.796 0.11
14.226 9.5380001 -1.8049999 0.18000001
14.128 9.5050001 -1.793 0.14
14.08 9.5369997 -1.791 0.17
14.052 9.5819998 -1.791 0.22
14.005 9.6149998 -1.789 0.18000001
13.965 9.6520004 -1.7869999 0.30000001
13.941 9.7010002 -1.788 0.20999999
13.896 9.7340002 -1.786 0.31
13.874 9.7519999 -1.785 0.2
13.843 9.7950001 -1.785 0.33000001
13.804 9.8330002 -1.784 0.18000001
13.773 9.8760004 -1.784 0.36000001
13.736 9.915 -1.783 0.23
13.7 9.9540005 -1.783 0.2
13.68 10.005 -1.784 0.37
13.674 10.034 -1.786 0.20999999
13.636 10.072 -1.785 0.23
13.61 10.12 -1.786 0.17
13.571 10.156 -1.784 0.34
13.54 10.2 -1.785 0.16
13.495 10.233 -1.783 0.34999999
13.469 10.28 -1.784 0.23
13.453 10.301 -1.784 0.17
13.437 10.356 -1.786 0.41
13.407 10.4 -1.7869999 0.2
13.384 10.45 -1.788 0.34
13.349 10.49 -1.788 0.16
13.302 10.521 -1.786 0.30000001
13.279 10.57 -1.7869999 0.19
13.274 10.601 -1.789 0.20999999
13.238 10.64 -1.788 0.19
13.231 10.703 -1.7920001 0
13.214 10.758 -1.795 0
13.175 10.796 -1.794 0.029999999
13.138 10.835 -1.794 0.13
13.077 10.853 -1.79 0.16
13.021 10.877 -1.786 0.2
12.998 10.892 -1.785 0.23
12.953 10.924 -1.784 0.2
12.902 10.95 -1.781 0.17
12.869 10.992 -1.781 0.28
12.821 11.021 -1.779 0.2
12.773 11.049 -1.777 0.23
12.726 11.079 -1.775 0.20999999
12.701 11.092 -1.774 0.17
12.657 11.124 -1.773 0.41999999
12.615 11.158 -1.772 0.18000001
12.575 11.193 -1.771 0.36000001
12.516 11.211 -1.767 0.20999999
12.475 11.245 -1.766 0.18000001
12.438 11.283 -1.766 0.38999999
12.401 11.285 -1.763 0.23
12.364 11.323 -1.763 0.20999999
12.324 11.358 -1.762 0.38
12.278 11.387 -1.76 0.22
12.228 11.412 -1.758 0.30000001
12.141 11.403 -1.75 0.28999999
12.052 11.39 -1.7410001 0.30000001
11.989 11.367 -1.734 0.28999999
11.893 11.347 -1.724 0.28
11.796 11.325 -1.714 0.27000001
11.721 11.325 -1.7079999 0.34
11.63 11.308 -1.699 0.30000001
11.548 11.299 -1.691 0.34
11.465 11.289 -1.684 0.28999999
11.402 11.262 -1.676 0.31999999
11.313 11.245 -1.6670001 0.30000001
11.234 11.237 -1.66 0.28
11.162 11.236 -1.654 0.38
11.105 11.248 -1.65 0.34
11.04 11.253 -1.646 0.25
10.998 11.281 -1.6440001 0.25
10.951 11.268 -1.64 0.31999999
10.888 11.274 -1.635 0.36000001
10.818 11.272 -1.6289999 0.38999999
10.773 11.296 -1.627 0.36000001
10.704 11.296 -1.622 0.41
10.626 11.284 -1.615 0.36000001
10.573 11.299 -1.612 0.33000001
10.526 11.284 -1.607 0.41
10.459 11.283 -1.601 0.37
10.36 11.247 -1.59 0.36000001
10.291 11.243 -1.584 0.34999999
10.27 11.292 -1.587 0.44
10.196 11.281 -1.58 0.36000001
10.19 11.346 -1.585 0.37
10.179 11.369 -1.587 0.31999999
10.114 11.368 -1.581 0.36000001
10.081 11.403 -1.582 0.44999999
10.003 11.387 -1.574 0.33000001
9.9239998 11.369 -1.567 0.34999999
9.9219999 11.439 -1.573 0.31999999
9.8760004 11.458 -1.571 0.41
9.8070002 11.415 -1.562 0.38999999
9.8000002 11.479 -1.567 0.43000001
9.7030001 11.439 -1.556 0.31999999
9.7139997 11.525 -1.5650001 0.38
9.7270002 11.613 -1.574 0.41999999
9.7030001 11.659 -1.576 0.33000001
9.5270004 11.521 -1.55 0.38
9.4720001 11.528 -1.5470001 0.38999999
9.585 11.703 -1.571 0.37
9.5340004 11.716 -1.568 0.36000001
9.4870005 11.733 -1.567 0.30000001
9.4180002 11.723 -1.561 0.40000001
9.3950005 11.77 -1.563 0.27000001
9.3500004 11.79 -1.562 0.47999999
9.2919998 11.793 -1.558 0.34999999
9.2399998 11.765 -1.551 0.41999999
9.1859999 11.772 -1.548 0.34999999
9.1470003 11.798 -1.548 0.38
9.1230001 11.844 -1.55 0.43000001
9.1339998 11.935 -1.5599999 0.38
9.1479998 12.032 -1.5700001 0.38
8.9370003 11.831 -1.536 0.25999999
8.9540005 11.893 -1.543 0.44999999
8.9329996 11.943 -1.546 0.34999999
8.8579998 11.92 -1.539 0.34
8.9289999 12.095 -1.5599999 0.25
8.8660002 12.089 -1.5549999 0.41999999
8.8889999 12.2 -1.567 0.41
8.6569996 11.961 -1.529 0.23
8.7939997 12.19 -1.5599999 0.36000001
8.7510004 12.211 -1.559 0.38999999
8.7259998 12.257 -1.561 0.33000001
8.6719999 12.263 -1.558 0.40000001
8.6520004 12.316 -1.562 0.36000001
8.5249996 12.218 -1.544 0.38999999
8.4860001 12.243 -1.544 0.41
8.2659998 11.967 -1.503 0.31
8.3760004 12.208 -1.533 0.31
8.3459997 12.245 -1.535 0.47999999
8.1809998 12.086 -1.5089999 0.30000001
8.1440001 12.113 -1.5089999 0.28999999
8.2399998 12.338 -1.5369999 0.40000001
8.0839996 12.189 -1.512 0.31999999
8.1409998 12.316 -1.528 0.31
8.1429996 12.403 -1.5369999 0.37
8.0340004 12.322 -1.522 0.37
7.9499998 12.277 -1.512 0.38
7.9250002 12.324 -1.515 0.41
7.8060002 12.223 -1.498 0.25
7.7789998 12.266 -1.501 0.41999999
7.744 12.295 -1.501 0.34999999
7.7210002 12.303 -1.501 0.40000001
7.6869998 12.333 -1.501 0.38
7.6360002 12.337 -1.499 0.30000001
7.559 12.3 -1.49 0.27000001
7.5960002 12.448 -1.507 0.5
7.5289998 12.426 -1.501 0.25
7.4720001 12.419 -1.497 0.33000001
7.4689999 12.458 -1.501 0.33000001
7.4330001 12.488 -1.501 0.38999999
7.427 12.566 -1.5089999 0.28999999
7.2399998 12.339 -1.475 0.44999999
7.1789999 12.324 -1.47 0.30000001
7.1919999 12.436 -1.482 0.34
7.1389999 12.434 -1.479 0.30000001
7.0890002 12.392 -1.471 0.41
7.1900001 12.659 -1.5039999 0.38999999
7.1459999 12.675 -1.5039999 0.36000001
7.0190001 12.542 -1.483 0.28999999
7.072 12.73 -1.505 0.40000001
6.9429998 12.591 -1.483 0.27000001
6.8899999 12.59 -1.48 0.5
6.9159999 12.682 -1.4910001 0.30000001
6.724 12.425 -1.454 0.31999999
6.8140001 12.685 -1.4859999 0.23999999
6.6989999 12.567 -1.467 0.15000001
6.7350001 12.73 -1.4859999 0.19
6.5289998 12.436 -1.4450001 0.12
6.5500002 12.571 -1.46 0.16
6.6630001 12.886 -1.498 0.47
7.7529998 15.042 -1.781 0.23999999
7.7129998 15.08 -1.783 0.2
6.4840002 12.784 -1.478 0.18000001
6.382 12.684 -1.462 0.27000001
7.5780001 15.167 -1.785 0.23
7.54 15.21 -1.7869999 0.17
7.4889998 15.228 -1.7869999 0.23999999
7.4720001 15.254 -1.789 0.15000001
7.4239998 15.276 -1.788 0.23
7.3759999 15.299 -1.788 0.20999999
7.335 15.338 -1.79 0.20999999
7.2919998 15.372 -1.7920001 0.2
7.2399998 15.388 -1.791 0.23
7.1939998 15.416 -1.7920001 0.2
7.1739998 15.436 -1.793 0.20999999
7.1259999 15.458 -1.793 0.17
7.0819998 15.492 -1.794 0.31999999
7.0349998 15.517 -1.795 0.2
6.9860001 15.539 -1.795 0.19
6.9429998 15.574 -1.796 0.30000001
6.8959999 15.599 -1.7970001 0.25
6.8720002 15.612 -1.7970001 0.25999999
6.822 15.63 -1.7970001 0.2
6.7709999 15.648 -1.796 0.18000001
6.7259998 15.678 -1.7970001 0.28
6.6799998 15.708 -1.798 0.27000001
6.6360002 15.742 -1.8 0.27000001
6.5879998 15.766 -1.8 0.2
5.2839999 12.714 -1.4119999 0.16
5.2449999 12.732 -1.4119999 0.22
6.467 15.825 -1.801 0.11
6.4180002 15.845 -1.801 0.17
6.369 15.869 -1.802 0.28999999
6.3169999 15.883 -1.801 0.11
6.2649999 15.897 -1.8 0.17
6.2179999 15.924 -1.801 0.12
6.1960001 15.942 -1.802 0.17
6.1409998 15.948 -1.801 0.12
6.092 15.971 -1.801 0.17
6.0479999 16.007 -1.803 0.28999999
6 16.031 -1.804 0.2
5.9559999 16.066999 -1.806 0.20999999
5.9299998 16.076 -1.806 0.23
5.8769999 16.087 -1.8049999 0.28999999
5.823 16.094 -1.804 0.31999999
5.7729998 16.114 -1.804 0.31
5.7179999 16.121 -1.803 0.23999999
5.6739998 16.158001 -1.8049999 0.28
5.6269999 16.187 -1.806 0.20999999
5.5840001 16.226999 -1.809 0.22
5.5630002 16.249001 -1.811 0.2
5.5159998 16.278 -1.812 0.22
5.467 16.299999 -1.813 0.2
5.4219999 16.337999 -1.8150001 0.20999999
5.3720002 16.358999 -1.816 0.18000001
5.322 16.379999 -1.816 0.31999999
5.27 16.396 -1.816 0.17
5.2459998 16.408001 -1.817 0.34999999
5.1989999 16.440001 -1.819 0.2
5.1469998 16.454 -1.818 0.34
5.0960002 16.474001 -1.819 0.19
5.04 16.475 -1.817 0.31999999
4.993 16.507999 -1.819 0.2
4.9400001 16.518999 -1.819 0.34
4.921 16.548 -1.821 0.2
4.8660002 16.554001 -1.8200001 0.34
4.8179998 16.582001 -1.822 0.18000001
4.7649999 16.598 -1.822 0.36000001
4.7129998 16.612 -1.822 0.19
4.6609998 16.627001 -1.822 0.37
4.6110001 16.650999 -1.823 0.2
4.5830002 16.649 -1.822 0.34
4.5339999 16.674999 -1.823 0.2
4.48 16.684999 -1.823 0.36000001
4.427 16.697001 -1.822 0.19
4.3769999 16.719 -1.823 0.38
4.3239999 16.732 -1.823 0.22
4.2690001 16.736 -1.822 0.19
4.2189999 16.759001 -1.823 0.38999999
4.191 16.757999 -1.822 0.22
4.1430001 16.790001 -1.825 0.19
4.0910001 16.809 -1.825 0.38999999
4.0380001 16.82 -1.825 0.23
3.987 16.84 -1.826 0.19
3.9330001 16.849001 -1.826 0.40000001
3.882 16.867001 -1.826 0.23999999
3.8559999 16.877001 -1.827 0.19
3.8039999 16.893 -1.827 0.38999999
3.7509999 16.905001 -1.827 0.23
3.698 16.917999 -1.827 0.18000001
3.6489999 16.947001 -1.83 0.38999999
3.5940001 16.952999 -1.829 0.23
3.5409999 16.964001 -1.829 0.19
3.517 16.981001 -1.83 0.38999999
3.4660001 17.006001 -1.832 0.23999999
3.4130001 17.017 -1.832 0.18000001
3.3599999 17.033001 -1.8329999 0.38999999
3.3080001 17.048 -1.8329999 0.23
3.257 17.072001 -1.835 0.19
3.2019999 17.073999 -1.834 0.38999999
3.175 17.083 -1.834 0.23
3.1210001 17.087 -1.8329999 0.18000001
3.0710001 17.118 -1.836 0.38999999
3.017 17.128 -1.836 0.23
2.964 17.141001 -1.836 0.19
2.9119999 17.16 -1.8380001 0.41
2.858 17.167 -1.837 0.23
2.8299999 17.17 -1.837 0.18000001
2.78 17.202 -1.84 0.40000001
2.7249999 17.207001 -1.84 0.22
2.6719999 17.216999 -1.84 0.19
2.6199999 17.239 -1.841 0.38999999
2.5650001 17.247 -1.841 0.23
2.5109999 17.253 -1.841 0.18000001
2.46 17.285 -1.844 0.38999999
2.434 17.296 -1.845 0.19
2.3800001 17.308001 -1.845 0.37
2.325 17.309 -1.845 0.23
2.273 17.334 -1.847 0.2
2.2179999 17.334999 -1.846 0.36000001
2.1630001 17.337999 -1.846 0.23
2.1099999 17.355 -1.847 0.2
2.0829999 17.364 -1.847 0.37
2.03 17.379999 -1.849 0.2
1.977 17.400999 -1.85 0.37
1.921 17.399 -1.849 0.22
1.8660001 17.405001 -1.849 0.2
1.813 17.422001 -1.851 0.37
1.758 17.426001 -1.85 0.23
1.732 17.445 -1.852 0.2
1.677 17.448 -1.852 0.38
1.623 17.457001 -1.853 0.19
1.568 17.466 -1.853 0.36000001
1.5140001 17.476999 -1.854 0.19
1.459 17.483 -1.854 0.36000001
1.404 17.49 -1.854 0.19
1.35 17.504 -1.855 0.37
1.323 17.511999 -1.8559999 0.19
1.2690001 17.524 -1.857 0.37
1.2130001 17.516001 -1.8559999 0.19
1.158 17.528 -1.8559999 0.38
1.104 17.545 -1.858 0.20999999
1.049 17.552999 -1.859 0.23999999
0.99299997 17.542 -1.857 0.20999999
0.96600002 17.540001 -1.8559999 0.18000001
0.912 17.566 -1.859 0.38999999
0.85699999 17.569 -1.859 0.18000001
0.80199999 17.577999 -1.86 0.37
0.74699998 17.582001 -1.86 0.19
0.69199997 17.596001 -1.862 0.38
0.63700002 17.608 -1.863 0.19
0.60900003 17.611 -1.863 0.38
0.55400002 17.607 -1.862 0.22
0.498 17.608999 -1.862 0.18000001
0.44400001 17.628 -1.864 0.38999999
0.38800001 17.627001 -1.864 0.23
0.333 17.629 -1.864 0.19
0.278 17.649 -1.8660001 0.40000001
0.25 17.634001 -1.865 0.23
0.19499999 17.648001 -1.8660001 0.19
0.139 17.667 -1.868 0.38999999
0.083999999 17.665001 -1.868 0.23
0.028000001 17.674999 -1.869 0.2
-0.027000001 17.677 -1.87 0.38
-0.082999997 17.687 -1.8710001 0.23
-0.111 17.679001 -1.87 0.18000001
-0.16599999 17.695999 -1.872 0.40000001
-0.222 17.690001 -1.8710001 0.23999999
-0.27700001 17.687 -1.8710001 0.19
-0.333 17.686001 -1.8710001 0.40000001
-0.38800001 17.679001 -1.87 0.25
-0.44400001 17.688 -1.8710001 0.2
-0.5 17.700001 -1.873 0.41
-0.528 17.707001 -1.874 0.23999999
-0.58399999 17.702999 -1.874 0.19
-0.63999999 17.716999 -1.876 0.41
-0.69499999 17.716999 -1.876 0.23999999
-0.75199997 17.725 -1.877 0.23
-0.80699998 17.712999 -1.876 0.18000001
-0.86299998 17.726 -1.878 0.44
-0.89099997 17.728001 -1.878 0.25
-0.94800001 17.737 -1.88 0.25
-1.003 17.733999 -1.88 0.25
-1.0599999 17.747 -1.881 0.27000001
-1.117 17.767 -1.8839999 0.28
-1.174 17.782 -1.886 0.25
-1.23 17.774 -1.886 0.31
-1.258 17.784 -1.887 0.28
-1.316 17.809999 -1.891 0.25999999
-1.375 17.841 -1.895 0.27000001
-1.432 17.85 -1.896 0.30000001
-1.489 17.854 -1.897 0.30000001
-1.545 17.853001 -1.898 0.28999999
-1.602 17.85 -1.898 0.28
-1.6289999 17.841 -1.897 0.33000001
-1.686 17.844 -1.898 0.31999999
-1.742 17.843 -1.899 0.34999999
-1.7970001 17.820999 -1.897 0.31999999
-1.855 17.834999 -1.899 0.30000001
-1.909 17.816 -1.898 0.28999999
-1.9630001 17.788 -1.895 0.31999999
-1.989 17.768999 -1.893 0.36000001
-2.0450001 17.764999 -1.893 0.36000001
-2.099 17.742001 -1.892 0.34999999
-2.1500001 17.695999 -1.887 0.31999999
-2.2060001 17.695 -1.888 0.36000001
-2.26 17.676001 -1.886 0.38
-2.325 17.738001 -1.8940001 0.41
-2.3559999 17.76 -1.897 0.31
-2.4119999 17.757 -1.898 0.34
-2.467 17.739 -1.897 0.25999999
-2.5209999 17.719 -1.895 0.31999999
-2.576 17.705 -1.895 0.40000001
-2.632 17.701 -1.895 0.30000001
-2.688 17.693001 -1.895 0.30000001
-2.7420001 17.677 -1.8940001 0.38999999
-2.7690001 17.67 -1.8940001 0.33000001
-2.8199999 17.628 -1.89 0.41
-2.878 17.641001 -1.893 0.31999999
-2.934 17.634001 -1.893 0.31999999
-2.99 17.628 -1.893 0.40000001
-3.0510001 17.65 -1.897 0.30000001
-3.108 17.648001 -1.898 0.28999999
-3.132 17.625999 -1.896 0.38999999
-3.187 17.612 -1.895 0.34
-3.243 17.606001 -1.896 0.38999999
-3.2980001 17.591 -1.895 0.38999999
-3.3570001 17.601999 -1.898 0.36000001
-3.4159999 17.611 -1.9 0.34999999
-3.47 17.594999 -1.9 0.34
-3.4990001 17.597 -1.9 0.34
-3.5550001 17.587999 -1.901 0.28999999
-3.6110001 17.579 -1.901 0.34
-3.6670001 17.573 -1.902 0.33000001
-3.724 17.569 -1.903 0.25
-3.7780001 17.551001 -1.902 0.40000001
-3.836 17.552999 -1.903 0.31
-3.8900001 17.537001 -1.903 0.31999999
-3.9189999 17.535 -1.903 0.30000001
-3.974 17.521999 -1.903 0.30000001
-4.033 17.531 -1.906 0.33000001
-4.0879998 17.517 -1.906 0.28999999
-4.1420002 17.5 -1.905 0.27000001
-4.1939998 17.473 -1.904 0.27000001
-4.2509999 17.468 -1.905 0.23
-4.263 17.399 -1.897 0.44
-4.323 17.407 -1.9 0.46000001
-4.3899999 17.441 -1.906 0.23
-4.441 17.416 -1.904 0.31999999
-4.5 17.415001 -1.906 0.28999999
-4.5489998 17.379999 -1.903 0.37
-4.5999999 17.351999 -1.902 0.41999999
-4.6360002 17.378 -1.906 0.31999999
-4.7030001 17.409 -1.911 0.38999999
-4.7579999 17.398001 -1.9119999 0.30000001
-4.8150001 17.391001 -1.913 0.30000001
-4.8709998 17.379 -1.913 0.31999999
-4.928 17.371 -1.914 0.31
-4.9819999 17.356001 -1.914 0.30000001
-5.0100002 17.351999 -1.914 0.30000001
-5.0689998 17.351 -1.916 0.30000001
-5.1240001 17.337 -1.916 0.31
-5.1820002 17.332001 -1.918 0.33000001
-5.2389998 17.323999 -1.919 0.33000001
-5.2950001 17.313 -1.92 0.31999999
-5.3520002 17.304001 -1.92 0.33000001
-5.381 17.301001 -1.921 0.28999999
-5.4400001 17.301001 -1.923 0.34
-5.4949999 17.285999 -1.923 0.28999999
-5.5510001 17.271999 -1.924 0.31
-5.6079998 17.264 -1.925 0.31
-5.665 17.256001 -1.926 0.34999999
-5.723 17.249001 -1.928 0.31
-5.7779999 17.233 -1.928 0.31
-5.8049998 17.222 -1.928 0.30000001
-5.8639998 17.221001 -1.9299999 0.31999999
-5.9169998 17.197001 -1.929 0.31
-5.9720001 17.183001 -1.9299999 0.28999999
-6.0240002 17.157 -1.929 0.30000001
-6.0749998 17.131001 -1.928 0.28999999
-6.1269999 17.108 -1.927 0.28
-6.158 17.108999 -1.929 0.28
-6.2069998 17.077 -1.927 0.25999999
-6.2550001 17.040001 -1.925 0.25
-6.296 16.987 -1.921 0.19
-6.3509998 16.973 -1.9220001 0.38999999
-6.4000001 16.940001 -1.92 0.23
-6.4489999 16.908001 -1.919 0.20999999
-6.4759998 16.9 -1.919 0.36000001
-6.5250001 16.870001 -1.918 0.19
-6.5760002 16.841999 -1.9170001 0.37
-6.6300001 16.825001 -1.9170001 0.20999999
-6.678 16.792 -1.916 0.23
-6.7270002 16.763 -1.915 0.20999999
-6.783 16.749001 -1.916 0.23
-6.836 16.728001 -1.916 0.2
-6.8660002 16.728001 -1.9170001 0.23
-6.9169998 16.701 -1.916 0.20999999
-6.9749999 16.694 -1.918 0.2
-7.0250001 16.666 -1.9170001 0.36000001
-7.0770001 16.642 -1.9170001 0.19
-7.1269999 16.615 -1.916 0.36000001
-7.171 16.573999 -1.914 0.19
-7.1989999 16.566 -1.915 0.36000001
-7.2519999 16.547001 -1.915 0.2
-7.2950001 16.503 -1.9119999 0.23
-7.3379998 16.461 -1.91 0.2
-7.3889999 16.436001 -1.91 0.20999999
-7.4320002 16.393 -1.9069999 0.2
-7.48 16.363001 -1.906 0.22
-7.527 16.33 -1.905 0.19
-7.559 16.333 -1.9069999 0.20999999
-7.6069999 16.299999 -1.906 0.2
-7.6599998 16.281 -1.906 0.20999999
-7.7090001 16.252001 -1.906 0.19
-7.7639999 16.236 -1.9069999 0.20999999
-7.8119998 16.205999 -1.906 0.2
-7.8699999 16.195999 -1.908 0.22
-7.8930001 16.177999 -1.9069999 0.2
-7.9460001 16.157 -1.908 0.22
-7.9970002 16.134001 -1.908 0.19
-8.0509996 16.115999 -1.909 0.22
-8.0970001 16.08 -1.908 0.2
-8.1520004 16.065001 -1.909 0.22
-8.2060003 16.044001 -1.91 0.19
-8.2340002 16.039 -1.911 0.20999999
-8.2849998 16.013 -1.911 0.19
-8.3439999 16.004 -1.913 0.22
-8.4020004 15.992 -1.915 0.18000001
-8.4519997 15.965 -1.915 0.34
-8.5059996 15.946 -1.916 0.2
-8.559 15.924 -1.916 0.31999999
-8.6049995 15.951 -1.9220001 0.16
-8.658 15.929 -1.923 0.38
-8.7069998 15.9 -1.9220001 0.19
-8.7530003 15.866 -1.921 0.37
-8.7969999 15.828 -1.92 0.2
-8.849 15.804 -1.92 0.37
-8.8999996 15.777 -1.921 0.2
-8.9449997 15.742 -1.92 0.37
-8.9610004 15.713 -1.918 0.19
-9.0080004 15.681 -1.9170001 0.36000001
-9.0559998 15.649 -1.9170001 0.20999999
-9.1040001 15.619 -1.916 0.25
-9.1409998 15.57 -1.914 0.20999999
-9.1940002 15.548 -1.915 0.2
-9.2399998 15.516 -1.914 0.38
-9.257 15.487 -1.9119999 0.22
-9.3030005 15.455 -1.9119999 0.18000001
-9.3579998 15.436 -1.913 0.38999999
-9.3979998 15.393 -1.911 0.19
-9.4469995 15.365 -1.9119999 0.38
-9.4940004 15.332 -1.911 0.22
-9.5319996 15.286 -1.909 0.18000001
-9.5600004 15.278 -1.91 0.38999999
-9.6009998 15.236 -1.908 0.23
-9.6470003 15.203 -1.908 0.18000001
-9.6969995 15.176 -1.908 0.38999999
-9.7360001 15.132 -1.906 0.22
-9.7790003 15.094 -1.906 0.2
-9.8210001 15.055 -1.904 0.36000001
-9.8339996 15.023 -1.902 0.23
-9.8830004 14.996 -1.903 0.19
-9.9280005 14.961 -1.902 0.40000001
-9.9639997 14.913 -1.9 0.22
-10.006 14.875 -1.899 0.19
-10.049 14.839 -1.898 0.40000001
-10.095 14.806 -1.898 0.25
-10.137 14.767 -1.897 0.2
-10.166 14.76 -1.898 0.38
-10.211 14.726 -1.898 0.23
-10.255 14.691 -1.897 0.2
-10.303 14.662 -1.898 0.38
-10.342 14.619 -1.896 0.22
-10.393 14.593 -1.897 0.2
-10.434 14.554 -1.896 0.38
-10.454 14.534 -1.896 0.23
-10.495 14.495 -1.895 0.18000001
-10.544 14.467 -1.896 0.38999999
-10.586 14.429 -1.895 0.2
-10.632 14.395 -1.895 0.36000001
-10.678 14.364 -1.895 0.2
-10.721 14.327 -1.895 0.37
-10.742 14.308 -1.895 0.2
-10.79 14.279 -1.895 0.36000001
-10.832 14.241 -1.895 0.19
-10.872 14.2 -1.8940001 0.34999999
-10.918 14.169 -1.8940001 0.19
-10.965 14.138 -1.895 0.36000001
-11.005 14.097 -1.8940001 0.18000001
-11.027 14.08 -1.8940001 0.36000001
-11.063 14.034 -1.892 0.2
-11.102 13.993 -1.891 0.34
-11.148 13.961 -1.892 0.19
-11.177 13.908 -1.8890001 0.33000001
-11.226 13.879 -1.89 0.2
-11.253 13.823 -1.887 0.31
-11.273 13.804 -1.886 0.18000001
-11.312 13.762 -1.886 0.17
-11.343 13.713 -1.883 0.2
-11.386 13.677 -1.883 0.20999999
-11.422 13.632 -1.882 0.17
-11.454 13.584 -1.88 0.31999999
-11.476 13.524 -1.876 0.16
-11.506 13.473 -1.874 0.34999999
-11.515 13.441 -1.872 0.23999999
-11.552 13.399 -1.8710001 0.27000001
-11.598 13.367 -1.872 0.28999999
-11.64 13.33 -1.872 0.23
-11.687 13.3 -1.873 0.28
-11.724 13.257 -1.872 0.18000001
-11.761 13.215 -1.8710001 0.12
-9.1160002 10.201 -1.402 0.31
-11.822 13.158 -1.8710001 0.23
-11.857 13.114 -1.87 0.25999999
-11.893 13.071 -1.869 0.11
-11.935 13.035 -1.869 0.14
-11.973 12.994 -1.869 0.17
-12.011 12.954 -1.868 0.090000004
-12.044 12.907 -1.867 0.079999998
-12.065 12.89 -1.867 0.14
-12.096 12.842 -1.865 0.16
-12.137 12.803 -1.865 0.18000001
-12.18 12.768 -1.8660001 0.16
-12.22 12.73 -1.8660001 0.20999999
-12.246 12.677 -1.863 0.11
-12.288 12.641 -1.864 0.12
-9.5459995 9.7189999 -1.395 0.38999999
-9.9680004 10.087 -1.46 0.14
-9.6850004 9.7379999 -1.408 0.14
-10.118 10.112 -1.475 0.16
-12.482 12.405 -1.86 0.28999999
-12.506 12.35 -1.858 0.17
-12.519 12.325 -1.857 0.14
-12.56 12.287 -1.857 0.14
-12.592 12.242 -1.8559999 0.31
-12.626 12.198 -1.855 0.25999999
-12.639 12.133 -1.851 0.14
-9.4919996 9.0459995 -1.335 0.36000001
-10.573 10.017 -1.505 0.30000001
-10.597 10.009 -1.507 0.2
-10.783 10.121 -1.531 0.23
-10.767 10.042 -1.524 0.43000001
-10.669 9.8879995 -1.503 0.30000001
-10.817 9.9619999 -1.522 0.36000001
-10.803 9.8870001 -1.5140001 0.28
-10.978 9.9840002 -1.5369999 0.30000001
-10.985 9.9589996 -1.536 0.38999999
-10.986 9.8970003 -1.531 0.34999999
-10.914 9.7700005 -1.515 0.36000001
-10.962 9.7510004 -1.518 0.34
-10.92 9.6520004 -1.506 0.33000001
-11.068 9.7220001 -1.525 0.44
-11.009 9.6079998 -1.511 0.30000001
-11.053 9.5860004 -1.513 0.34
-11.044 9.5469999 -1.5089999 0.34
-11.129 9.5609999 -1.518 0.37
-11.164 9.5290003 -1.518 0.36000001
-11.15 9.4569998 -1.512 0.33000001
-11.216 9.4530001 -1.517 0.40000001
-11.288 9.4530001 -1.524 0.36000001
-11.344 9.4390001 -1.528 0.34
-11.406 9.4610004 -1.535 0.46000001
-11.302 9.3149996 -1.515 0.28
-11.276 9.2340002 -1.506 0.31999999
-11.25 9.1529999 -1.498 0.40000001
-11.365 9.1879997 -1.511 0.34999999
-11.432 9.1829996 -1.517 0.31
-11.371 9.0749998 -1.503 0.41999999
-11.461 9.118 -1.515 0.38
-11.585 9.1569996 -1.529 0.36000001
-11.589 9.1009998 -1.525 0.33000001
-11.553 9.0150003 -1.516 0.44999999
-11.628 9.0150003 -1.523 0.27000001
-11.691 9.0050001 -1.528 0.49000001
-11.757 8.9969997 -1.533 0.28
-10.295 7.823 -1.314 0.20999999
-10.301 7.802 -1.313 0.44
-10.333 7.7750001 -1.314 0.40000001
-10.381 7.7610002 -1.318 0.17
-11.882 8.8290005 -1.533 0.36000001
-11.914 8.7950001 -1.534 0.31999999
-11.969 8.7779999 -1.538 0.31999999
-11.968 8.7189999 -1.534 0.34999999
-11.935 8.6660004 -1.527 0.30000001
-11.947 8.618 -1.525 0.31999999
-11.939 8.5550003 -1.52 0.44999999
-11.893 8.4659996 -1.5089999 0.28999999
-11.847 8.3769999 -1.499 0.31999999
-11.936 8.3839998 -1.508 0.31
-11.863 8.2770004 -1.494 0.38
-11.925 8.2919998 -1.501 0.34999999
-11.905 8.2229996 -1.494 0.33000001
