# .PCD v0.7 - Point Cloud Data file format
VERSION 0.7
FIELDS x y z intensity
SIZE 4 4 4 4
TYPE F F F F
COUNT 1 1 1 1
WIDTH 1401
HEIGHT 1
VIEWPOINT 0 0 0 1 0 0 0
POINTS 1401
DATA ascii
3.961 -5.8509998 -1.7970001 0.33000001
3.983 -5.8439999 -1.798 0.31999999
3.98 -5.8200002 -1.793 0.38
4.0159998 -5.8330002 -1.801 0.38
4.0120001 -5.789 -1.791 0.38999999
4.0300002 -5.776 -1.791 0.30000001
4.119 -5.862 -1.824 0.41999999
4.0879998 -5.7800002 -1.8 0.34
4.0050001 -5.6259999 -1.753 0.23999999
3.8929999 -5.4520001 -1.697 0.46000001
4.1090002 -5.7150002 -1.789 0.38
4.0739999 -5.6290002 -1.765 0.38999999
4.1020002 -5.6300001 -1.77 0.28999999
4.1300001 -5.631 -1.774 0.40000001
4.145 -5.6149998 -1.773 0.38
4.171 -5.6129999 -1.777 0.31999999
4.1950002 -5.6259999 -1.784 0.34
4.2290001 -5.6350002 -1.791 0.41
4.1880002 -5.5450001 -1.765 0.36000001
4.171 -5.487 -1.75 0.38
4.2670002 -5.5760002 -1.785 0.37
4.2870002 -5.566 -1.786 0.30000001
4.2600002 -5.513 -1.77 0.44999999
4.3060002 -5.5370002 -1.783 0.31999999
4.2480001 -5.428 -1.75 0.36000001
4.2670002 -5.4159999 -1.75 0.34
4.369 -5.5089998 -1.7869999 0.27000001
4.369 -5.474 -1.78 0.43000001
4.3790002 -5.4520001 -1.777 0.37
4.3769999 -5.4310002 -1.772 0.34
4.381 -5.401 -1.766 0.44
4.4060001 -5.3979998 -1.77 0.34
4.4320002 -5.3940001 -1.774 0.31
4.4699998 -5.4060001 -1.783 0.46000001
4.4229999 -5.316 -1.756 0.28999999
4.4970002 -5.3870001 -1.784 0.40000001
4.493 -5.348 -1.775 0.31999999
4.4590001 -5.2740002 -1.753 0.47999999
4.5120001 -5.302 -1.7690001 0.34999999
4.4920001 -5.2459998 -1.753 0.31999999
4.5019999 -5.224 -1.751 0.44999999
4.4889998 -5.177 -1.739 0.38
4.586 -5.2709999 -1.775 0.36000001
4.5890002 -5.2410002 -1.77 0.34
4.6500001 -5.277 -1.788 0.34
4.6009998 -5.1890001 -1.761 0.30000001
4.6589999 -5.2199998 -1.778 0.52999997
4.4549999 -4.9619999 -1.689 0.23999999
4.6859999 -5.1849999 -1.776 0.40000001
4.7069998 -5.1919999 -1.781 0.38999999
4.7049999 -5.1570001 -1.774 0.41
4.6989999 -5.119 -1.765 0.41999999
4.592 -4.9710002 -1.716 0.25
4.777 -5.138 -1.783 0.38999999
4.6989999 -5.0229998 -1.7460001 0.28999999
4.7670002 -5.0630002 -1.766 0.31
4.8590002 -5.1440001 -1.799 0.38999999
4.9070001 -5.1620002 -1.812 0.33000001
4.9000001 -5.1230001 -1.803 0.36000001
4.9450002 -5.1370001 -1.814 0.38999999
4.9070001 -5.066 -1.793 0.40000001
4.5929999 -4.7140002 -1.665 0.27000001
4.9250002 -5.0209999 -1.788 0.34
4.915 -4.9959998 -1.781 0.36000001
4.9489999 -4.9980001 -1.788 0.34
4.9219999 -4.9400001 -1.772 0.41999999
4.9419999 -4.9289999 -1.773 0.28999999
5.0419998 -4.9970002 -1.806 0.36000001
5.033 -4.9569998 -1.796 0.40000001
5.059 -4.967 -1.803 0.37
5.059 -4.9359999 -1.7970001 0.30000001
5.027 -4.8740001 -1.78 0.44
5.0819998 -4.8959999 -1.794 0.38
4.9749999 -4.7639999 -1.749 0.34
5.0110002 -4.7690001 -1.756 0.37
5.098 -4.8200002 -1.783 0.36000001
5.072 -4.7800002 -1.771 0.43000001
5.0630002 -4.7420001 -1.762 0.34999999
5.0240002 -4.6760001 -1.742 0.38999999
5.138 -4.7519999 -1.778 0.31999999
5.066 -4.6570001 -1.747 0.38999999
5.099 -4.6570001 -1.753 0.38
5.1669998 -4.6890001 -1.773 0.31999999
5.1729999 -4.6799998 -1.772 0.38999999
5.1739998 -4.652 -1.767 0.23999999
5.2579999 -4.697 -1.793 0.52999997
5.2729998 -4.6810002 -1.793 0.34999999
4.4879999 -3.9630001 -1.5039999 0.34
5.3039999 -4.6490002 -1.793 0.34
5.3010001 -4.6170001 -1.7869999 0.41
5.2309999 -4.5419998 -1.7589999 0.38
5.21 -4.4949999 -1.747 0.36000001
5.1939998 -4.454 -1.7359999 0.28
5.2080002 -4.4369998 -1.7359999 0.38999999
5.2589998 -4.4520001 -1.749 0.37
5.276 -4.4380002 -1.75 0.30000001
5.3189998 -4.4590001 -1.763 0.41999999
5.3299999 -4.4400001 -1.762 0.41
5.3140001 -4.3990002 -1.751 0.38
5.29 -4.3520002 -1.738 0.34
5.3579998 -4.3790002 -1.757 0.40000001
5.3369999 -4.3340001 -1.745 0.37
5.3130002 -4.2870002 -1.732 0.34999999
5.375 -4.323 -1.751 0.41
5.3530002 -4.2779999 -1.739 0.34999999
5.3660002 -4.2610002 -1.739 0.37
5.4130001 -4.27 -1.75 0.36000001
5.4000001 -4.2329998 -1.7410001 0.37
5.4429998 -4.2379999 -1.751 0.38999999
5.3899999 -4.171 -1.729 0.28
5.3940001 -4.1599998 -1.728 0.46000001
5.4510002 -4.177 -1.743 0.38
5.494 -4.1820002 -1.753 0.31
5.4429998 -4.1170001 -1.7309999 0.38
5.4359999 -4.085 -1.725 0.38
5.5170002 -4.118 -1.748 0.36000001
5.5380001 -4.1069999 -1.75 0.38999999
5.5960002 -4.1360002 -1.767 0.34999999
5.5760002 -4.0939999 -1.756 0.47999999
5.487 -4.0029998 -1.722 0.27000001
5.4889998 -3.9779999 -1.719 0.28999999
5.6609998 -4.0749998 -1.772 0.41
5.5780001 -3.9890001 -1.74 0.31999999
5.6490002 -4.026 -1.762 0.44999999
5.6550002 -4.0040002 -1.76 0.34
5.6440001 -3.9690001 -1.752 0.43000001
5.625 -3.9300001 -1.7410001 0.34
5.5879998 -3.878 -1.725 0.43000001
5.6960001 -3.9260001 -1.756 0.31999999
5.619 -3.8469999 -1.727 0.36000001
5.6729999 -3.8710001 -1.743 0.44999999
5.4699998 -3.7090001 -1.673 0.25
5.6370001 -3.7950001 -1.723 0.34
5.6830001 -3.8 -1.734 0.38
5.6739998 -3.7679999 -1.728 0.40000001
5.665 -3.737 -1.721 0.34999999
5.7220001 -3.7490001 -1.7359999 0.38
5.6900001 -3.7149999 -1.723 0.40000001
5.7150002 -3.7060001 -1.728 0.36000001
5.6989999 -3.6700001 -1.719 0.31
5.6110001 -3.589 -1.687 0.41
5.7459998 -3.6500001 -1.727 0.38
5.6739998 -3.579 -1.7 0.36000001
5.6719999 -3.5650001 -1.697 0.36000001
5.7719998 -3.602 -1.726 0.38999999
5.7620001 -3.5710001 -1.719 0.41
5.8169999 -3.5799999 -1.733 0.31999999
5.7509999 -3.5150001 -1.7079999 0.28999999
5.7020001 -3.461 -1.689 0.47999999
5.809 -3.5 -1.72 0.31999999
5.7670002 -3.4630001 -1.705 0.36000001
5.7360001 -3.4200001 -1.692 0.40000001
5.79 -3.427 -1.705 0.34999999
5.8260002 -3.424 -1.7130001 0.41
5.7779999 -3.372 -1.6950001 0.30000001
5.8119998 -3.3670001 -1.702 0.38
5.8010001 -3.336 -1.6950001 0.43000001
5.8610001 -3.359 -1.712 0.34
5.8270001 -3.3150001 -1.698 0.44999999
5.8179998 -3.286 -1.693 0.34
5.8369999 -3.2720001 -1.6950001 0.38
5.8759999 -3.27 -1.704 0.38
5.947 -3.2850001 -1.723 0.38999999
5.9460001 -3.2590001 -1.719 0.28
5.9530001 -3.2509999 -1.72 0.5
5.9250002 -3.2119999 -1.7079999 0.30000001
5.9120002 -3.181 -1.701 0.37
5.9439998 -3.174 -1.7079999 0.37
5.9660001 -3.1619999 -1.711 0.28999999
5.9720001 -3.141 -1.71 0.49000001
5.9200001 -3.0899999 -1.692 0.33000001
5.98 -3.109 -1.7079999 0.37
6.0100002 -3.1010001 -1.715 0.34999999
6.0110002 -3.0780001 -1.712 0.44999999
5.9640002 -3.03 -1.6950001 0.36000001
6.006 -3.0280001 -1.705 0.34999999
5.9099998 -2.957 -1.673 0.43000001
5.8930001 -2.9360001 -1.666 0.31999999
5.9310002 -2.9319999 -1.675 0.37
6.0320001 -2.9579999 -1.7029999 0.37
5.9689999 -2.904 -1.6799999 0.34
6.0960002 -2.9419999 -1.716 0.28999999
5.9759998 -2.862 -1.677 0.5
5.8769999 -2.7920001 -1.645 0.23999999
6.007 -2.842 -1.683 0.25999999
6.0599999 -2.8429999 -1.696 0.41
6.0970001 -2.8369999 -1.704 0.38999999
6.0349998 -2.786 -1.683 0.36000001
6.0570002 -2.7720001 -1.687 0.40000001
6.0279999 -2.737 -1.676 0.36000001
6.04 -2.7190001 -1.677 0.41999999
6.0549998 -2.7149999 -1.6799999 0.30000001
6.1290002 -2.724 -1.699 0.31999999
6.1659999 -2.717 -1.7079999 0.43000001
6.1389999 -2.6830001 -1.697 0.38999999
6.1300001 -2.6559999 -1.692 0.34
6.1500001 -2.642 -1.696 0.41999999
6.1810002 -2.6429999 -1.704 0.31
6.1859999 -2.622 -1.7029999 0.46000001
6.158 -2.5880001 -1.692 0.44
6.1420002 -2.5580001 -1.6849999 0.30000001
6.1440001 -2.5369999 -1.683 0.31999999
6.1989999 -2.536 -1.697 0.34
6.244 -2.5320001 -1.7079999 0.38
6.1370001 -2.4779999 -1.675 0.41
6.1929998 -2.4779999 -1.689 0.34
6.2140002 -2.4630001 -1.693 0.44999999
6.1729999 -2.425 -1.679 0.33000001
6.1420002 -2.391 -1.668 0.34
6.1339998 -2.365 -1.663 0.30000001
6.184 -2.362 -1.676 0.38999999
6.1950002 -2.355 -1.678 0.36000001
6.1030002 -2.299 -1.649 0.33000001
6.1290002 -2.286 -1.654 0.33000001
6.0869999 -2.2490001 -1.64 0.28999999
6.1630001 -2.2550001 -1.66 0.46000001
6.0349998 -2.188 -1.6210001 0.34
6.066 -2.188 -1.6289999 0.30000001
6.0619998 -2.165 -1.626 0.36000001
6.0450001 -2.138 -1.619 0.38999999
6.1079998 -2.138 -1.635 0.34
6.1079998 -2.1159999 -1.633 0.38
6.112 -2.0969999 -1.633 0.41
6.1719999 -2.095 -1.648 0.34
6.1750002 -2.086 -1.648 0.41999999
6.138 -2.052 -1.635 0.31999999
6.1609998 -2.0380001 -1.64 0.38999999
6.1669998 -2.0179999 -1.64 0.34
6.1880002 -2.0039999 -1.6440001 0.47999999
6.1830001 -1.9809999 -1.641 0.23
6.2379999 -1.976 -1.655 0.46000001
6.178 -1.947 -1.637 0.40000001
6.138 -1.913 -1.624 0.31
6.2160001 -1.916 -1.6440001 0.38999999
6.2290001 -1.899 -1.646 0.33000001
6.2779999 -1.892 -1.658 0.34999999
6.2620001 -1.865 -1.652 0.38999999
6.2600002 -1.844 -1.65 0.31999999
6.3390002 -1.8559999 -1.6720001 0.36000001
6.263 -1.813 -1.649 0.36000001
6.3130002 -1.8049999 -1.661 0.38999999
6.3499999 -1.794 -1.67 0.36000001
6.3559999 -1.774 -1.67 0.38999999
6.362 -1.7539999 -1.67 0.40000001
6.3839998 -1.739 -1.675 0.34
6.4260001 -1.739 -1.686 0.40000001
6.4050002 -1.712 -1.678 0.41999999
6.4229999 -1.696 -1.682 0.34
6.427 -1.675 -1.682 0.31999999
6.4920001 -1.67 -1.698 0.31
6.5120001 -1.653 -1.7029999 0.46000001
6.559 -1.643 -1.714 0.34
6.5630002 -1.633 -1.715 0.44999999
6.6040001 -1.6210001 -1.725 0.30000001
6.6160002 -1.602 -1.727 0.38999999
6.5739999 -1.5700001 -1.714 0.28
6.5440001 -1.541 -1.704 0.28999999
6.539 -1.5190001 -1.701 0.30000001
6.539 -1.508 -1.7 0.30000001
6.552 -1.489 -1.7029999 0.31
6.5339999 -1.4630001 -1.696 0.23
6.533 -1.442 -1.6950001 0.17
6.5599999 -1.426 -1.701 0.37
6.5549998 -1.403 -1.698 0.44999999
6.5630002 -1.3839999 -1.699 0.38999999
6.5669999 -1.374 -1.7 0.5
6.5689998 -1.353 -1.699 0.34999999
6.572 -1.332 -1.699 0.63999999
6.5780001 -1.311 -1.699 0.56999999
6.5760002 -1.29 -1.698 0.34
6.5799999 -1.2690001 -1.698 0.31999999
6.5960002 -1.25 -1.701 0.31999999
6.5900002 -1.239 -1.699 0.28999999
6.598 -1.219 -1.7 0.31999999
6.598 -1.197 -1.699 0.31
6.5970001 -1.176 -1.698 0.28999999
6.599 -1.155 -1.697 0.28999999
6.6090002 -1.135 -1.699 0.30000001
6.6160002 -1.115 -1.7 0.31999999
6.6209998 -1.105 -1.701 0.28999999
6.631 -1.085 -1.7029999 0.31
6.619 -1.062 -1.698 0.30000001
6.6220002 -1.041 -1.698 0.30000001
6.631 -1.021 -1.7 0.30000001
6.632 -1 -1.699 0.28
6.6370001 -0.97899997 -1.7 0.30000001
6.6350002 -0.96799999 -1.699 0.28999999
6.632 -0.94700003 -1.697 0.27000001
6.6469998 -0.92799997 -1.7 0.28999999
6.6479998 -0.90600002 -1.7 0.28
6.6259999 -0.88200003 -1.693 0.20999999
6.6399999 -0.86299998 -1.696 0.28
6.6409998 -0.852 -1.696 0.25
6.6420002 -0.83099997 -1.696 0.25999999
6.6459999 -0.81099999 -1.696 0.28
6.658 -0.79100001 -1.699 0.27000001
6.6440001 -0.76800001 -1.694 0.18000001
6.6500001 -0.74800003 -1.6950001 0.28999999
6.6479998 -0.72600001 -1.694 0.25
6.6589999 -0.71700001 -1.697 0.27000001
6.652 -0.69499999 -1.694 0.25
6.6560001 -0.67400002 -1.6950001 0.27000001
6.6539998 -0.653 -1.694 0.25999999
6.6599998 -0.63200003 -1.6950001 0.27000001
6.6690001 -0.61199999 -1.697 0.19
6.6570001 -0.60100001 -1.693 0.27000001
6.6570001 -0.579 -1.693 0.23999999
6.6719999 -0.56 -1.696 0.27000001
6.6739998 -0.53899997 -1.696 0.2
6.6719999 -0.51700002 -1.6950001 0.25999999
6.664 -0.49599999 -1.693 0.23999999
6.6609998 -0.47499999 -1.692 0.20999999
6.664 -0.46399999 -1.692 0.28
6.665 -0.44299999 -1.692 0.25
6.6690001 -0.42199999 -1.693 0.2
6.6799998 -0.40200001 -1.6950001 0.28
6.6890001 -0.38100001 -1.697 0.22
6.678 -0.36000001 -1.694 0.2
6.6750002 -0.33899999 -1.693 0.27000001
6.6820002 -0.329 -1.6950001 0.22
6.677 -0.30700001 -1.693 0.20999999
6.6760001 -0.28600001 -1.693 0.28
6.6669998 -0.26499999 -1.6900001 0.25
6.6869998 -0.245 -1.6950001 0.27000001
6.6820002 -0.223 -1.694 0.23999999
6.6789999 -0.20200001 -1.693 0.17
6.6659999 -0.191 -1.689 0.28999999
6.678 -0.171 -1.692 0.25
6.6859999 -0.15000001 -1.694 0.28999999
6.6729999 -0.12899999 -1.6900001 0.25999999
6.6719999 -0.108 -1.6900001 0.27000001
6.678 -0.086999997 -1.692 0.28999999
6.678 -0.075999998 -1.692 0.28
6.6760001 -0.055 -1.691 0.27000001
6.6900001 -0.034000002 -1.6950001 0.27000001
6.6880002 -0.013 -1.694 0.28999999
6.4089999 0.0080000004 -1.675 0.28
6.4169998 0.028999999 -1.677 0.28999999
6.4130001 0.048999999 -1.676 0.28999999
6.4130001 0.068999998 -1.676 0.28999999
6.4070001 0.089000002 -1.675 0.28999999
6.4099998 0.109 -1.676 0.28
6.4120002 0.119 -1.676 0.28999999
6.421 0.14 -1.679 0.25999999
6.3979998 0.15899999 -1.6720001 0.30000001
6.4029999 0.17900001 -1.674 0.28
6.4200001 0.2 -1.679 0.25999999
6.4169998 0.22 -1.678 0.28
6.4089999 0.23 -1.676 0.28
6.414 0.25 -1.678 0.28
6.4060001 0.27000001 -1.676 0.27000001
6.4120002 0.29100001 -1.678 0.27000001
6.3979998 0.31 -1.674 0.28999999
6.408 0.331 -1.677 0.25999999
6.4000001 0.35100001 -1.675 0.30000001
6.4130001 0.361 -1.679 0.28999999
6.4000001 0.38100001 -1.676 0.30000001
6.3990002 0.40099999 -1.676 0.28
6.395 0.421 -1.675 0.31999999
6.388 0.44100001 -1.673 0.28999999
6.3909998 0.461 -1.675 0.28
6.3759999 0.47999999 -1.671 0.27000001
6.3899999 0.491 -1.675 0.27000001
6.3930001 0.51200002 -1.676 0.30000001
6.3829999 0.53100002 -1.674 0.25
6.3720002 0.55000001 -1.671 0.28999999
6.3759999 0.57099998 -1.673 0.28999999
6.3740001 0.59100002 -1.673 0.25
6.3699999 0.611 -1.6720001 0.25999999
6.3639998 0.62 -1.671 0.25
6.3709998 0.64099997 -1.673 0.27000001
6.3730001 0.66100001 -1.675 0.25
6.3600001 0.68000001 -1.671 0.18000001
6.3629999 0.70099998 -1.673 0.28999999
6.3509998 0.72000003 -1.67 0.23999999
6.362 0.741 -1.674 0.16
6.3590002 0.75099999 -1.673 0.28999999
6.3590002 0.77100003 -1.674 0.23999999
6.3600001 0.792 -1.675 0.20999999
6.3559999 0.81099999 -1.675 0.13
6.3470001 0.83099997 -1.673 0.2
6.3390002 0.85000002 -1.671 0.2
6.3509998 0.86199999 -1.675 0.25999999
6.3499999 0.88200003 -1.676 0.23
6.3439999 0.90100002 -1.675 0.19
6.3410001 0.921 -1.675 0.25999999
6.342 0.94199997 -1.676 0.25
6.348 0.963 -1.678 0.2
6.3379998 0.98199999 -1.676 0.25
6.3400002 0.99199998 -1.677 0.2
6.3249998 1.01 -1.674 0.25
6.3239999 1.031 -1.675 0.23999999
6.3189998 1.05 -1.674 0.19
6.3150001 1.0700001 -1.674 0.25999999
6.316 1.09 -1.675 0.23
6.3070002 1.109 -1.673 0.17
6.3070002 1.12 -1.674 0.27000001
6.3130002 1.141 -1.677 0.23
6.2979999 1.159 -1.673 0.17
6.2940001 1.179 -1.673 0.25999999
6.2979999 1.2 -1.676 0.23999999
6.2919998 1.219 -1.675 0.19
6.2849998 1.238 -1.674 0.25999999
6.2810001 1.248 -1.673 0.25
6.2789998 1.268 -1.674 0.25
6.2820001 1.289 -1.676 0.25
6.263 1.306 -1.6720001 0.18000001
6.2659998 1.327 -1.674 0.28
6.2680001 1.348 -1.676 0.25
6.2540002 1.365 -1.673 0.27000001
6.2540002 1.376 -1.673 0.27000001
6.2480001 1.395 -1.673 0.25999999
6.2509999 1.416 -1.675 0.28
6.243 1.4349999 -1.674 0.25
6.2420001 1.455 -1.675 0.25999999
6.2410002 1.476 -1.676 0.25999999
6.2519999 1.489 -1.6799999 0.30000001
6.2259998 1.5039999 -1.674 0.30000001
6.2220001 1.523 -1.674 0.28999999
6.2189999 1.543 -1.675 0.25
6.2249999 1.5650001 -1.678 0.28
6.2090001 1.582 -1.675 0.28999999
6.21 1.603 -1.676 0.28999999
6.2140002 1.615 -1.678 0.28999999
6.2080002 1.6339999 -1.678 0.30000001
6.2020001 1.653 -1.678 0.28999999
6.197 1.673 -1.678 0.28
6.184 1.6900001 -1.676 0.30000001
6.1810002 1.71 -1.676 0.28
6.1750002 1.719 -1.675 0.31999999
6.1690001 1.738 -1.675 0.30000001
6.171 1.76 -1.677 0.27000001
6.158 1.777 -1.675 0.28999999
6.1560001 1.7970001 -1.676 0.31
6.1409998 1.814 -1.673 0.28
6.1409998 1.835 -1.675 0.30000001
6.1420002 1.846 -1.676 0.31
6.132 1.864 -1.675 0.28999999
6.1339998 1.885 -1.677 0.31
6.119 1.902 -1.675 0.27000001
6.1129999 1.921 -1.675 0.28999999
6.1079998 1.941 -1.675 0.31999999
6.1040001 1.96 -1.676 0.27000001
6.105 1.971 -1.677 0.31999999
6.0970001 1.99 -1.676 0.27000001
6.0890002 2.0079999 -1.676 0.30000001
6.0799999 2.027 -1.675 0.28999999
6.079 2.0480001 -1.677 0.31999999
6.0780001 2.069 -1.678 0.27000001
6.0630002 2.085 -1.676 0.31
6.0650001 2.096 -1.677 0.28999999
6.0599999 2.1159999 -1.678 0.30000001
6.052 2.1340001 -1.677 0.28999999
6.0409999 2.152 -1.676 0.27000001
6.0349998 2.171 -1.676 0.28999999
6.0310001 2.191 -1.677 0.33000001
6.0300002 2.2119999 -1.679 0.31
6.026 2.221 -1.679 0.31
6.0209999 2.2409999 -1.679 0.30000001
6.007 2.257 -1.677 0.30000001
6.0019999 2.277 -1.678 0.28999999
5.994 2.296 -1.678 0.28
5.9910002 2.316 -1.679 0.31
5.9910002 2.3269999 -1.6799999 0.28
5.974 2.342 -1.677 0.28
5.9710002 2.362 -1.678 0.30000001
5.974 2.385 -1.682 0.30000001
5.9629998 2.402 -1.681 0.28999999
5.9520001 2.4200001 -1.679 0.28999999
5.9390001 2.4360001 -1.678 0.31999999
5.9419999 2.448 -1.6799999 0.27000001
5.9289999 2.4649999 -1.678 0.30000001
5.9229999 2.484 -1.679 0.27000001
5.915 2.503 -1.679 0.27000001
5.921 2.527 -1.683 0.27000001
5.901 2.5409999 -1.679 0.27000001
5.9050002 2.5650001 -1.683 0.28
5.8940001 2.5710001 -1.681 0.28
5.8769999 2.585 -1.678 0.30000001
5.8639998 2.602 -1.677 0.28
5.8699999 2.6259999 -1.681 0.25
5.8610001 2.645 -1.681 0.19
5.8429999 2.658 -1.678 0.30000001
5.8390002 2.6789999 -1.679 0.25
5.8319998 2.687 -1.678 0.28999999
5.8340001 2.71 -1.682 0.28
5.823 2.727 -1.681 0.27000001
5.8200002 2.7479999 -1.683 0.27000001
5.7979999 2.76 -1.678 0.31
5.7940001 2.78 -1.6799999 0.28
5.7779999 2.7950001 -1.678 0.25
5.7740002 2.8039999 -1.678 0.25999999
5.7690001 2.8239999 -1.679 0.25999999
5.7600002 2.842 -1.679 0.25999999
5.756 2.8629999 -1.681 0.25999999
5.7399998 2.878 -1.678 0.25999999
5.743 2.902 -1.682 0.23
5.7379999 2.911 -1.682 0.17
5.717 2.9219999 -1.678 0.28
5.7049999 2.9389999 -1.677 0.25
5.7069998 2.9630001 -1.681 0.27000001
5.7010002 2.9820001 -1.682 0.2
5.678 2.993 -1.678 0.25999999
5.6739998 3.0139999 -1.679 0.25
5.6859999 3.0320001 -1.6849999 0.23999999
5.6719999 3.0469999 -1.683 0.20999999
5.6599998 3.0639999 -1.683 0.25999999
5.652 3.082 -1.683 0.25
5.6560001 3.1070001 -1.688 0.17
5.6350002 3.119 -1.684 0.25999999
5.6199999 3.122 -1.681 0.23
5.6279998 3.1500001 -1.686 0.2
5.6129999 3.165 -1.6849999 0.27000001
5.6129999 3.188 -1.688 0.20999999
5.5710001 3.188 -1.678 0.17
5.5770001 3.214 -1.683 0.28999999
5.5710001 3.234 -1.684 0.23999999
5.5609999 3.24 -1.683 0.19
5.5489998 3.256 -1.682 0.27000001
5.5409999 3.2750001 -1.683 0.25
5.526 3.289 -1.681 0.25999999
5.5250001 3.313 -1.684 0.25999999
5.5100002 3.3269999 -1.683 0.27000001
5.4959998 3.342 -1.682 0.28
5.4920001 3.352 -1.682 0.27000001
5.4819999 3.369 -1.682 0.25999999
5.4629998 3.381 -1.679 0.28
5.4640002 3.405 -1.683 0.27000001
5.447 3.4189999 -1.681 0.18000001
5.4260001 3.4300001 -1.678 0.30000001
5.4299998 3.4560001 -1.683 0.25
5.428 3.4660001 -1.684 0.25
5.4050002 3.4760001 -1.6799999 0.27000001
5.4089999 3.5020001 -1.6849999 0.28999999
5.3800001 3.5079999 -1.679 0.2
5.3639998 3.5220001 -1.677 0.30000001
5.368 3.5480001 -1.682 0.25
5.3660002 3.5710001 -1.6849999 0.27000001
5.3569999 3.5780001 -1.684 0.28999999
5.3400002 3.5899999 -1.682 0.33000001
5.3280001 3.6070001 -1.682 0.28999999
5.3150001 3.622 -1.682 0.28999999
5.323 3.652 -1.688 0.27000001
5.3080001 3.6670001 -1.687 0.27000001
5.29 3.6659999 -1.683 0.30000001
5.3010001 3.698 -1.6900001 0.25999999
5.283 3.71 -1.688 0.30000001
5.2740002 3.7290001 -1.689 0.27000001
5.2649999 3.7479999 -1.6900001 0.28
5.243 3.757 -1.686 0.30000001
5.2360001 3.777 -1.688 0.28
5.2270002 3.783 -1.687 0.28999999
5.2150002 3.799 -1.687 0.28999999
5.21 3.8210001 -1.6900001 0.25999999
5.211 3.846 -1.694 0.28999999
5.1890001 3.8559999 -1.691 0.28
5.1799998 3.8740001 -1.692 0.28999999
5.1620002 3.8859999 -1.6900001 0.31
5.1500001 3.8900001 -1.688 0.28
5.1500001 3.915 -1.692 0.27000001
5.1420002 3.9349999 -1.693 0.30000001
5.1199999 3.944 -1.6900001 0.31
5.105 3.9579999 -1.689 0.28999999
5.0939999 3.9749999 -1.6900001 0.28
5.092 3.9990001 -1.693 0.25999999
5.092 4.0120001 -1.696 0.28
5.066 4.0170002 -1.691 0.30000001
5.0560002 4.0349998 -1.692 0.25999999
5.0450001 4.052 -1.692 0.28
5.0370002 4.072 -1.694 0.28
5.0209999 4.085 -1.693 0.28
5.007 4.0999999 -1.692 0.28999999
5.0019999 4.1090002 -1.693 0.25
4.9840002 4.1209998 -1.691 0.27000001
4.98 4.1440001 -1.6950001 0.25
4.9629998 4.1560001 -1.693 0.25999999
4.9499998 4.171 -1.693 0.27000001
4.9439998 4.1929998 -1.696 0.25
4.9359999 4.2140002 -1.698 0.25999999
4.9250002 4.2179999 -1.696 0.25999999
4.8979998 4.2199998 -1.691 0
3.721 3.2550001 -1.2640001 0
3.6860001 3.2460001 -1.255 0
3.6440001 3.2290001 -1.243 0
3.6210001 3.22 -1.237 0
3.5880001 3.211 -1.228 0
3.5580001 3.204 -1.221 0
3.5280001 3.197 -1.2130001 0
3.5020001 3.194 -1.207 0
3.4660001 3.1819999 -1.197 0
3.4360001 3.174 -1.1900001 0
3.428 3.177 -1.189 0
3.3970001 3.168 -1.181 0
3.372 3.165 -1.175 0
3.349 3.1630001 -1.17 0
3.3329999 3.1689999 -1.168 0
3.2969999 3.154 -1.1569999 0
3.263 3.142 -1.148 0
3.25 3.1389999 -1.145 0
3.2290001 3.138 -1.141 0
3.204 3.1340001 -1.135 0
3.1819999 3.132 -1.13 0
3.223 3.191 -1.15 0
3.2409999 3.23 -1.161 0
3.2390001 3.2479999 -1.165 0
3.2449999 3.2639999 -1.169 0
3.2460001 3.2850001 -1.173 0
3.244 3.3039999 -1.176 0
3.224 3.3039999 -1.173 0
3.1059999 3.204 -1.1289999 0
3.039 3.1559999 -1.107 0
3.0120001 3.148 -1.1 0
2.9990001 3.1440001 -1.097 0
2.974 3.138 -1.091 0
2.95 3.132 -1.085 0
2.944 3.1459999 -1.086 0
2.934 3.155 -1.086 0
2.911 3.1500001 -1.081 0
2.901 3.1489999 -1.079 0
2.902 3.171 -1.084 0
2.878 3.164 -1.0779999 0
2.8469999 3.151 -1.069 0
2.7880001 3.105 -1.048 0
2.766 3.0999999 -1.043 0
2.7509999 3.1029999 -1.041 0.029999999
2.7390001 3.0999999 -1.038 0.12
2.727 3.1059999 -1.0369999 0.16
2.707 3.1029999 -1.033 0.17
2.6960001 3.1099999 -1.0319999 0.17
2.675 3.105 -1.027 0.17
2.6630001 3.1110001 -1.026 0.17
2.654 3.1199999 -1.027 0.13
2.6270001 3.098 -1.017 0.059999999
2.6170001 3.1059999 -1.017 0
2.5969999 3.1029999 -1.013 0
2.5869999 3.1110001 -1.013 0
2.573 3.1129999 -1.011 0
2.5539999 3.1110001 -1.007 0
2.5580001 3.135 -1.013 0
2.5280001 3.1099999 -1.002 0
2.5090001 3.1059999 -0.99800003 0
2.4960001 3.109 -0.99599999 0
2.494 3.1270001 -1 0
2.46 3.105 -0.98900002 0
2.464 3.1289999 -0.995 0
2.4260001 3.102 -0.98299998 0
2.4360001 3.1240001 -0.98900002 0
2.4030001 3.1029999 -0.97899997 0
2.402 3.1210001 -0.98299998 0
2.3699999 3.0999999 -0.972 0
2.352 3.0969999 -0.96899998 0.029999999
2.3369999 3.098 -0.96600002 0.029999999
2.3239999 3.1010001 -0.96499997 0.029999999
2.3169999 3.1010001 -0.96399999 0.029999999
2.3010001 3.1010001 -0.96100003 0.029999999
2.28 3.0929999 -0.95599997 0.029999999
2.27 3.0999999 -0.95599997 0.029999999
2.2539999 3.098 -0.95200002 0.029999999
2.237 3.095 -0.949 0.029999999
2.2309999 3.0969999 -0.949 0.029999999
2.2119999 3.092 -0.94400001 0.029999999
2.1989999 3.0940001 -0.94300002 0.029999999
2.1830001 3.092 -0.93900001 0.029999999
2.1700001 3.0940001 -0.93800002 0.029999999
2.1570001 3.096 -0.93599999 0.039999999
2.1389999 3.0910001 -0.93199998 0.039999999
2.1289999 3.0869999 -0.93000001 0.039999999
2.1140001 3.086 -0.92699999 0.039999999
2.102 3.089 -0.926 0.039999999
2.096 3.102 -0.92799997 0.07
2.0739999 3.0899999 -0.92199999 0.039999999
2.0650001 3.098 -0.92199999 0.07
2.0469999 3.0910001 -0.91799998 0.039999999
2.043 3.096 -0.91799998 0.07
2.023 3.0880001 -0.91399997 0.039999999
2.0190001 3.1029999 -0.91600001 0.079999998
2 3.0940001 -0.91100001 0.039999999
1.994 3.1070001 -0.91399997 0.079999998
1.977 3.102 -0.91000003 0.079999998
1.9630001 3.102 -0.90799999 0.079999998
1.954 3.098 -0.90499997 0.079999998
1.943 3.1029999 -0.90499997 0.079999998
1.924 3.0940001 -0.89999998 0.079999998
1.913 3.0969999 -0.89899999 0.079999998
1.904 3.105 -0.89899999 0.16
1.891 3.1059999 -0.898 0.16
1.883 3.115 -0.89899999 0.13
1.852 3.075 -0.88499999 0.059999999
1.857 3.1040001 -0.89200002 0.16
1.849 3.1129999 -0.89399999 0
1.823 3.092 -0.88499999 0
1.812 3.095 -0.884 0
1.804 3.1040001 -0.88499999 0
1.777 3.0810001 -0.87599999 0.02
1.77 3.1010001 -0.88 0.36000001
1.765 3.115 -0.88200003 0.12
1.7640001 3.1359999 -0.88700002 0.2
1.743 3.1229999 -0.88099998 0.2
1.729 3.1199999 -0.87800002 0.18000001
1.709 3.109 -0.87300003 0.17
1.702 3.1059999 -0.87099999 0.1
1.6900001 3.108 -0.87 0.19
1.675 3.1029999 -0.86699998 0.11
1.664 3.1070001 -0.86699998 0.2
1.649 3.102 -0.86299998 0.11
1.643 3.1140001 -0.86500001 0.20999999
1.625 3.1040001 -0.861 0.11
1.6210001 3.108 -0.861 0.2
1.609 3.1099999 -0.86000001 0.2
1.595 3.1059999 -0.85699999 0.1
1.59 3.1199999 -0.86000001 0.18000001
1.572 3.109 -0.85500002 0.20999999
1.564 3.118 -0.85600001 0.18000001
1.546 3.1070001 -0.85100001 0.25
1.54 3.108 -0.85100001 0.23
1.5319999 3.1159999 -0.852 0.18000001
1.518 3.1099999 -0.84899998 0.25999999
1.51 3.1199999 -0.85000002 0.23
1.495 3.115 -0.847 0.18000001
1.48 3.1070001 -0.84299999 0.25999999
1.475 3.122 -0.847 0.23
1.465 3.1140001 -0.84299999 0.18000001
1.455 3.119 -0.84299999 0.25999999
1.444 3.1199999 -0.84200001 0.23
1.431 3.1170001 -0.83999997 0.18000001
1.419 3.1170001 -0.83899999 0.25999999
1.408 3.119 -0.838 0.23999999
1.403 3.122 -0.838 0.18000001
1.392 3.1240001 -0.83700001 0.27000001
1.381 3.125 -0.83600003 0.23
1.37 3.128 -0.83600003 0.19
1.358 3.1270001 -0.83399999 0.25999999
1.349 3.1329999 -0.83499998 0.23
1.339 3.1370001 -0.83499998 0.19
1.334 3.1370001 -0.83399999 0.27000001
1.318 3.1270001 -0.82999998 0.23999999
1.306 3.128 -0.829 0.19
1.299 3.1389999 -0.83099997 0.27000001
1.288 3.1400001 -0.82999998 0.23999999
1.276 3.138 -0.82800001 0.19
1.2640001 3.1370001 -0.82700002 0.27000001
1.2589999 3.1389999 -0.82700002 0.25
1.247 3.1370001 -0.82499999 0.19
1.237 3.141 -0.82499999 0.28
1.227 3.145 -0.82499999 0.25
1.2180001 3.151 -0.82599998 0.25999999
1.207 3.1530001 -0.82499999 0.20999999
1.189 3.135 -0.81900001 0.050000001
1.188 3.148 -0.82200003 0
1.1720001 3.135 -0.81699997 0
1.154 3.1159999 -0.81 0
1.1339999 3.0940001 -0.80199999 0
1.132 3.1170001 -0.80800003 0
1.124 3.1259999 -0.81 0
1.118 3.1389999 -0.81300002 0
1.1059999 3.122 -0.80699998 0
1.098 3.1300001 -0.80800003 0
1.09 3.1400001 -0.81 0.02
1.09 3.171 -0.81900001 0.14
1.075 3.1600001 -0.81400001 0.19
1.068 3.1700001 -0.81599998 0.23
1.0549999 3.1659999 -0.81400001 0.18000001
1.049 3.164 -0.81300002 0.27000001
1.041 3.1730001 -0.815 0.23999999
1.027 3.1659999 -0.81199998 0.19
1.023 3.1849999 -0.81599998 0.14
1.0039999 3.161 -0.80800003 0.55000001
1.062 3.375 -0.87 0
0.98400003 3.1670001 -0.80800003 0
0.98299998 3.1819999 -0.81199998 0
0.972 3.181 -0.81099999 0
0.958 3.171 -0.80699998 0
0.94800001 3.174 -0.80699998 0
0.94199997 3.1919999 -0.81199998 0
0.93000001 3.187 -0.80900002 0.050000001
0.91500002 3.1719999 -0.80400002 0.16
0.90600002 3.1619999 -0.801 0.12
0.89999998 3.1760001 -0.80400002 0.30000001
0.88999999 3.1789999 -0.80400002 0.31999999
0.87800002 3.1760001 -0.80199999 0.34
0.86799997 3.1789999 -0.80199999 0.31999999
0.85799998 3.1800001 -0.80199999 0.38
0.84899998 3.188 -0.80299997 0.34999999
0.84399998 3.1889999 -0.80299997 0.34999999
0.83099997 3.181 -0.80000001 0.31999999
0.82300001 3.1889999 -0.80199999 0.38999999
0.81400001 3.197 -0.80299997 0.31
0.80199999 3.1900001 -0.801 0.36000001
0.792 3.1949999 -0.801 0.33000001
0.78299999 3.2030001 -0.80299997 0.31
0.77999997 3.21 -0.80500001 0.34999999
0.76899999 3.21 -0.80400002 0.25
0.75999999 3.214 -0.80500001 0.31
0.74800003 3.2090001 -0.80199999 0.31999999
0.74199998 3.2290001 -0.80699998 0.31
0.73100001 3.2290001 -0.80699998 0.28999999
0.71700001 3.2160001 -0.80199999 0.30000001
0.71399999 3.2249999 -0.80500001 0.27000001
0.704 3.2290001 -0.80500001 0.25999999
0.69099998 3.2179999 -0.801 0.20999999
0.68199998 3.2219999 -0.80199999 0.25
0.67299998 3.23 -0.80299997 0.20999999
0.662 3.23 -0.80299997 0.11
0.65399998 3.2420001 -0.80599999 0.18000001
0.64700001 3.2309999 -0.80199999 0.2
0.63700002 3.2349999 -0.80299997 0.090000004
0.63 3.2520001 -0.80699998 0.090000004
0.61799997 3.247 -0.80500001 0.090000004
0.60799998 3.2520001 -0.80599999 0.079999998
0.59500003 3.2390001 -0.80199999 0.039999999
0.59399998 3.2590001 -0.80699998 0.079999998
0.58099997 3.2479999 -0.80299997 0.039999999
0.56999999 3.2460001 -0.80199999 0
0.56599998 3.2809999 -0.81199998 0
0.551 3.257 -0.80500001 0
0.542 3.2639999 -0.80599999 0
0.53200001 3.266 -0.80599999 0
0.51999998 3.2579999 -0.80299997 0
0.51700002 3.27 -0.80699998 0
0.50800002 3.279 -0.80900002 0
0.49700001 3.279 -0.80800003 0
0.48800001 3.2920001 -0.81199998 0
0.47799999 3.2950001 -0.81199998 0
0.46799999 3.2969999 -0.81199998 0
0.458 3.302 -0.81300002 0
0.454 3.309 -0.815 0
0.44400001 3.316 -0.81599998 0
0.435 3.3269999 -0.81900001 0
0.42300001 3.313 -0.815 0
0.41299999 3.322 -0.81699997 0
0.40599999 3.3499999 -0.824 0
0.39899999 3.3369999 -0.82099998 0
0.389 3.342 -0.82200003 0
0.37900001 3.3429999 -0.82200003 0
0.37099999 3.3670001 -0.82800001 0
0.359 3.359 -0.82599998 0
0.34900001 3.3659999 -0.82700002 0
0.34 3.3800001 -0.83099997 0
0.33500001 3.381 -0.83099997 0
0.32499999 3.3859999 -0.83200002 0
0.31400001 3.3870001 -0.83200002 0
0.303 3.3840001 -0.83099997 0
0.294 3.4059999 -0.83700001 0
0.28299999 3.4030001 -0.83600003 0
0.27399999 3.4130001 -0.83899999 0
0.264 3.428 -0.84200001 0
0.259 3.4360001 -0.84399998 0
0.24699999 3.425 -0.84100002 0
0.237 3.4300001 -0.84200001 0
0.226 3.4319999 -0.84299999 0
0.21699999 3.4560001 -0.84899998 0
0.207 3.4619999 -0.85100001 0
0.20100001 3.4649999 -0.85100001 0
0.191 3.467 -0.852 0
0.18000001 3.47 -0.85299999 0
0.17 3.484 -0.85600001 0
0.15899999 3.484 -0.85600001 0
0.148 3.4890001 -0.85699999 0
0.138 3.5020001 -0.861 0
0.133 3.5179999 -0.86500001 0
0.122 3.517 -0.86500001 0
0.111 3.513 -0.86400002 0
0.1 3.533 -0.86900002 0
0.090000004 3.546 -0.87300003 0
0.078000002 3.5409999 -0.87099999 0
0.067000002 3.5469999 -0.87300003 0
0.061999999 3.5680001 -0.87900001 0
0.050999999 3.576 -0.88099998 0
0.039999999 3.5880001 -0.884 0
0.028999999 3.586 -0.884 0
0.017999999 3.5880001 -0.884 0
0.0070000002 3.609 -0.88999999 0
-0.0049999999 3.6170001 -0.89200002 0
-0.0099999998 3.6340001 -0.89700001 0
-0.022 3.655 -0.903 0
-0.033 3.6630001 -0.90499997 0
-0.045000002 3.678 -0.91000003 0
-0.056000002 3.6819999 -0.91100001 0
-0.068000004 3.701 -0.91600001 0
-0.079999998 3.7119999 -0.91900003 0
-0.086000003 3.7279999 -0.92400002 0
-0.097999997 3.7390001 -0.92699999 0
-0.11 3.7520001 -0.93099999 0
-0.122 3.767 -0.935 0
-0.134 3.7650001 -0.935 0
-0.33199999 5.849 -1.521 0.41999999
-0.35100001 5.8540001 -1.522 0.38
-0.361 5.869 -1.527 0.27000001
-0.37799999 5.8499999 -1.522 0.47999999
-0.39700001 5.8660002 -1.527 0.38999999
-0.41600001 5.8610001 -1.526 0.38
-0.43399999 5.8600001 -1.526 0.38999999
-0.45199999 5.8559999 -1.525 0.40000001
-0.47099999 5.855 -1.525 0.36000001
-0.47999999 5.8579998 -1.526 0.38
-0.5 5.868 -1.529 0.40000001
-0.51800001 5.8610001 -1.528 0.31999999
-0.53600001 5.8649998 -1.529 0.41
-0.55400002 5.855 -1.527 0.36000001
-0.57200003 5.8460002 -1.525 0.44999999
-0.59200001 5.8600001 -1.529 0.34999999
-0.60299999 5.8759999 -1.534 0.40000001
-0.62099999 5.8740001 -1.534 0.47999999
-0.639 5.868 -1.533 0.30000001
-0.65700001 5.8639998 -1.533 0.41
-0.676 5.8660002 -1.534 0.36000001
-0.69599998 5.8730001 -1.536 0.40000001
-0.71499997 5.881 -1.539 0.36000001
-0.72100002 5.8470001 -1.53 0.41999999
-0.741 5.8600001 -1.534 0.33000001
-0.76200002 5.882 -1.541 0.37
-0.78399998 5.901 -1.5470001 0.36000001
-0.79500002 5.8470001 -1.533 0.38
-0.815 5.8559999 -1.536 0.40000001
-0.83399999 5.8569999 -1.5369999 0.38999999
-0.84799999 5.888 -1.546 0.33000001
-0.86799997 5.895 -1.549 0.31
-0.88599998 5.8899999 -1.548 0.38999999
-0.90100002 5.8629999 -1.541 0.41
-0.921 5.875 -1.546 0.36000001
-0.94099998 5.8779998 -1.5470001 0.41
-0.96200001 5.8920002 -1.552 0.34
-0.97500002 5.915 -1.559 0.43000001
-0.99299997 5.9099998 -1.559 0.34999999
-1.008 5.8829999 -1.552 0.41
-1.025 5.8720002 -1.549 0.38
-1.046 5.882 -1.553 0.38999999
-1.063 5.869 -1.55 0.38
-1.084 5.881 -1.5549999 0.33000001
-1.0930001 5.881 -1.5549999 0.44
-1.1160001 5.8979998 -1.561 0.33000001
-1.1339999 5.8909998 -1.5599999 0.44999999
-1.15 5.8759999 -1.557 0.36000001
-1.168 5.869 -1.556 0.34999999
-1.187 5.8730001 -1.558 0.37
-1.2079999 5.8779998 -1.561 0.31999999
-1.2130001 5.8569999 -1.5549999 0.44999999
-1.226 5.8270001 -1.548 0.38
-1.2460001 5.8309999 -1.55 0.33000001
-1.261 5.8099999 -1.545 0.38
-1.283 5.823 -1.55 0.41
-1.303 5.8260002 -1.552 0.36000001
-1.308 5.8070002 -1.5470001 0.43000001
-1.331 5.8239999 -1.553 0.31
-1.351 5.829 -1.556 0.44999999
-1.367 5.8150001 -1.553 0.38
-1.377 5.7750001 -1.543 0.38
-1.4069999 5.8200002 -1.557 0.34999999
-1.428 5.8249998 -1.5599999 0.40000001
-1.444 5.8130002 -1.557 0.38
-1.451 5.8010001 -1.5549999 0.38999999
-1.4630001 5.7719998 -1.548 0.38
-1.485 5.783 -1.552 0.31
-1.503 5.7779999 -1.552 0.37
-1.517 5.7579999 -1.548 0.37
-1.543 5.7810001 -1.556 0.34999999
-1.5549999 5.7519999 -1.549 0.38
-1.564 5.75 -1.549 0.38999999
-1.582 5.7449999 -1.549 0.38999999
-1.607 5.7659998 -1.556 0.36000001
-1.632 5.7849998 -1.563 0.33000001
-1.653 5.7909999 -1.567 0.38999999
-1.671 5.7859998 -1.567 0.41
-1.689 5.7789998 -1.566 0.41
-1.698 5.7779999 -1.567 0.41
-1.714 5.7649999 -1.564 0.41
-1.737 5.7740002 -1.569 0.34
-1.756 5.7729998 -1.5700001 0.38
-1.775 5.7690001 -1.5700001 0.37
-1.796 5.7719998 -1.573 0.38999999
-1.809 5.7839999 -1.577 0.37
-1.8380001 5.8119998 -1.587 0.41
-1.8559999 5.8060002 -1.587 0.34
-1.882 5.8260002 -1.595 0.33000001
-1.9 5.816 -1.594 0.47
-1.908 5.7789998 -1.584 0.31999999
-1.941 5.8189998 -1.598 0.44
-1.951 5.8179998 -1.598 0.36000001
-1.966 5.802 -1.596 0.41999999
-1.983 5.7940001 -1.595 0.34
-2 5.7820001 -1.594 0.40000001
-2.023 5.7909999 -1.598 0.37
-2.043 5.79 -1.6 0.44
-2.062 5.7849998 -1.6 0.30000001
-2.0799999 5.7789998 -1.6 0.41
-2.0899999 5.777 -1.601 0.33000001
-2.1099999 5.776 -1.602 0.44999999
-2.131 5.777 -1.604 0.36000001
-2.155 5.7859998 -1.609 0.33000001
-2.155 5.7309999 -1.595 0.41
-2.1819999 5.7470002 -1.602 0.38999999
-2.2079999 5.7639999 -1.609 0.36000001
-2.2149999 5.7529998 -1.607 0.34999999
-2.23 5.7389998 -1.604 0.40000001
-2.2509999 5.7389998 -1.607 0.34999999
-2.2690001 5.7319999 -1.607 0.34999999
-2.279 5.7049999 -1.601 0.36000001
-2.296 5.6960001 -1.6 0.36000001
-2.316 5.7189999 -1.608 0.37
-2.3310001 5.7049999 -1.6059999 0.38999999
-2.348 5.6960001 -1.605 0.38999999
-2.368 5.6919999 -1.607 0.37
-2.3840001 5.6810002 -1.605 0.38
-2.414 5.7020001 -1.614 0.28
-2.427 5.684 -1.6109999 0.47999999
-2.4389999 5.6869998 -1.613 0.38999999
-2.4590001 5.684 -1.615 0.34
-2.4820001 5.6890001 -1.618 0.40000001
-2.4990001 5.6799998 -1.618 0.34999999
-2.533 5.7069998 -1.6289999 0.31
-2.5510001 5.7010002 -1.6289999 0.47999999
-2.5680001 5.6890001 -1.628 0.31
-2.579 5.6900001 -1.63 0.33000001
-2.5910001 5.6700001 -1.626 0.34999999
-2.6099999 5.664 -1.627 0.34999999
-2.635 5.671 -1.631 0.30000001
-2.6530001 5.6630001 -1.631 0.40000001
-2.6689999 5.651 -1.63 0.31999999
-2.6919999 5.6550002 -1.6339999 0.34999999
-2.707 5.6389999 -1.632 0.23
-2.714 5.631 -1.631 0.40000001
-2.733 5.6259999 -1.632 0.38999999
-2.7609999 5.6389999 -1.638 0.34
-2.7739999 5.619 -1.635 0.28
-2.7950001 5.618 -1.637 0.34
-2.813 5.6110001 -1.638 0.31999999
-2.822 5.6059999 -1.638 0.33000001
-2.8429999 5.6040001 -1.64 0.31999999
-2.8559999 5.585 -1.637 0.31999999
-2.8710001 5.572 -1.636 0.28999999
-2.895 5.5749998 -1.6390001 0.33000001
-2.9119999 5.5650001 -1.6390001 0.28999999
-2.928 5.5539999 -1.638 0.30000001
-2.9400001 5.5539999 -1.64 0.31999999
-2.964 5.559 -1.6440001 0.33000001
-2.983 5.553 -1.645 0.34
-3.003 5.5469999 -1.647 0.31999999
-3.0209999 5.539 -1.647 0.31999999
-3.0450001 5.5409999 -1.651 0.28999999
-3.072 5.5479999 -1.656 0.34999999
-3.085 5.552 -1.659 0.34999999
-3.1070001 5.5510001 -1.6619999 0.34
-3.1270001 5.546 -1.663 0.28999999
-3.1489999 5.5450001 -1.666 0.36000001
-3.1730001 5.546 -1.67 0.31999999
-3.197 5.5479999 -1.673 0.34
-3.214 5.5359998 -1.673 0.31
-3.243 5.546 -1.679 0.31999999
-3.2539999 5.5440001 -1.681 0.33000001
-3.28 5.5489998 -1.6849999 0.34
-3.2980001 5.54 -1.686 0.33000001
-3.3269999 5.5500002 -1.692 0.31999999
-3.346 5.5409999 -1.693 0.34
-3.3710001 5.5440001 -1.697 0.34
-3.3829999 5.5430002 -1.699 0.34
-3.4059999 5.5430002 -1.702 0.30000001
-3.4289999 5.54 -1.705 0.36000001
-3.454 5.5419998 -1.709 0.38
-3.4760001 5.5380001 -1.711 0.28999999
-3.503 5.5430002 -1.717 0.28999999
-3.523 5.5359998 -1.7180001 0.38
-3.539 5.5430002 -1.722 0.33000001
-3.562 5.54 -1.725 0.41999999
-3.589 5.5440001 -1.73 0.34999999
-3.6110001 5.54 -1.732 0.34
-3.635 5.539 -1.7359999 0.34
-3.655 5.5300002 -1.737 0.34
-3.6830001 5.5349998 -1.742 0.34
-3.697 5.5370002 -1.745 0.34999999
-3.721 5.5370002 -1.749 0.27000001
-3.7379999 5.5229998 -1.748 0.40000001
-3.766 5.5279999 -1.753 0.28999999
-3.79 5.5250001 -1.757 0.41
-3.812 5.5209999 -1.7589999 0.37
-3.839 5.5219998 -1.7640001 0.27000001
-3.848 5.5180001 -1.7640001 0.47999999
-3.8759999 5.52 -1.7690001 0.34
-3.8959999 5.5120001 -1.771 0.30000001
-3.902 5.4840002 -1.765 0.34
-3.924 5.4780002 -1.767 0.43000001
-3.9260001 5.4439998 -1.76 0.25999999
-3.9159999 5.3940001 -1.747 0.31999999
-3.9219999 5.3850002 -1.7460001 0.30000001
-3.9319999 5.3629999 -1.743 0.38999999
-3.948 5.349 -1.742 0.31999999
-3.9690001 5.3429999 -1.744 0.38
-4.0240002 5.381 -1.762 0.38
-4.0500002 5.381 -1.766 0.31
-4.079 5.3850002 -1.772 0.28999999
-4.0960002 5.3899999 -1.776 0.30000001
-4.112 5.375 -1.776 0.28
-4.125 5.3579998 -1.774 0.34
-4.1490002 5.3540001 -1.777 0.28999999
-4.1700001 5.3470001 -1.779 0.31999999
-4.1799998 5.3249998 -1.776 0.28999999
-4.198 5.3130002 -1.777 0.30000001
-4.2119999 5.3140001 -1.779 0.30000001
-4.2319999 5.3049998 -1.781 0.30000001
-4.2480001 5.29 -1.78 0.31999999
-4.2659998 5.2789998 -1.781 0.30000001
-4.2789998 5.2610002 -1.779 0.25999999
-4.296 5.2490001 -1.78 0.28999999
-4.3130002 5.2350001 -1.78 0.28999999
-4.3260002 5.2340002 -1.7819999 0.33000001
-4.336 5.2129998 -1.779 0.28
-4.3610001 5.21 -1.783 0.30000001
-4.3759999 5.1950002 -1.783 0.28999999
-4.3940001 5.1820002 -1.783 0.30000001
-4.4089999 5.1669998 -1.783 0.30000001
-4.4289999 5.158 -1.784 0.34
-4.434 5.1479998 -1.783 0.28999999
-4.4520001 5.1350002 -1.784 0.30000001
-4.4689999 5.1230001 -1.784 0.31
-4.4840002 5.1069999 -1.784 0.30000001
-4.5 5.0929999 -1.784 0.33000001
-4.5149999 5.0780001 -1.783 0.31
-4.5320001 5.0650001 -1.784 0.30000001
-4.5419998 5.0609999 -1.785 0.28999999
-4.5599999 5.0479999 -1.785 0.33000001
-4.5700002 5.0279999 -1.783 0.28
-4.5939999 5.0219998 -1.786 0.28999999
-4.6170001 5.0159998 -1.79 0.34999999
-4.631 4.9980001 -1.788 0.27000001
-4.6360002 4.973 -1.784 0.28999999
-4.6500001 4.9720001 -1.7869999 0.31
-4.6669998 4.9590001 -1.7869999 0.30000001
-4.6849999 4.947 -1.788 0.31
-4.7030001 4.9349999 -1.79 0.31
-4.7119999 4.914 -1.7869999 0.30000001
-4.7319999 4.9029999 -1.788 0.28999999
-4.7480001 4.8889999 -1.789 0.27000001
-4.7600002 4.8860002 -1.791 0.27000001
-4.7750001 4.8709998 -1.791 0.28999999
-4.7839999 4.849 -1.788 0.27000001
-4.8000002 4.836 -1.788 0.18000001
-4.8130002 4.8179998 -1.7869999 0.30000001
-4.8319998 4.8070002 -1.789 0.23
-4.868 4.8119998 -1.7970001 0
-4.848 4.777 -1.786 0.050000001
-4.8699999 4.7690001 -1.789 0.16
-4.8860002 4.7550001 -1.79 0.20999999
-4.9039998 4.7420001 -1.791 0.19
-4.9159999 4.724 -1.79 0.27000001
-4.928 4.7059999 -1.788 0.23
-4.9450002 4.6929998 -1.79 0.25999999
-4.9489999 4.6810002 -1.788 0.25999999
-4.9650002 4.6669998 -1.788 0.25999999
-4.974 4.6459999 -1.786 0.25
-4.9949999 4.6370001 -1.789 0.20999999
-5.0040002 4.6160002 -1.7869999 0.25
-5.02 4.6009998 -1.7869999 0.25
-5.0370002 4.5879998 -1.788 0.25999999
-5.04 4.5760002 -1.7869999 0.25999999
-5.0560002 4.5619998 -1.7869999 0.18000001
-5.0780001 4.552 -1.79 0.27000001
-5.086 4.5310001 -1.788 0.23999999
-5.1020002 4.5170002 -1.788 0.27000001
-5.1139998 4.4990001 -1.788 0.27000001
-5.1389999 4.4920001 -1.7920001 0.2
-5.1399999 4.4790001 -1.79 0.27000001
-5.1599998 4.4679999 -1.7920001 0.23999999
-5.1750002 4.4530001 -1.7920001 0.25
-5.191 4.4380002 -1.793 0.19
-5.1999998 4.4180002 -1.791 0.28999999
-5.21 4.3979998 -1.79 0.25
-5.2360001 4.4060001 -1.7970001 0.23
-5.2449999 4.3850002 -1.795 0.25
-5.256 4.3660002 -1.794 0.23999999
-5.2839999 4.362 -1.799 0.2
-5.2950001 4.3429999 -1.798 0.23
-5.3039999 4.323 -1.7970001 0.23
-5.3210001 4.309 -1.798 0.11
-5.3039999 4.2810001 -1.789 0.039999999
-5.3130002 4.2600002 -1.7869999 0.15000001
-5.3410001 4.256 -1.793 0.2
-5.3509998 4.237 -1.7920001 0.23
-5.3600001 4.2160001 -1.79 0.27000001
-5.3779998 4.2030001 -1.7920001 0.28
-5.388 4.184 -1.791 0.27000001
-5.401 4.1799998 -1.793 0.25999999
-5.408 4.158 -1.791 0.30000001
-5.4299998 4.1479998 -1.794 0.23999999
-5.434 4.1240001 -1.791 0.30000001
-5.4499998 4.1090002 -1.7920001 0.25999999
-5.461 4.0910001 -1.791 0.27000001
-5.4629998 4.066 -1.7869999 0.28999999
-5.4829998 4.0679998 -1.7920001 0.27000001
-5.4980001 4.0510001 -1.793 0.28999999
-5.5040002 4.0300002 -1.791 0.27000001
-5.5209999 4.0159998 -1.7920001 0.27000001
-5.5349998 3.9990001 -1.793 0.30000001
-5.54 3.9760001 -1.79 0.27000001
-5.5479999 3.9560001 -1.788 0.30000001
-5.5619998 3.9519999 -1.791 0.27000001
-5.573 3.934 -1.791 0.28
-5.5819998 3.914 -1.79 0.30000001
-5.5970001 3.8989999 -1.791 0.25999999
-5.6020002 3.8759999 -1.788 0.28999999
-5.6279998 3.868 -1.793 0.31999999
-5.632 3.845 -1.79 0.31
-5.6430001 3.839 -1.7920001 0.28999999
-5.6490002 3.8169999 -1.79 0.27000001
-5.6620002 3.8 -1.79 0.28999999
-5.6690001 3.779 -1.788 0.30000001
-5.6890001 3.767 -1.791 0.30000001
-5.6999998 3.7479999 -1.791 0.30000001
-5.7030001 3.7249999 -1.788 0.31
-5.7160001 3.72 -1.79 0.28999999
-5.73 3.704 -1.791 0.28
-5.737 3.6830001 -1.79 0.27000001
-5.757 3.6700001 -1.7920001 0.31
-5.7670002 3.651 -1.7920001 0.27000001
-5.776 3.632 -1.791 0.30000001
-5.7880001 3.6140001 -1.791 0.28999999
-5.7870002 3.5999999 -1.789 0.25999999
-5.8109999 3.5899999 -1.793 0.31
-5.823 3.572 -1.793 0.31
-5.835 3.5550001 -1.794 0.28999999
-5.8400002 3.5320001 -1.7920001 0.30000001
-5.8540001 3.516 -1.793 0.30000001
-5.8670001 3.4990001 -1.793 0.28999999
-5.8709998 3.4879999 -1.793 0.30000001
-5.8899999 3.4749999 -1.795 0.30000001
-5.8829999 3.4460001 -1.79 0.30000001
-5.9130001 3.4389999 -1.796 0.27000001
-5.9180002 3.4159999 -1.794 0.28999999
-5.928 3.398 -1.794 0.28999999
-5.9349999 3.3889999 -1.794 0.28999999
-5.934 3.3640001 -1.791 0.31
-5.967 3.358 -1.798 0.25999999
-5.9590001 3.329 -1.7920001 0.30000001
-5.9759998 3.3139999 -1.794 0.27000001
-5.9910002 3.2980001 -1.795 0.28
-5.9980001 3.277 -1.794 0.27000001
-6.0050001 3.2679999 -1.795 0.28999999
-6.0170002 3.25 -1.795 0.27000001
-6.0339999 3.2349999 -1.798 0.25999999
-6.0440001 3.2160001 -1.798 0.27000001
-6.0609999 3.201 -1.8 0.25
-6.0609999 3.1760001 -1.7970001 0.28999999
-6.0760002 3.1600001 -1.798 0.28999999
-6.086 3.1530001 -1.8 0.25999999
-6.099 3.1359999 -1.801 0.25
-6.1110001 3.118 -1.801 0.19
-6.112 3.0940001 -1.799 0.28999999
-6.1469998 3.0880001 -1.807 0.22
-6.1360002 3.0580001 -1.8 0.20999999
-6.1700001 3.0510001 -1.808 0
-6.1469998 3.027 -1.799 0
-6.164 3.0109999 -1.801 0
-6.1700001 2.99 -1.8 0
-6.5409999 1.982 -1.794 0
-6.5879998 1.974 -1.806 0
-6.5700002 1.946 -1.799 0.02
-6.5960002 1.931 -1.8049999 0.079999998
-6.6009998 1.91 -1.8049999 0.2
-6.605 1.8890001 -1.804 0.25999999
-6.6170001 1.881 -1.807 0.27000001
-6.6279998 1.862 -1.808 0.28
-6.6339998 1.841 -1.808 0.30000001
-6.6440001 1.821 -1.8099999 0.30000001
-6.6360002 1.7970001 -1.806 0.25
-6.6529999 1.779 -1.809 0.31999999
-6.6479998 1.755 -1.806 0.28
-6.6479998 1.744 -1.8049999 0.28999999
-6.6560001 1.724 -1.806 0.31999999
-6.6719999 1.706 -1.809 0.30000001
-6.6739998 1.684 -1.808 0.28999999
-6.6719999 1.661 -1.806 0.27000001
-6.6919999 1.6440001 -1.8099999 0.31999999
-6.6989999 1.623 -1.811 0.28999999
-6.698 1.612 -1.8099999 0.28999999
-6.7030001 1.591 -1.8099999 0.27000001
-6.6999998 1.568 -1.807 0.31999999
-6.7069998 1.5470001 -1.808 0.30000001
-6.7249999 1.529 -1.812 0.27000001
-6.711 1.5039999 -1.806 0.28999999
-6.7189999 1.484 -1.807 0.27000001
-6.7179999 1.472 -1.806 0.28
-6.7259998 1.452 -1.807 0.28999999
-6.7399998 1.433 -1.8099999 0.28999999
-6.7309999 1.409 -1.806 0.27000001
-6.757 1.392 -1.812 0.27000001
-6.763 1.3710001 -1.813 0.19
-6.756 1.348 -1.8099999 0.28999999
-6.7540002 1.336 -1.808 0.25
-6.7579999 1.3150001 -1.808 0.28
-6.7639999 1.294 -1.809 0.25999999
-6.7779999 1.275 -1.812 0.17
-6.7740002 1.252 -1.8099999 0.28999999
-6.7719998 1.23 -1.808 0.23999999
-6.7859998 1.21 -1.811 0.25
-6.7839999 1.199 -1.8099999 0.2
-6.7820001 1.176 -1.808 0.27000001
-6.8039999 1.158 -1.813 0.23
-6.8039999 1.136 -1.812 0.22
-6.8000002 1.114 -1.8099999 0.25999999
-6.8070002 1.0930001 -1.811 0.25
-6.8109999 1.072 -1.811 0.19
-6.8109999 1.061 -1.811 0.25999999
-6.8179998 1.04 -1.812 0.23
-6.8189998 1.018 -1.811 0.16
-6.816 0.99599999 -1.8099999 0.28
-6.829 0.97600001 -1.812 0.23
-6.8299999 0.954 -1.812 0.18000001
-6.8299999 0.94300002 -1.811 0.25999999
-6.8270001 0.921 -1.8099999 0.20999999
-6.8369999 0.89999998 -1.812 0.25
-6.8439999 0.87900001 -1.813 0.25
-6.8429999 0.85699999 -1.812 0.2
-6.8460002 0.83600003 -1.812 0.27000001
-6.8410001 0.81300002 -1.8099999 0.25
-6.8400002 0.80199999 -1.809 0.25999999
-6.8499999 0.78200001 -1.811 0.28999999
-6.8530002 0.75999999 -1.811 0.25
-6.849 0.73799998 -1.8099999 0.27000001
-6.8530002 0.71700001 -1.8099999 0.27000001
-6.8540001 0.69499999 -1.8099999 0.27000001
-6.8499999 0.67299998 -1.808 0.27000001
-6.8649998 0.66399997 -1.812 0.25999999
-6.8629999 0.64200002 -1.811 0.28
-6.855 0.61900002 -1.808 0.28999999
-6.8670001 0.59799999 -1.811 0.28
-6.882 0.57800001 -1.814 0.25999999
-6.8720002 0.55500001 -1.811 0.28
-6.8889999 0.53500003 -1.8150001 0.27000001
-6.8800001 0.52399999 -1.813 0.28
-6.8839998 0.50199997 -1.813 0.28
-6.895 0.48100001 -1.816 0.28
-6.8850002 0.45899999 -1.813 0.28999999
-6.8850002 0.43700001 -1.812 0.27000001
-6.8860002 0.41499999 -1.812 0.28999999
-6.8990002 0.39399999 -1.8150001 0.28999999
-6.8860002 0.38299999 -1.812 0.28999999
-6.8990002 0.36199999 -1.8150001 0.30000001
-6.8940001 0.34 -1.813 0.28999999
-6.9029999 0.31799999 -1.8150001 0.31999999
-6.8940001 0.296 -1.813 0.31
-6.901 0.27500001 -1.814 0.28999999
-6.901 0.25299999 -1.814 0.28999999
-6.8979998 0.242 -1.813 0.28999999
-6.8969998 0.22 -1.813 0.28999999
-6.9050002 0.199 -1.8150001 0.33000001
-6.8940001 0.177 -1.812 0.25999999
-6.9159999 0.156 -1.818 0.31999999
-6.9109998 0.134 -1.816 0.30000001
-6.9169998 0.102 -1.818 0.28
-6.9109998 0.079999998 -1.816 0.31999999
-6.914 0.057999998 -1.817 0.28999999
-6.9060001 0.035999998 -1.814 0.28999999
-6.9180002 0.026000001 -1.818 0.27000001
-6.9219999 0.0040000002 -1.819 0.28
-6.9219999 -0.017999999 -1.819 0.28999999
-6.9310002 -0.039999999 -1.821 0.28999999
-6.9169998 -0.061000001 -1.818 0.27000001
-6.9109998 -0.082999997 -1.816 0.31
-6.915 -0.105 -1.817 0.27000001
-6.9070001 -0.116 -1.8150001 0.28999999
-6.9089999 -0.13699999 -1.8150001 0.28
-6.9250002 -0.15899999 -1.8200001 0.25
-6.915 -0.18099999 -1.818 0.19
-6.9029999 -0.20200001 -1.814 0.28999999
-6.9120002 -0.22400001 -1.817 0.25
-6.927 -0.24600001 -1.821 0.23
-6.9169998 -0.257 -1.819 0.18000001
-6.9159999 -0.27900001 -1.819 0.28999999
-6.9130001 -0.30000001 -1.818 0.25
-6.9239998 -0.32300001 -1.821 0.25999999
-6.9169998 -0.34400001 -1.8200001 0.18000001
-6.9159999 -0.366 -1.8200001 0.28
-6.9109998 -0.377 -1.819 0.23
-6.914 -0.398 -1.8200001 0.25999999
-6.9070001 -0.41999999 -1.818 0.23
-6.902 -0.44100001 -1.817 0.25
-6.9099998 -0.46399999 -1.8200001 0.23
-6.9060001 -0.48500001 -1.819 0.18000001
-6.9050002 -0.50700003 -1.819 0.27000001
-6.908 -0.51800001 -1.8200001 0.25
-6.908 -0.54000002 -1.821 0.2
-6.8990002 -0.56099999 -1.819 0.25999999
-6.9029999 -0.583 -1.8200001 0.23999999
-6.9029999 -0.60500002 -1.821 0.19
-6.895 -0.62599999 -1.819 0.27000001
-6.8909998 -0.648 -1.819 0.25
-6.8839998 -0.65799999 -1.817 0.25999999
-6.8940001 -0.68099999 -1.8200001 0.28
-6.9050002 -0.704 -1.824 0.20999999
-6.8800001 -0.72299999 -1.818 0.25
-6.8850002 -0.745 -1.8200001 0.25
-6.8870001 -0.76700002 -1.821 0.25999999
-6.8899999 -0.79000002 -1.822 0.23
-6.8790002 -0.79900002 -1.8200001 0.18000001
-6.8769999 -0.82099998 -1.8200001 0.30000001
-6.8759999 -0.84299999 -1.8200001 0.25
-6.869 -0.86400002 -1.819 0.25
-6.8649998 -0.88499999 -1.819 0.28999999
-6.8639998 -0.90700001 -1.819 0.28999999
-6.869 -0.93000001 -1.821 0.27000001
-6.8610001 -0.94 -1.8200001 0.28
-6.868 -0.963 -1.822 0.27000001
-6.8530002 -0.98199999 -1.819 0.30000001
