# .PCD v0.7 - Point Cloud Data file format
VERSION 0.7
FIELDS x y z intensity
SIZE 4 4 4 4
TYPE F F F F
COUNT 1 1 1 1
WIDTH 1391
HEIGHT 1
VIEWPOINT 0 0 0 1 0 0 0
POINTS 1391
DATA ascii
4.2030001 -3.0469999 -1.54 0.33000001
4.2129998 -3.0339999 -1.54 0.31999999
4.23 -3.026 -1.543 0.30000001
4.223 -3.0009999 -1.536 0.30000001
4.2490001 -3 -1.543 0.34999999
4.2659998 -2.9920001 -1.546 0.31999999
4.2620001 -2.9779999 -1.5420001 0.33000001
4.2729998 -2.9660001 -1.543 0.33000001
4.2740002 -2.947 -1.54 0.28
4.2820001 -2.9330001 -1.539 0.30000001
4.3039999 -2.928 -1.544 0.34
4.3130002 -2.914 -1.544 0.28
4.3080001 -2.891 -1.539 0.33000001
4.3249998 -2.8929999 -1.544 0.33000001
4.3400002 -2.8829999 -1.546 0.30000001
4.3439999 -2.8670001 -1.544 0.34
4.3610001 -2.858 -1.5470001 0.31999999
4.362 -2.839 -1.544 0.28999999
4.3740001 -2.8280001 -1.545 0.33000001
4.3979998 -2.823 -1.551 0.33000001
4.3990002 -2.8139999 -1.55 0.33000001
4.401 -2.796 -1.5470001 0.31
4.4250002 -2.7920001 -1.553 0.31999999
4.427 -2.7739999 -1.55 0.30000001
4.4359999 -2.76 -1.55 0.34
4.4460001 -2.747 -1.551 0.28999999
4.461 -2.737 -1.553 0.33000001
4.46 -2.727 -1.551 0.31999999
4.4720001 -2.7149999 -1.553 0.28999999
4.487 -2.7049999 -1.5549999 0.34
4.4920001 -2.6889999 -1.554 0.31
4.4959998 -2.6719999 -1.552 0.28999999
4.5139999 -2.6630001 -1.556 0.34999999
4.5159998 -2.645 -1.553 0.33000001
4.5250001 -2.641 -1.5549999 0.31999999
4.5300002 -2.625 -1.554 0.28999999
4.546 -2.615 -1.557 0.33000001
4.5510001 -2.599 -1.556 0.30000001
4.5560002 -2.5829999 -1.5549999 0.30000001
4.5710001 -2.572 -1.557 0.34
4.5799999 -2.5680001 -1.559 0.31999999
4.5809999 -2.55 -1.556 0.28999999
4.5939999 -2.5380001 -1.558 0.33000001
4.6110001 -2.529 -1.561 0.33000001
4.6199999 -2.5150001 -1.562 0.31999999
4.625 -2.4990001 -1.561 0.27000001
4.6360002 -2.4860001 -1.562 0.34999999
4.638 -2.4779999 -1.561 0.28999999
4.6630001 -2.4719999 -1.567 0.34
4.6669998 -2.4560001 -1.566 0.31999999
4.6700001 -2.438 -1.564 0.28
4.6789999 -2.425 -1.5650001 0.33000001
4.6950002 -2.414 -1.568 0.31
4.697 -2.3970001 -1.566 0.31
4.7049999 -2.391 -1.567 0.30000001
4.717 -2.3789999 -1.569 0.34
4.7280002 -2.3659999 -1.5700001 0.31
4.7389998 -2.3529999 -1.572 0.31999999
4.7449999 -2.3369999 -1.571 0.31
4.7550001 -2.3239999 -1.572 0.31999999
4.7550001 -2.3150001 -1.571 0.28999999
4.7709999 -2.3039999 -1.574 0.33000001
4.7820001 -2.29 -1.575 0.28999999
4.7909999 -2.276 -1.576 0.31999999
4.803 -2.2639999 -1.5779999 0.31
4.803 -2.2449999 -1.575 0.31
4.8169999 -2.233 -1.5779999 0.31999999
4.8189998 -2.2249999 -1.577 0.31
4.829 -2.2119999 -1.5779999 0.30000001
4.842 -2.1989999 -1.58 0.30000001
4.8470001 -2.1830001 -1.58 0.30000001
4.8590002 -2.1700001 -1.581 0.28999999
4.8660002 -2.155 -1.581 0.33000001
4.8740001 -2.1400001 -1.582 0.31999999
4.8790002 -2.1329999 -1.5829999 0.31
4.882 -2.1159999 -1.581 0.28999999
4.8979998 -2.105 -1.584 0.30000001
4.901 -2.0880001 -1.5829999 0.31
4.9109998 -2.0739999 -1.584 0.31999999
4.868 -2.0380001 -1.567 0.28
4.8709998 -2.0209999 -1.566 0.27000001
4.881 -2.016 -1.569 0.30000001
4.8520002 -1.9859999 -1.556 0.41
4.8959999 -1.9859999 -1.569 0.28999999
4.8309999 -1.942 -1.545 0.33000001
4.855 -1.934 -1.551 0.43000001
4.8730001 -1.924 -1.5549999 0.33000001
4.8969998 -1.915 -1.561 0.34
4.9359999 -1.9220001 -1.573 0.44999999
4.947 -1.908 -1.575 0.40000001
4.967 -1.898 -1.58 0.34
4.9689999 -1.881 -1.579 0.41999999
4.9879999 -1.87 -1.5829999 0.38999999
5.0029998 -1.858 -1.586 0.37
4.9910002 -1.845 -1.581 0.37
5.0180001 -1.837 -1.589 0.37
5.0489998 -1.831 -1.597 0.49000001
5.0640001 -1.818 -1.6 0.34
5.0780001 -1.8049999 -1.603 0.30000001
5.0819998 -1.789 -1.603 0.28
5.092 -1.774 -1.604 0.27000001
5.1030002 -1.7690001 -1.607 0.28999999
5.1230001 -1.758 -1.612 0.33000001
5.165 -1.7539999 -1.624 0.30000001
5.2010002 -1.749 -1.6339999 0.25999999
5.237 -1.743 -1.645 0.20999999
5.2709999 -1.7359999 -1.654 0.34
5.2849998 -1.7309999 -1.658 0.40000001
5.29 -1.715 -1.658 0.41999999
5.2979999 -1.699 -1.659 0.41
5.335 -1.692 -1.67 0.34
5.3699999 -1.6849999 -1.679 0.38999999
5.3899999 -1.673 -1.684 0.41999999
5.4169998 -1.6619999 -1.692 0.34999999
5.428 -1.6569999 -1.6950001 0.28999999
5.441 -1.642 -1.697 0.31
5.4530001 -1.627 -1.7 0.30000001
5.4530001 -1.608 -1.698 0.28999999
5.4580002 -1.591 -1.698 0.31
5.4590001 -1.573 -1.696 0.33000001
5.4419999 -1.549 -1.689 0.28999999
5.4460001 -1.541 -1.6900001 0.28999999
5.4699998 -1.529 -1.696 0.27000001
5.4450002 -1.5039999 -1.686 0.30000001
5.4569998 -1.489 -1.689 0.28
5.4780002 -1.476 -1.694 0.27000001
5.4720001 -1.456 -1.6900001 0.30000001
5.4819999 -1.4400001 -1.692 0.30000001
5.48 -1.431 -1.691 0.31999999
5.474 -1.411 -1.687 0.27000001
5.4889998 -1.396 -1.691 0.25
5.5009999 -1.381 -1.693 0.27000001
5.4920001 -1.36 -1.689 0.25999999
5.4910002 -1.342 -1.687 0.2
5.5139999 -1.329 -1.693 0.31999999
5.5139999 -1.3200001 -1.693 0.22
5.5139999 -1.302 -1.692 0.31999999
5.506 -1.281 -1.687 0.18000001
5.5229998 -1.267 -1.692 0.27000001
5.526 -1.25 -1.692 0.23999999
5.5320001 -1.233 -1.692 0.28999999
5.5359998 -1.215 -1.692 0.23
5.5419998 -1.207 -1.693 0.23999999
5.5510001 -1.191 -1.6950001 0.23
5.5469999 -1.1720001 -1.693 0.2
5.5570002 -1.156 -1.6950001 0.25
5.5840001 -1.1440001 -1.7029999 0.20999999
5.566 -1.1210001 -1.6950001 0.11
5.573 -1.114 -1.697 0.16
5.586 -1.098 -1.7 0.11
5.5739999 -1.0779999 -1.6950001 0.18000001
5.5869999 -1.062 -1.698 0.11
5.5960002 -1.046 -1.7 0.18000001
5.5819998 -1.025 -1.6950001 0.11
5.5999999 -1.01 -1.7 0.18000001
5.6100001 -1.003 -1.702 0.12
5.5999999 -0.98299998 -1.698 0.2
5.6100001 -0.96600002 -1.7 0.2
5.619 -0.94999999 -1.702 0.23
5.6269999 -0.93300003 -1.704 0.2
5.6259999 -0.91500002 -1.7029999 0.20999999
5.6220002 -0.89600003 -1.7 0.1
5.618 -0.88599998 -1.698 0.20999999
5.632 -0.87 -1.702 0.20999999
5.6420002 -0.85399997 -1.704 0.1
5.6479998 -0.83600003 -1.706 0.18000001
5.6430001 -0.81800002 -1.7029999 0.20999999
5.638 -0.79900002 -1.701 0.18000001
5.645 -0.78200001 -1.702 0.050000001
5.6420002 -0.77200001 -1.701 0.17
5.6589999 -0.75700003 -1.706 0.2
5.6490002 -0.73699999 -1.701 0.1
5.6700001 -0.722 -1.707 0.2
5.6700001 -0.704 -1.707 0.11
5.6690001 -0.685 -1.706 0.16
5.6659999 -0.676 -1.704 0.12
5.6760001 -0.65899998 -1.707 0.090000004
5.678 -0.64099997 -1.707 0.18000001
5.678 -0.62300003 -1.706 0.22
5.678 -0.60500002 -1.706 0.23
5.6630001 -0.58499998 -1.7 0.18000001
5.6849999 -0.56999999 -1.707 0.25999999
5.6859999 -0.56099999 -1.707 0.20999999
5.6729999 -0.542 -1.702 0.20999999
5.6880002 -0.52499998 -1.706 0.19
5.6849999 -0.50700003 -1.705 0.12
5.6700001 -0.48699999 -1.7 0.2
5.6830001 -0.47099999 -1.7029999 0.20999999
5.6799998 -0.45199999 -1.702 0.13
5.6789999 -0.44299999 -1.701 0.2
5.6810002 -0.42500001 -1.701 0.2
5.697 -0.40900001 -1.706 0.27000001
5.6760001 -0.389 -1.699 0.22
5.6880002 -0.37200001 -1.7029999 0.27000001
5.6890001 -0.354 -1.7029999 0.27000001
5.678 -0.345 -1.699 0.28
5.6739998 -0.32600001 -1.697 0.19
5.6999998 -0.31 -1.705 0.27000001
5.678 -0.29100001 -1.698 0.23999999
5.6989999 -0.27399999 -1.704 0.25999999
5.6929998 -0.25600001 -1.702 0.31999999
5.6880002 -0.23800001 -1.7 0.28
5.6859999 -0.229 -1.7 0.25
5.7020001 -0.211 -1.704 0.23
5.6859999 -0.193 -1.699 0.30000001
5.684 -0.175 -1.698 0.28
5.6849999 -0.15700001 -1.698 0.25999999
5.6989999 -0.14 -1.7029999 0.25999999
5.6820002 -0.121 -1.697 0.16
5.6900001 -0.113 -1.7 0.30000001
5.684 -0.094999999 -1.698 0.25
5.7020001 -0.077 -1.7029999 0.25
5.6789999 -0.059 -1.696 0.18000001
5.6939998 -0.041000001 -1.701 0.30000001
5.6929998 -0.023 -1.7 0.25
5.6869998 -0.0049999999 -1.698 0.27000001
5.4640002 0.0099999998 -1.6900001 0.34999999
5.4660001 0.027000001 -1.6900001 0.25999999
5.46 0.045000002 -1.689 0.31
5.467 0.061999999 -1.691 0.31
5.454 0.07 -1.687 0.28
5.4590001 0.086999997 -1.689 0.36000001
5.4650002 0.105 -1.6900001 0.28999999
5.4450002 0.121 -1.684 0.28999999
5.4640002 0.139 -1.6900001 0.38
5.4499998 0.156 -1.686 0.28999999
5.4549999 0.17299999 -1.688 0.33000001
5.4549999 0.182 -1.688 0.28
5.4640002 0.199 -1.691 0.31
5.4520001 0.21600001 -1.687 0.28
5.4439998 0.233 -1.6849999 0.31
5.441 0.25 -1.684 0.31
5.4380002 0.26699999 -1.684 0.31999999
5.4380002 0.27500001 -1.684 0.31
5.4460001 0.29300001 -1.687 0.31
5.4359999 0.30899999 -1.684 0.33000001
5.4390001 0.32699999 -1.6849999 0.27000001
5.4400001 0.34400001 -1.6849999 0.30000001
5.427 0.36000001 -1.682 0.31999999
5.4299998 0.377 -1.683 0.28999999
5.4429998 0.38699999 -1.687 0.23
5.4429998 0.40400001 -1.688 0.31999999
5.4320002 0.421 -1.6849999 0.18000001
5.4419999 0.43900001 -1.689 0.30000001
5.4330001 0.45500001 -1.686 0.22
5.4549999 0.47400001 -1.694 0.23
5.4250002 0.48899999 -1.684 0.15000001
5.4330001 0.498 -1.687 0.31
5.4359999 0.51599997 -1.689 0.22
5.4260001 0.53200001 -1.686 0.18000001
5.4460001 0.551 -1.693 0.28999999
5.4460001 0.56800002 -1.694 0.23999999
5.4330001 0.58399999 -1.6900001 0.27000001
5.4289999 0.60100001 -1.689 0.25999999
5.4429998 0.611 -1.694 0.25
5.4489999 0.62900001 -1.697 0.23
5.4349999 0.64499998 -1.693 0.25
5.4390001 0.66299999 -1.6950001 0.25
5.4349999 0.68000001 -1.694 0.23
5.4289999 0.69599998 -1.693 0.27000001
5.415 0.70300001 -1.689 0.16
5.4419999 0.72399998 -1.699 0.28999999
5.421 0.73900002 -1.692 0.25
5.4229999 0.75599998 -1.694 0.2
5.4450002 0.77700001 -1.702 0.28
5.427 0.792 -1.697 0.23
5.4190001 0.80800003 -1.6950001 0.16
5.4330001 0.82800001 -1.701 0.25999999
5.4169998 0.83399999 -1.6950001 0.23
5.4130001 0.85000002 -1.6950001 0.16
5.414 0.86799997 -1.696 0.28
5.4029999 0.884 -1.694 0.23999999
5.395 0.89999998 -1.692 0.25999999
5.4029999 0.91900003 -1.6950001 0.25999999
5.3850002 0.92400002 -1.6900001 0.27000001
5.414 0.94700003 -1.701 0.23999999
5.3940001 0.96100003 -1.6950001 0.16
5.3969998 0.97899997 -1.697 0.31999999
5.3899999 0.995 -1.6950001 0.23
5.3889999 1.012 -1.696 0.28999999
5.3850002 1.029 -1.696 0.25
5.3889999 1.039 -1.698 0.28
5.382 1.0549999 -1.697 0.30000001
5.3829999 1.073 -1.698 0.23999999
5.3740001 1.0880001 -1.696 0.28999999
5.3629999 1.104 -1.694 0.30000001
5.3590002 1.12 -1.694 0.28
5.3600001 1.138 -1.6950001 0.25999999
5.3629999 1.148 -1.697 0.25999999
5.3629999 1.165 -1.698 0.33000001
5.336 1.177 -1.6900001 0.31999999
5.3499999 1.198 -1.696 0.23
5.336 1.212 -1.692 0.34
5.3390002 1.2309999 -1.6950001 0.31
5.3319998 1.238 -1.693 0.28999999
5.3239999 1.253 -1.692 0.28
5.3239999 1.271 -1.693 0.31
5.3179998 1.2869999 -1.692 0.28
5.3140001 1.304 -1.692 0.30000001
5.2989998 1.318 -1.689 0.28999999
5.2940001 1.335 -1.689 0.33000001
5.283 1.341 -1.6849999 0.27000001
5.2969999 1.362 -1.692 0.36000001
5.2969999 1.38 -1.693 0.31
5.2779999 1.392 -1.688 0.28
5.2659998 1.4069999 -1.6849999 0.28999999
5.2610002 1.423 -1.6849999 0.28999999
5.2550001 1.439 -1.6849999 0.33000001
5.2579999 1.449 -1.687 0.27000001
5.2519999 1.465 -1.686 0.33000001
5.2449999 1.4809999 -1.6849999 0.30000001
5.2480001 1.5 -1.688 0.34
5.2509999 1.518 -1.6900001 0.27000001
5.2350001 1.5319999 -1.687 0.31
5.2160001 1.544 -1.682 0.31999999
5.2309999 1.557 -1.688 0.31
5.2259998 1.574 -1.688 0.34
5.2160001 1.5880001 -1.686 0.28999999
5.2270002 1.61 -1.692 0.38
5.2020001 1.62 -1.6849999 0.23999999
5.2059999 1.6390001 -1.688 0.34
5.2140002 1.651 -1.692 0.34999999
5.1890001 1.661 -1.6849999 0.28
5.191 1.6799999 -1.687 0.28
5.1989999 1.7 -1.692 0.34999999
5.1810002 1.712 -1.687 0.31
5.1609998 1.723 -1.682 0.25999999
5.177 1.747 -1.6900001 0.38
5.1620002 1.751 -1.6849999 0.36000001
5.1669998 1.771 -1.689 0.25999999
5.1599998 1.786 -1.689 0.25
5.1500001 1.801 -1.687 0.33000001
5.1389999 1.816 -1.6849999 0.33000001
5.1500001 1.8380001 -1.691 0.31999999
5.131 1.849 -1.687 0.28
5.1300001 1.858 -1.687 0.31
5.1370001 1.8789999 -1.692 0.34999999
5.1269999 1.893 -1.6900001 0.28
5.1160002 1.9069999 -1.689 0.28999999
5.1209998 1.928 -1.692 0.30000001
5.0999999 1.938 -1.687 0.28999999
5.0999999 1.956 -1.689 0.30000001
5.105 1.9680001 -1.692 0.31999999
5.0960002 1.982 -1.691 0.30000001
5.086 1.997 -1.6900001 0.31999999
5.0879998 2.017 -1.693 0.31999999
5.073 2.029 -1.6900001 0.31
5.0770001 2.049 -1.694 0.31
5.073 2.066 -1.694 0.27000001
5.0689998 2.0739999 -1.694 0.28
5.0630002 2.0899999 -1.694 0.31
5.0650001 2.109 -1.697 0.34999999
5.0370002 2.1159999 -1.6900001 0.27000001
5.0450001 2.138 -1.6950001 0.31
5.04 2.155 -1.6950001 0.27000001
5.033 2.161 -1.694 0.31999999
5.0219998 2.175 -1.693 0.25
5.0359998 2.2 -1.701 0.31999999
5.0050001 2.2049999 -1.692 0.23999999
5.0100002 2.2260001 -1.696 0.30000001
5.0209999 2.25 -1.702 0.34
5.007 2.263 -1.7 0.31
5.0079999 2.273 -1.702 0.27000001
5.0009999 2.289 -1.702 0.31
4.9819999 2.299 -1.697 0.28
4.9899998 2.322 -1.7029999 0.31999999
4.9720001 2.332 -1.699 0.27000001
4.9569998 2.3440001 -1.696 0.28
4.9580002 2.3640001 -1.699 0.28999999
4.9590001 2.3740001 -1.701 0.31
4.9400001 2.3840001 -1.697 0.25999999
4.9439998 2.405 -1.701 0.31
4.9349999 2.4200001 -1.701 0.28999999
4.9219999 2.4330001 -1.699 0.28999999
4.9250002 2.4530001 -1.702 0.30000001
4.915 2.4679999 -1.702 0.31999999
4.9060001 2.473 -1.7 0.31999999
4.8979998 2.4879999 -1.7 0.28999999
4.8909998 2.5039999 -1.7 0.28999999
4.8740001 2.5150001 -1.697 0.31999999
4.8759999 2.5350001 -1.701 0.28999999
4.8740001 2.553 -1.702 0.30000001
4.8569999 2.5639999 -1.699 0.28999999
4.855 2.573 -1.7 0.28999999
4.8600001 2.595 -1.705 0.33000001
4.8470001 2.608 -1.7029999 0.27000001
4.829 2.6170001 -1.699 0.28999999
4.8189998 2.632 -1.699 0.28999999
4.8049998 2.6440001 -1.697 0.27000001
4.8060002 2.654 -1.699 0.36000001
4.7979999 2.6689999 -1.699 0.31
4.7880001 2.6830001 -1.698 0.30000001
4.7839999 2.701 -1.7 0.28999999
4.776 2.7160001 -1.7 0.30000001
4.7610002 2.727 -1.697 0.30000001
4.7550001 2.744 -1.699 0.37
4.7410002 2.7460001 -1.6950001 0.27000001
4.7360001 2.763 -1.696 0.34
4.737 2.7839999 -1.7 0.34999999
4.723 2.7950001 -1.698 0.30000001
4.7080002 2.806 -1.6950001 0.33000001
4.697 2.8199999 -1.6950001 0.28999999
4.691 2.8269999 -1.694 0.28
4.6939998 2.848 -1.699 0.38
4.6799998 2.8599999 -1.697 0.30000001
4.6659999 2.872 -1.6950001 0.31999999
4.6599998 2.888 -1.696 0.34
4.6500001 2.902 -1.6950001 0.34
4.6469998 2.921 -1.698 0.28
4.6409998 2.927 -1.697 0.34
4.6279998 2.9389999 -1.696 0.28999999
4.6240001 2.957 -1.698 0.34999999
4.6149998 2.9719999 -1.698 0.27000001
4.599 2.9820001 -1.6950001 0.31
4.5830002 2.9920001 -1.693 0.34999999
4.5830002 3.013 -1.697 0.34
4.5830002 3.023 -1.699 0.31
4.5609999 3.029 -1.694 0.28999999
4.5560002 3.0469999 -1.6950001 0.31999999
4.5469999 3.0610001 -1.6950001 0.33000001
4.5310001 3.0710001 -1.693 0.31999999
4.5320001 3.0929999 -1.697 0.36000001
4.5180001 3.1040001 -1.6950001 0.28999999
4.5029998 3.1040001 -1.692 0.33000001
4.4949999 3.119 -1.692 0.33000001
4.4959998 3.141 -1.697 0.37
4.4879999 3.1559999 -1.697 0.30000001
4.4749999 3.168 -1.696 0.28999999
4.4559999 3.1760001 -1.692 0.31999999
4.4520001 3.194 -1.6950001 0.33000001
4.4499998 3.2030001 -1.696 0.28999999
4.4289999 3.2090001 -1.692 0.28999999
4.427 3.2290001 -1.6950001 0.38
4.4190001 3.2449999 -1.696 0.31999999
4.415 3.263 -1.699 0.27000001
4.3930001 3.2679999 -1.694 0.30000001
4.4039998 3.2880001 -1.701 0.36000001
4.3769999 3.289 -1.694 0.27000001
4.375 3.3080001 -1.697 0.27000001
4.3629999 3.3210001 -1.696 0.31
4.3579998 3.339 -1.699 0.34
4.3429999 3.349 -1.697 0.30000001
4.3369999 3.3670001 -1.699 0.33000001
4.3439999 3.3829999 -1.704 0.28999999
4.3239999 3.3889999 -1.7 0.31
4.3150001 3.404 -1.701 0.31999999
4.3130002 3.425 -1.704 0.28999999
4.2979999 3.4349999 -1.702 0.31
4.2810001 3.4430001 -1.7 0.33000001
4.2820001 3.4660001 -1.705 0.28999999
4.2680001 3.4660001 -1.701 0.31999999
4.263 3.484 -1.704 0.31999999
4.2519999 3.4979999 -1.704 0.27000001
4.2389998 3.51 -1.7029999 0.28999999
4.2329998 3.527 -1.705 0.34
4.2189999 3.5369999 -1.704 0.27000001
4.2160001 3.5580001 -1.707 0.31999999
4.2049999 3.5599999 -1.705 0.27000001
4.1919999 3.572 -1.704 0.31999999
4.1939998 3.596 -1.71 0.27000001
4.1799998 3.6070001 -1.709 0.31999999
4.1669998 3.619 -1.7079999 0.31
4.158 3.6340001 -1.709 0.28999999
4.1370001 3.638 -1.705 0.28999999
4.1479998 3.6600001 -1.712 0.31999999
4.145 3.681 -1.716 0.27000001
4.1139998 3.6760001 -1.707 0.28
4.105 3.691 -1.709 0.25
4.1090002 3.7179999 -1.716 0.31999999
4.0890002 3.723 -1.712 0.25
4.0830002 3.7409999 -1.714 0.31999999
4.0770001 3.7479999 -1.714 0.28
4.0539999 3.75 -1.709 0.28
4.0479999 3.7679999 -1.712 0.31999999
4.0479999 3.793 -1.7180001 0.31
4.027 3.796 -1.7130001 0.28999999
4.013 3.8080001 -1.712 0.25
4.0170002 3.823 -1.717 0.31999999
3.9890001 3.8199999 -1.709 0.27000001
3.9890001 3.8440001 -1.715 0.33000001
3.974 3.8540001 -1.714 0.30000001
3.9630001 3.868 -1.714 0.22
3.948 3.878 -1.7130001 0.31999999
3.947 3.901 -1.7180001 0.28
3.9349999 3.902 -1.716 0.28
3.918 3.9089999 -1.7130001 0.30000001
3.915 3.9300001 -1.7180001 0.28999999
3.905 3.9449999 -1.719 0.33000001
3.881 3.9449999 -1.7130001 0.31999999
3.8829999 3.9719999 -1.72 0.25999999
3.8529999 3.967 -1.712 0.33000001
3.8499999 3.9760001 -1.7130001 0.27000001
3.852 4.0029998 -1.72 0.25999999
3.825 4 -1.7130001 0.28999999
3.8169999 4.0170002 -1.716 0.31
3.8069999 4.0320001 -1.717 0.28999999
3.7969999 4.0469999 -1.7180001 0.28999999
3.779 4.053 -1.716 0.31999999
3.777 4.0630002 -1.7180001 0.28999999
3.767 4.0780001 -1.719 0.30000001
3.7449999 4.0799999 -1.714 0.31999999
3.74 4.0999999 -1.7180001 0.23
3.724 4.1090002 -1.717 0.30000001
3.701 4.1090002 -1.712 0.31999999
3.701 4.1350002 -1.7180001 0.28999999
3.6930001 4.1389999 -1.7180001 0.31999999
3.681 4.152 -1.7180001 0.30000001
3.661 4.1550002 -1.714 0.28999999
3.648 4.1669998 -1.714 0.31999999
3.6429999 4.1880002 -1.719 0.34999999
3.625 4.1939998 -1.716 0.28999999
3.6059999 4.198 -1.7130001 0.33000001
3.5969999 4.2010002 -1.712 0.27000001
3.582 4.211 -1.711 0.31
3.5699999 4.223 -1.712 0.34999999
3.5580001 4.2360001 -1.712 0.28999999
3.5420001 4.244 -1.711 0.33000001
3.5280001 4.2540002 -1.711 0.31999999
3.526 4.2649999 -1.7130001 0.36000001
3.51 4.2740002 -1.712 0.27000001
3.497 4.2849998 -1.712 0.36000001
3.4779999 4.29 -1.709 0.25999999
3.4690001 4.3049998 -1.711 0.36000001
3.4419999 4.2989998 -1.704 0.30000001
3.444 4.3299999 -1.712 0.38
3.4319999 4.329 -1.71 0.28999999
3.4170001 4.3379998 -1.709 0.33000001
3.402 4.3460002 -1.7079999 0.33000001
3.395 4.3660002 -1.712 0.33000001
3.375 4.369 -1.709 0.30000001
3.358 4.375 -1.707 0.31999999
3.3469999 4.388 -1.7079999 0.31999999
3.349 4.4060001 -1.7130001 0.37
3.3239999 4.401 -1.707 0.30000001
3.306 4.4070001 -1.705 0.31999999
3.29 4.414 -1.704 0.28999999
3.2780001 4.4260001 -1.704 0.31999999
3.2679999 4.4429998 -1.707 0.36000001
3.2509999 4.448 -1.705 0.30000001
3.247 4.4580002 -1.707 0.37
3.233 4.4679999 -1.707 0.34999999
3.2190001 4.4780002 -1.707 0.31999999
3.2019999 4.4840002 -1.705 0.34999999
3.188 4.494 -1.705 0.34
3.165 4.4910002 -1.7 0.28999999
3.1659999 4.5089998 -1.705 0.36000001
3.154 4.5219998 -1.706 0.34
3.1359999 4.5250001 -1.704 0.31999999
3.1240001 4.5380001 -1.705 0.28999999
3.1110001 4.5500002 -1.706 0.40000001
3.095 4.5580001 -1.705 0.30000001
3.082 4.5689998 -1.706 0.38
3.0780001 4.579 -1.707 0.31999999
3.0580001 4.5799999 -1.704 0.36000001
3.0439999 4.5900002 -1.704 0.31999999
3.0339999 4.6059999 -1.707 0.28999999
3.0209999 4.619 -1.7079999 0.41
3 4.618 -1.704 0.30000001
2.98 4.618 -1.701 0.33000001
2.977 4.6290002 -1.7029999 0.33000001
2.967 4.6469998 -1.706 0.34999999
2.9489999 4.651 -1.704 0.28
2.931 4.6539998 -1.702 0.34999999
2.925 4.678 -1.707 0.33000001
2.905 4.6789999 -1.704 0.34
2.8940001 4.6929998 -1.706 0.30000001
2.8859999 4.697 -1.706 0.38999999
2.869 4.7010002 -1.704 0.31
2.8529999 4.7090001 -1.704 0.33000001
2.8399999 4.7210002 -1.705 0.31999999
2.8269999 4.7329998 -1.706 0.34
2.806 4.7319999 -1.702 0.33000001
2.7969999 4.7509999 -1.706 0.33000001
2.789 4.7540002 -1.706 0.33000001
2.776 4.7659998 -1.707 0.34
2.7609999 4.7740002 -1.707 0.34
2.743 4.7779999 -1.705 0.34
2.7309999 4.7919998 -1.707 0.31999999
2.7130001 4.7950001 -1.705 0.31999999
2.7 4.8070002 -1.706 0.34
2.6930001 4.8130002 -1.707 0.33000001
2.675 4.816 -1.705 0.31999999
2.6589999 4.823 -1.704 0.30000001
2.6470001 4.836 -1.706 0.40000001
2.632 4.8460002 -1.707 0.30000001
2.6140001 4.8499999 -1.705 0.38
2.598 4.8559999 -1.704 0.30000001
2.5940001 4.8670001 -1.707 0.30000001
2.575 4.868 -1.704 0.38
2.5580001 4.8730001 -1.7029999 0.33000001
2.5439999 4.8829999 -1.704 0.37
2.529 4.8909998 -1.704 0.33000001
2.5109999 4.895 -1.702 0.31
2.4979999 4.9060001 -1.704 0.41
2.49 4.9099998 -1.704 0.30000001
2.4749999 4.9200001 -1.704 0.28999999
2.4619999 4.9310002 -1.706 0.57999998
2.4519999 4.9510002 -1.71 0.27000001
2.427 4.9400001 -1.7029999 0.5
2.4159999 4.9559999 -1.706 0.31999999
2.391 4.9429998 -1.699 0.54000002
2.388 4.9580002 -1.7029999 0.38999999
2.3659999 4.9499998 -1.697 0.40000001
2.3510001 4.96 -1.698 0.37
2.3369999 4.9699998 -1.699 0.38
2.3199999 4.9759998 -1.699 0.36000001
2.3039999 4.9819999 -1.698 0.36000001
2.2839999 4.98 -1.6950001 0.31999999
2.2809999 4.994 -1.699 0.34
2.2620001 4.994 -1.696 0.31999999
2.247 5.0009999 -1.696 0.38
2.234 5.0149999 -1.699 0.40000001
2.191 4.96 -1.676 0.31
2.1659999 4.9460001 -1.668 0.58999997
2.1570001 4.9660001 -1.673 0.30000001
2.1300001 4.9260001 -1.658 0.51999998
2.1270001 4.961 -1.668 0.31999999
2.118 4.9829998 -1.673 0.49000001
2.098 4.9809999 -1.67 0.41
2.0940001 5.0139999 -1.6799999 0.44
2.0739999 5.0120001 -1.677 0.47
2.066 5.0359998 -1.683 0.31999999
2.053 5.0279999 -1.679 0.50999999
2.0380001 5.0370002 -1.6799999 0.40000001
2.0250001 5.0500002 -1.682 0.51999998
2.0050001 5.0440001 -1.678 0.63
1.985 5.04 -1.674 0.33000001
1.98 5.0760002 -1.6849999 0.43000001
1.964 5.0799999 -1.684 0.43000001
1.95 5.0689998 -1.679 0.62
1.933 5.072 -1.678 0.37
1.915 5.073 -1.676 0.44
1.899 5.079 -1.676 0.43000001
1.872 5.052 -1.665 0.43000001
1.844 5.026 -1.653 0.40000001
1.835 5.027 -1.653 0.41999999
1.839 5.0869999 -1.6720001 0.36000001
1.817 5.0760002 -1.666 0.50999999
1.794 5.0599999 -1.658 0.34
1.768 5.0370002 -1.648 0.51999998
1.755 5.052 -1.651 0.37
1.733 5.0380001 -1.645 0.41
1.726 5.046 -1.646 0.38
1.7 5.02 -1.636 0.46000001
1.688 5.0349998 -1.6390001 0.47999999
1.686 5.085 -1.655 0.34
1.668 5.0830002 -1.652 0.51999998
1.653 5.092 -1.653 0.34999999
1.6390001 5.1030002 -1.655 0.46000001
1.6289999 5.098 -1.653 0.31999999
1.597 5.0539999 -1.636 0.47
1.597 5.1079998 -1.653 0.37
1.567 5.0700002 -1.638 0.34999999
1.544 5.0489998 -1.6289999 0.44999999
1.539 5.092 -1.642 0.40000001
1.5190001 5.0819998 -1.637 0.38
1.513 5.0900002 -1.6390001 0.34
1.498 5.0999999 -1.641 0.34999999
1.477 5.0869999 -1.635 0.41
1.462 5.0970001 -1.636 0.37
1.447 5.1030002 -1.637 0.34
1.425 5.086 -1.6289999 0.41
1.406 5.0809999 -1.626 0.36000001
1.402 5.0960002 -1.631 0.36000001
1.383 5.0890002 -1.627 0.34999999
1.365 5.085 -1.624 0.34999999
1.355 5.1129999 -1.632 0.31999999
1.337 5.1110001 -1.63 0.38
1.319 5.1079998 -1.628 0.34
1.3049999 5.1199999 -1.63 0.34
1.294 5.1090002 -1.626 0.33000001
1.277 5.1110001 -1.625 0.33000001
1.2640001 5.1279998 -1.6289999 0.34999999
1.245 5.119 -1.625 0.34999999
1.23 5.125 -1.626 0.36000001
1.215 5.1339998 -1.628 0.34999999
1.199 5.1399999 -1.628 0.31999999
1.189 5.132 -1.625 0.34
1.174 5.1399999 -1.626 0.31999999
1.159 5.151 -1.6289999 0.31
1.14 5.1430001 -1.625 0.41
1.13 5.1729999 -1.6339999 0.27000001
1.108 5.1490002 -1.624 0.41999999
1.092 5.152 -1.624 0.34999999
1.084 5.1560001 -1.625 0.41
1.0700001 5.1719999 -1.6289999 0.34999999
1.05 5.1550002 -1.623 0.47999999
1.034 5.1620002 -1.624 0.36000001
1.015 5.1459999 -1.618 0.49000001
1.002 5.1700001 -1.624 0.34999999
0.98500001 5.1659999 -1.622 0.55000001
0.977 5.1669998 -1.622 0.38
0.96100003 5.1719999 -1.623 0.51999998
0.94400001 5.1729999 -1.622 0.34999999
0.92900002 5.1799998 -1.623 0.44
0.91399997 5.1939998 -1.627 0.36000001
0.89600003 5.184 -1.623 0.49000001
0.88099998 5.1960001 -1.626 0.34
0.87199998 5.1900001 -1.623 0.47
0.85500002 5.1929998 -1.623 0.41
0.83999997 5.2010002 -1.625 0.36000001
0.82099998 5.1900001 -1.6210001 0.52999997
0.80500001 5.191 -1.62 0.34
0.78899997 5.1950002 -1.6210001 0.44999999
0.78299999 5.21 -1.625 0.37
0.76300001 5.1880002 -1.617 0.44999999
0.74599999 5.1900001 -1.617 0.41
0.73199999 5.2090001 -1.623 0.36000001
0.71399999 5.197 -1.618 0.47999999
0.69800001 5.2030001 -1.619 0.40000001
0.68000001 5.1939998 -1.615 0.58999997
0.66500002 5.2049999 -1.618 0.34
0.65700001 5.204 -1.618 0.44999999
0.64200002 5.2160001 -1.6210001 0.40000001
0.62300003 5.2010002 -1.615 0.50999999
0.60500002 5.1880002 -1.61 0.31999999
0.58999997 5.197 -1.612 0.47999999
0.57499999 5.21 -1.6160001 0.36000001
0.55699998 5.1989999 -1.612 0.5
0.54900002 5.2030001 -1.613 0.36000001
0.53299999 5.2030001 -1.612 0.46000001
0.51599997 5.2030001 -1.612 0.34999999
0.49700001 5.178 -1.603 0.51999998
0.484 5.21 -1.613 0.31999999
0.46700001 5.2020001 -1.61 0.55000001
0.45899999 5.2059999 -1.6109999 0.34
0.442 5.198 -1.608 0.52999997
0.42699999 5.2189999 -1.614 0.31999999
0.40900001 5.2010002 -1.608 0.52999997
0.39300001 5.204 -1.609 0.31
0.37599999 5.2069998 -1.609 0.5
0.36000001 5.2140002 -1.6109999 0.30000001
0.35100001 5.2010002 -1.607 0.46000001
0.33500001 5.1950002 -1.604 0.34999999
0.31799999 5.1919999 -1.603 0.44
0.30199999 5.1950002 -1.604 0.36000001
0.285 5.1919999 -1.602 0.51999998
0.26899999 5.2010002 -1.605 0.33000001
0.25299999 5.1939998 -1.602 0.56999999
0.245 5.1939998 -1.602 0.31999999
0.229 5.204 -1.6059999 0.55000001
0.212 5.2090001 -1.607 0.31999999
0.19599999 5.1999998 -1.604 0.51999998
0.18000001 5.2270002 -1.612 0.34
0.164 5.2280002 -1.612 0.47999999
0.147 5.2129998 -1.607 0.44999999
0.139 5.217 -1.609 0.36000001
0.122 5.2140002 -1.607 0.40000001
0.106 5.2049999 -1.604 0.43000001
0.090000004 5.2199998 -1.609 0.34
0.072999999 5.211 -1.6059999 0.47999999
0.057 5.2210002 -1.609 0.44
0.039999999 5.211 -1.6059999 0.31999999
0.032000002 5.171 -1.5930001 0.56
0.016000001 5.1939998 -1.601 0.34
-0 5.177 -1.595 0.49000001
-0.016000001 5.1680002 -1.592 0.34999999
-0.033 5.1729999 -1.594 0.50999999
-0.048999999 5.1539998 -1.587 0.41
-0.064999998 5.1859999 -1.598 0.43000001
-0.074000001 5.211 -1.6059999 0.36000001
-0.090000004 5.1900001 -1.599 0.54000002
-0.107 5.2270002 -1.612 0.34
-0.122 5.1719999 -1.594 0.51999998
-0.13600001 5.1030002 -1.571 0.38
-0.155 5.171 -1.594 0.40000001
-0.171 5.1799998 -1.597 0.41
-0.17900001 5.1799998 -1.597 0.34
-0.19599999 5.1849999 -1.599 0.47999999
-0.211 5.1599998 -1.59 0.41
-0.229 5.204 -1.6059999 0.31999999
-0.245 5.1869998 -1.6 0.51999998
-0.26100001 5.1880002 -1.601 0.34
-0.28 5.2189999 -1.6109999 0.41
-0.28600001 5.1960001 -1.604 0.43000001
-0.30399999 5.2119999 -1.609 0.40000001
-0.31900001 5.1939998 -1.604 0.43000001
-0.336 5.204 -1.607 0.41
-0.35299999 5.2129998 -1.6109999 0.41999999
-0.37 5.2150002 -1.612 0.47999999
-0.38699999 5.2199998 -1.614 0.30000001
-0.39300001 5.191 -1.604 0.55000001
-0.41100001 5.2160001 -1.613 0.30000001
-0.426 5.2010002 -1.609 0.50999999
-0.44499999 5.23 -1.619 0.28999999
-0.45899999 5.1989999 -1.609 0.50999999
-0.477 5.2119999 -1.614 0.30000001
-0.49200001 5.1989999 -1.61 0.51999998
-0.50300002 5.223 -1.618 0.31
-0.51700002 5.2030001 -1.612 0.52999997
-0.53399998 5.2090001 -1.614 0.34
-0.54900002 5.1939998 -1.61 0.51999998
-0.56800002 5.2150002 -1.618 0.34
-0.58200002 5.1919999 -1.6109999 0.51999998
-0.59899998 5.198 -1.613 0.31
-0.60399997 5.1669998 -1.603 0.51999998
-0.62 5.165 -1.603 0.31999999
-0.62599999 5.0819998 -1.576 0.55000001
-0.64899999 5.138 -1.596 0.34999999
-0.66299999 5.119 -1.59 0.40000001
-0.685 5.1599998 -1.604 0.43000001
-0.69800001 5.1360002 -1.597 0.46000001
-0.70599997 5.1329999 -1.596 0.28999999
-0.72100002 5.125 -1.594 0.49000001
-0.74400002 5.1690001 -1.61 0.33000001
-0.75800002 5.152 -1.605 0.5
-0.77499998 5.151 -1.6059999 0.38
-0.79100001 5.151 -1.6059999 0.38999999
-0.80599999 5.1409998 -1.604 0.47
-0.81699997 5.1529999 -1.608 0.31
-0.833 5.1500001 -1.608 0.51999998
-0.85299999 5.1700001 -1.6160001 0.30000001
-0.86500001 5.1469998 -1.609 0.62
-0.875 5.1079998 -1.597 0.27000001
-0.88999999 5.0999999 -1.595 0.61000001
-0.90899998 5.1100001 -1.599 0.28
-0.91299999 5.0900002 -1.5930001 0.5
-0.935 5.119 -1.604 0.34
-0.949 5.1030002 -1.599 0.61000001
-0.97299999 5.1409998 -1.613 0.25999999
-0.98199999 5.1030002 -1.601 0.47999999
-1.002 5.118 -1.607 0.40000001
-1.023 5.1409998 -1.6160001 0.31
-1.021 5.0910001 -1.6 0.54000002
-1.048 5.138 -1.617 0.33000001
-1.0650001 5.1399999 -1.619 0.51999998
-1.082 5.1399999 -1.62 0.33000001
-1.096 5.1279998 -1.617 0.44
-1.113 5.1279998 -1.618 0.41
-1.132 5.1370001 -1.623 0.41999999
-1.143 5.1469998 -1.626 0.36000001
-1.153 5.1170001 -1.618 0.58999997
-1.168 5.1100001 -1.6160001 0.27000001
-1.179 5.0840001 -1.609 0.5
-1.2079999 5.1339998 -1.627 0.31999999
-1.212 5.0819998 -1.6109999 0.55000001
-1.226 5.1059999 -1.619 0.34
-1.24 5.0910001 -1.6160001 0.47
-1.253 5.0739999 -1.6109999 0.47999999
-1.262 5.046 -1.603 0.36000001
-1.28 5.0479999 -1.605 0.38999999
-1.2869999 5.013 -1.594 0.47
-1.319 5.0669999 -1.614 0.31999999
-1.331 5.0479999 -1.609 0.51999998
-1.3430001 5.0650001 -1.6160001 0.31999999
-1.353 5.0370002 -1.607 0.54000002
-1.375 5.0539999 -1.615 0.33000001
-1.383 5.0229998 -1.6059999 0.58999997
-1.401 5.0250001 -1.608 0.30000001
-1.419 5.0300002 -1.6109999 0.44999999
-1.436 5.0289998 -1.612 0.38999999
-1.448 5.04 -1.617 0.46000001
-1.469 5.0549998 -1.624 0.51999998
-1.484 5.0450001 -1.622 0.38999999
-1.502 5.0500002 -1.625 0.47
-1.521 5.0539999 -1.628 0.37
-1.5369999 5.0510001 -1.6289999 0.46000001
-1.55 5.0370002 -1.626 0.43000001
-1.566 5.0599999 -1.635 0.34
-1.582 5.053 -1.6339999 0.55000001
-1.6 5.0549998 -1.636 0.33000001
-1.619 5.0609999 -1.64 0.51999998
-1.637 5.0609999 -1.642 0.38999999
-1.645 5.033 -1.6339999 0.47999999
-1.658 5.046 -1.64 0.34999999
-1.677 5.0500002 -1.643 0.47
-1.6900001 5.0359998 -1.64 0.40000001
-1.706 5.0320001 -1.64 0.41999999
-1.723 5.0310001 -1.641 0.5
-1.74 5.0289998 -1.643 0.38999999
-1.758 5.0289998 -1.645 0.41999999
-1.765 5.0219998 -1.643 0.43000001
-1.777 5.006 -1.64 0.54000002
-1.794 5.006 -1.641 0.43000001
-1.809 4.9970002 -1.64 0.41999999
-1.8279999 5.0019999 -1.6440001 0.34
-1.839 4.9819999 -1.6390001 0.56999999
-1.858 4.9860001 -1.643 0.38999999
-1.867 4.9850001 -1.643 0.38999999
-1.885 4.9850001 -1.645 0.33000001
-1.902 4.9819999 -1.646 0.25999999
-1.899 4.9289999 -1.6289999 0.44
-1.932 4.9679999 -1.646 0.37
-1.9450001 4.9549999 -1.643 0.38
-1.962 4.9530001 -1.645 0.36000001
-1.98 4.954 -1.647 0.34
-1.983 4.9380002 -1.643 0.38
-1.999 4.934 -1.643 0.34999999
-2.0190001 4.9359999 -1.646 0.34
-2.033 4.928 -1.646 0.33000001
-2.0480001 4.9200001 -1.645 0.31999999
-2.063 4.9130001 -1.645 0.34
-2.072 4.9120002 -1.646 0.31999999
-2.0880001 4.9070001 -1.646 0.31999999
-2.1029999 4.8990002 -1.646 0.34999999
-2.1140001 4.8829999 -1.643 0.30000001
-2.135 4.8889999 -1.647 0.38
-2.1470001 4.8730001 -1.6440001 0.31999999
-2.1589999 4.862 -1.642 0.33000001
-2.1689999 4.8629999 -1.6440001 0.34
-2.1889999 4.8649998 -1.647 0.34
-2.2019999 4.855 -1.646 0.34
-2.217 4.8460002 -1.645 0.36000001
-2.2349999 4.8460002 -1.648 0.34999999
-2.2479999 4.8340001 -1.646 0.34999999
-2.2679999 4.8369999 -1.65 0.34
-2.2809999 4.8449998 -1.654 0.36000001
-2.2920001 4.8299999 -1.651 0.31999999
-2.313 4.8340001 -1.655 0.36000001
-2.3329999 4.836 -1.658 0.34
-2.3469999 4.8270001 -1.658 0.36000001
-2.3640001 4.823 -1.659 0.27000001
-2.3729999 4.803 -1.655 0.41
-2.3900001 4.7989998 -1.656 0.43000001
-2.414 4.8280001 -1.668 0.36000001
-2.431 4.8249998 -1.67 0.34
-2.4460001 4.816 -1.669 0.38
-2.464 4.8150001 -1.6720001 0.34
-2.483 4.8140001 -1.674 0.38
-2.4979999 4.8060002 -1.674 0.33000001
-2.5150001 4.8200002 -1.681 0.37
-2.5309999 4.8140001 -1.682 0.36000001
-2.5450001 4.803 -1.6799999 0.34999999
-2.5650001 4.8049998 -1.684 0.34999999
-2.572 4.7820001 -1.679 0.25
-2.5420001 4.6900001 -1.647 0.50999999
-2.6229999 4.8039999 -1.693 0.37
-2.6329999 4.803 -1.694 0.37
-2.6500001 4.7979999 -1.6950001 0.34
-2.6659999 4.7909999 -1.696 0.41999999
-2.688 4.796 -1.701 0.38
-2.701 4.7839999 -1.7 0.33000001
-2.723 4.7870002 -1.704 0.31999999
-2.74 4.7820001 -1.706 0.41
-2.7550001 4.7909999 -1.711 0.23
-2.7679999 4.7789998 -1.709 0.54000002
-2.796 4.7909999 -1.7180001 0.28999999
-2.8069999 4.776 -1.715 0.49000001
-2.823 4.7690001 -1.716 0.34999999
-2.8429999 4.7680001 -1.719 0.46000001
-2.852 4.7490001 -1.715 0.31999999
-2.8670001 4.7579999 -1.72 0.43000001
-2.892 4.7649999 -1.726 0.33000001
-2.902 4.7480001 -1.723 0.62
-2.9300001 4.7600002 -1.7309999 0.41999999
-2.9560001 4.7680001 -1.738 0.33000001
-2.9590001 4.7399998 -1.7309999 0.44
-2.9530001 4.698 -1.7180001 0.31999999
-2.9690001 4.7059999 -1.723 0.52999997
-2.977 4.6869998 -1.719 0.44999999
-3.0190001 4.7199998 -1.7359999 0.38999999
-3.0369999 4.7150002 -1.738 0.33000001
-3.0369999 4.6830001 -1.729 0.40000001
-3.0639999 4.6919999 -1.7359999 0.25
-3.0710001 4.6700001 -1.7309999 0.5
-3.0799999 4.6680002 -1.733 0.47
-3.095 4.6589999 -1.733 0.36000001
-3.122 4.6680002 -1.74 0.38
-3.1329999 4.6529999 -1.738 0.38999999
-3.1440001 4.6370001 -1.7359999 0.28999999
-3.1600001 4.6300001 -1.737 0.36000001
-3.1719999 4.6160002 -1.735 0.34
-3.158 4.5809999 -1.723 0.37
-3.1960001 4.6040001 -1.7359999 0.33000001
-3.197 4.5749998 -1.729 0.44
-3.214 4.5679998 -1.73 0.38999999
-3.233 4.566 -1.733 0.44999999
-3.2579999 4.5700002 -1.739 0.28999999
-3.2650001 4.5500002 -1.735 0.54000002
-3.283 4.559 -1.7410001 0.33000001
-3.2869999 4.5349998 -1.735 0.50999999
-3.3110001 4.5380001 -1.7410001 0.33000001
-3.325 4.5279999 -1.7410001 0.5
-3.332 4.507 -1.7359999 0.41999999
-3.3529999 4.5050001 -1.74 0.44999999
-3.368 4.4959998 -1.7410001 0.36000001
-3.3759999 4.4920001 -1.7410001 0.46000001
-3.3859999 4.4759998 -1.739 0.31
-3.404 4.4710002 -1.7410001 0.33000001
-3.4219999 4.4650002 -1.743 0.37
-3.4289999 4.4450002 -1.74 0.28999999
-3.447 4.4400001 -1.742 0.28999999
-3.46 4.428 -1.7410001 0.40000001
-3.4619999 4.4169998 -1.739 0.31
-3.4879999 4.4200001 -1.745 0.34
-3.5 4.4070001 -1.744 0.31999999
-3.513 4.3959999 -1.744 0.31999999
-3.5320001 4.3899999 -1.7460001 0.31999999
-3.54 4.3720002 -1.743 0.34
-3.5550001 4.362 -1.744 0.33000001
-3.562 4.3569999 -1.744 0.33000001
-3.5680001 4.3369999 -1.74 0.33000001
-3.595 4.3410001 -1.747 0.38999999
-3.609 4.3299999 -1.747 0.34999999
-3.618 4.3140001 -1.745 0.30000001
-3.6340001 4.3060002 -1.7460001 0.37
-3.6489999 4.296 -1.747 0.31999999
-3.6559999 4.29 -1.747 0.34
-3.6670001 4.276 -1.7460001 0.31
-3.6849999 4.27 -1.748 0.34999999
-3.6919999 4.2509999 -1.745 0.34
-3.711 4.2449999 -1.748 0.31999999
-3.723 4.2319999 -1.747 0.30000001
-3.7349999 4.2189999 -1.7460001 0.36000001
-3.7379999 4.2090001 -1.745 0.23
-3.7650001 4.2129998 -1.751 0.43000001
-3.7679999 4.1900001 -1.7460001 0.25999999
-3.7869999 4.1849999 -1.75 0.36000001
-3.8010001 4.1729999 -1.75 0.34999999
-3.8199999 4.1680002 -1.753 0.31
-3.8380001 4.1609998 -1.755 0.36000001
-3.8410001 4.151 -1.753 0.28999999
-3.8570001 4.1420002 -1.755 0.31999999
-3.8599999 4.1199999 -1.75 0.31999999
-3.881 4.1160002 -1.7539999 0.34999999
-3.8889999 4.099 -1.751 0.27000001
-3.9070001 4.092 -1.7539999 0.34999999
-3.9170001 4.0770001 -1.753 0.31
-3.9219999 4.0689998 -1.752 0.34
-3.938 4.0599999 -1.753 0.31
-3.9560001 4.053 -1.756 0.34
-3.9690001 4.04 -1.756 0.31999999
-3.9890001 4.0359998 -1.76 0.31999999
-3.9909999 4.0120001 -1.755 0.28
-4.0009999 3.997 -1.753 0.31
-4.0110002 3.9949999 -1.755 0.30000001
-4.0349998 3.993 -1.76 0.34
-4.0359998 3.97 -1.755 0.31999999
-4.0560002 3.964 -1.758 0.31999999
-4.072 3.9549999 -1.76 0.33000001
-4.0799999 3.938 -1.758 0.31999999
-4.0939999 3.9260001 -1.7589999 0.30000001
-4.1110001 3.9300001 -1.7640001 0.31
-4.118 3.9119999 -1.762 0.28999999
-4.1360002 3.905 -1.7640001 0.31999999
-4.1539998 3.8970001 -1.767 0.30000001
-4.1529999 3.872 -1.761 0.28999999
-4.177 3.869 -1.766 0.28999999
-4.1919999 3.859 -1.767 0.28999999
-4.184 3.839 -1.761 0.28
-4.2080002 3.8380001 -1.767 0.31999999
-4.223 3.8269999 -1.768 0.28999999
-4.2270002 3.806 -1.7640001 0.25
-4.2360001 3.79 -1.763 0.28999999
-4.256 3.7839999 -1.767 0.31999999
-4.2540002 3.7590001 -1.76 0.31
-4.276 3.766 -1.767 0.25
-4.2820001 3.747 -1.765 0.30000001
-4.2979999 3.737 -1.767 0.27000001
-4.3049998 3.72 -1.765 0.30000001
-4.3169999 3.707 -1.765 0.28999999
-4.3249998 3.691 -1.763 0.25
-4.3309999 3.6719999 -1.761 0.30000001
-4.3460002 3.6730001 -1.765 0.28999999
-4.349 3.652 -1.761 0.28
-4.3699999 3.6459999 -1.765 0.23999999
-4.382 3.6329999 -1.765 0.30000001
-4.3860002 3.6129999 -1.762 0.27000001
-4.4029999 3.6040001 -1.765 0.25999999
-4.4200001 3.595 -1.767 0.25
-4.421 3.5840001 -1.765 0.31999999
-4.427 3.566 -1.763 0.28999999
-4.448 3.5599999 -1.767 0.28999999
-4.4369998 3.5280001 -1.758 0.31
-4.4510002 3.517 -1.7589999 0.28999999
-4.4759998 3.513 -1.765 0.27000001
-4.4780002 3.4920001 -1.761 0.27000001
-4.4770002 3.4809999 -1.758 0.25
-4.4949999 3.4719999 -1.762 0.28999999
-4.5089998 3.46 -1.763 0.31999999
-4.5079999 3.437 -1.758 0.28
-4.5310001 3.4319999 -1.763 0.33000001
-4.54 3.4170001 -1.762 0.28
-4.5320001 3.3989999 -1.756 0.28
-4.559 3.3970001 -1.763 0.31999999
-4.5489998 3.3670001 -1.755 0.25999999
-4.5749998 3.3640001 -1.761 0.34999999
-4.5799999 3.346 -1.7589999 0.25
-4.586 3.329 -1.757 0.28999999
-4.5949998 3.313 -1.756 0.30000001
-4.6209998 3.3099999 -1.763 0.34999999
-4.612 3.293 -1.757 0.27000001
-4.6240001 3.279 -1.758 0.30000001
-4.6389999 3.2679999 -1.76 0.30000001
-4.6479998 3.2520001 -1.7589999 0.31999999
-4.6469998 3.23 -1.755 0.28
-4.6700001 3.224 -1.76 0.33000001
-4.664 3.2090001 -1.755 0.31
-4.677 3.197 -1.756 0.30000001
-4.6999998 3.1900001 -1.762 0.34
-4.6950002 3.1659999 -1.756 0.30000001
-4.704 3.1500001 -1.755 0.31
-4.7259998 3.1440001 -1.76 0.36000001
-4.7360001 3.1289999 -1.76 0.31999999
-4.7280002 3.1129999 -1.755 0.30000001
-4.7490001 3.1059999 -1.76 0.36000001
-4.757 3.0899999 -1.7589999 0.31
-4.7670002 3.075 -1.7589999 0.30000001
-4.783 3.0639999 -1.762 0.31
-4.7859998 3.0450001 -1.7589999 0.36000001
-4.7930002 3.0280001 -1.758 0.30000001
-4.8070002 3.026 -1.762 0.31
-4.8130002 3.0090001 -1.76 0.31999999
-4.8200002 2.9920001 -1.7589999 0.31
-4.8369999 2.9820001 -1.762 0.34999999
-4.8410001 2.964 -1.76 0.28999999
-4.8569999 2.9519999 -1.763 0.34
-4.8600001 2.9330001 -1.76 0.28
-4.869 2.928 -1.762 0.38999999
-4.8720002 2.9089999 -1.76 0.30000001
-4.8829999 2.895 -1.76 0.34
-4.8899999 2.8789999 -1.76 0.31
-4.9060001 2.8670001 -1.762 0.34
-4.9000001 2.8429999 -1.756 0.27000001
-4.9239998 2.836 -1.762 0.38999999
-4.9299998 2.829 -1.763 0.28
-4.9310002 2.809 -1.76 0.31
-4.9489999 2.799 -1.763 0.34
-4.948 2.7780001 -1.76 0.22
-4.973 2.7720001 -1.766 0.41999999
-4.9619999 2.7449999 -1.758 0.25
-4.9720001 2.73 -1.7589999 0.31
-4.9850001 2.727 -1.762 0.30000001
-4.9850001 2.707 -1.7589999 0.31
-5.0050001 2.698 -1.763 0.37
-5.0120001 2.681 -1.763 0.27000001
-5.0170002 2.6630001 -1.762 0.31
-5.0240002 2.6470001 -1.761 0.31999999
-5.0419998 2.6359999 -1.765 0.36000001
-5.046 2.628 -1.765 0.30000001
-5.046 2.608 -1.762 0.31999999
-5.0560002 2.5929999 -1.762 0.31999999
-5.0679998 2.579 -1.763 0.31
-5.079 2.5650001 -1.765 0.31999999
-5.0840001 2.5469999 -1.763 0.30000001
-5.079 2.5350001 -1.76 0.34
-5.1090002 2.53 -1.768 0.33000001
-5.1020002 2.506 -1.763 0.30000001
-5.118 2.494 -1.766 0.33000001
-5.1240001 2.477 -1.765 0.25999999
-5.1339998 2.4619999 -1.766 0.33000001
-5.152 2.451 -1.77 0.31999999
-5.1589999 2.444 -1.771 0.31
-5.1739998 2.431 -1.773 0.31999999
-5.1760001 2.4130001 -1.772 0.25
-5.171 2.391 -1.767 0.28999999
-5.198 2.3829999 -1.774 0.34
-5.1999998 2.3640001 -1.772 0.30000001
-5.204 2.3469999 -1.771 0.31
-5.2129998 2.3310001 -1.772 0.31
-5.2189999 2.3239999 -1.772 0.30000001
-5.2309999 2.309 -1.774 0.33000001
-5.237 2.2920001 -1.773 0.28
-5.2459998 2.276 -1.774 0.30000001
-5.2529998 2.26 -1.774 0.27000001
-5.256 2.2420001 -1.773 0.33000001
-5.27 2.2379999 -1.777 0.34
-5.2670002 2.217 -1.773 0.27000001
-5.263 2.1960001 -1.7690001 0.34
-5.2839999 2.1860001 -1.774 0.27000001
-5.296 2.171 -1.776 0.30000001
-5.3099999 2.1570001 -1.778 0.28999999
-5.3010001 2.1340001 -1.773 0.30000001
-5.3150001 2.1199999 -1.775 0.31
-5.3249998 2.115 -1.778 0.27000001
-5.3280001 2.0969999 -1.777 0.30000001
-5.3369999 2.0810001 -1.777 0.28999999
-5.3429999 2.0639999 -1.777 0.27000001
-5.3439999 2.0450001 -1.775 0.28999999
-5.3309999 2.0209999 -1.768 0.23999999
-5.3590002 2.0220001 -1.777 0.14
-5.3509998 2 -1.772 0.19
-5.3649998 1.985 -1.775 0.23
-5.3730001 1.969 -1.775 0.23
-5.3590002 1.9450001 -1.768 0.039999999
-5.4029999 1.942 -1.7819999 0
-5.573 1.456 -1.788 0.02
-5.5440001 1.4299999 -1.777 0.12
-5.5359998 1.409 -1.772 0.22
-5.54 1.392 -1.772 0.28999999
-5.5320001 1.3710001 -1.768 0.23
-5.5300002 1.362 -1.767 0.31999999
-5.553 1.349 -1.773 0.36000001
-5.5409999 1.327 -1.767 0.25
-5.5539999 1.312 -1.77 0.34
-5.5580001 1.294 -1.77 0.28999999
-5.5580001 1.276 -1.7690001 0.31
-5.5700002 1.26 -1.772 0.34
-5.5900002 1.256 -1.778 0.30000001
-5.5780001 1.234 -1.772 0.30000001
-5.5780001 1.216 -1.771 0.27000001
-5.598 1.202 -1.777 0.33000001
-5.6079998 1.186 -1.778 0.31999999
-5.598 1.165 -1.774 0.27000001
-5.6149998 1.15 -1.778 0.33000001
-5.6220002 1.143 -1.78 0.25
-5.6149998 1.123 -1.777 0.28999999
-5.6409998 1.11 -1.784 0.28999999
-5.6459999 1.092 -1.785 0.25
-5.6339998 1.072 -1.78 0.31
-5.6430001 1.0549999 -1.7819999 0.25999999
-5.645 1.0369999 -1.781 0.28
-5.6479998 1.028 -1.7819999 0.23999999
-5.6659999 1.013 -1.7869999 0.28
-5.6599998 0.99400002 -1.784 0.27000001
-5.6690001 0.977 -1.785 0.28
-5.6680002 0.95899999 -1.784 0.20999999
-5.677 0.94199997 -1.786 0.27000001
-5.6609998 0.921 -1.78 0.23999999
-5.6810002 0.91500002 -1.786 0.25999999
-5.6669998 0.89399999 -1.78 0.28999999
-5.6659999 0.87599999 -1.779 0.25999999
-5.6799998 0.86000001 -1.783 0.2
-5.6900001 0.84299999 -1.785 0.27000001
-5.6849999 0.824 -1.783 0.23
-5.7030001 0.80800003 -1.788 0.23999999
-5.6989999 0.79900002 -1.786 0.25
-5.697 0.77999997 -1.785 0.23
-5.6919999 0.76099998 -1.7819999 0.2
-5.71 0.745 -1.7869999 0.27000001
-5.7010002 0.72600001 -1.784 0.23
-5.71 0.70899999 -1.786 0.28
-5.7129998 0.69099998 -1.786 0.27000001
-5.7119999 0.68199998 -1.785 0.20999999
-5.723 0.66500002 -1.789 0.25
-5.7010002 0.64399999 -1.78 0.25
-5.7140002 0.62800002 -1.784 0.23
-5.7259998 0.611 -1.7869999 0.25
-5.7119999 0.59100002 -1.7819999 0.23999999
-5.7069998 0.57300001 -1.78 0.27000001
-5.717 0.56400001 -1.783 0.28
-5.7090001 0.546 -1.78 0.27000001
-5.7129998 0.528 -1.78 0.25
-5.6989999 0.509 -1.775 0.19
-5.7160001 0.49200001 -1.78 0.28999999
-5.7080002 0.47299999 -1.777 0.25
-5.723 0.456 -1.7819999 0.28999999
-5.6929998 0.44499999 -1.772 0.25
-5.704 0.428 -1.775 0.28999999
-5.711 0.41 -1.777 0.20999999
-5.7160001 0.39300001 -1.778 0.31999999
-5.7140002 0.37400001 -1.777 0.28
-5.711 0.35600001 -1.775 0.31
-5.71 0.338 -1.775 0.31999999
-5.7140002 0.329 -1.776 0.28
-5.723 0.31200001 -1.778 0.34
-5.711 0.29300001 -1.774 0.28999999
-5.7150002 0.27599999 -1.775 0.27000001
-5.7049999 0.257 -1.772 0.30000001
-5.698 0.23899999 -1.7690001 0.28
-5.7160001 0.222 -1.775 0.33000001
-5.7220001 0.213 -1.777 0.31999999
-5.717 0.19499999 -1.775 0.31
-5.7309999 0.177 -1.779 0.31999999
-5.724 0.15899999 -1.777 0.30000001
-5.7259998 0.141 -1.777 0.33000001
-5.7280002 0.123 -1.778 0.28
-5.7319999 0.105 -1.779 0.34
-5.7350001 0.096000001 -1.78 0.30000001
-5.737 0.078000002 -1.78 0.34
-5.7410002 0.059999999 -1.7819999 0.28999999
-5.7259998 0.041999999 -1.777 0.23999999
-5.7449999 0.024 -1.783 0.38999999
-5.7329998 0.0060000001 -1.779 0.25
-5.7350001 -0.003 -1.78 0.36000001
-5.7329998 -0.021 -1.779 0.28999999
-5.7519999 -0.039000001 -1.785 0.36000001
-5.7449999 -0.057 -1.783 0.28
-5.7420001 -0.075000003 -1.7819999 0.37
-5.744 -0.083999999 -1.783 0.31
-5.75 -0.103 -1.785 0.34
-5.744 -0.12 -1.783 0.28999999
-5.7470002 -0.139 -1.784 0.27000001
-5.7350001 -0.156 -1.78 0.31
-5.7420001 -0.175 -1.783 0.33000001
-5.7459998 -0.184 -1.784 0.31999999
-5.7579999 -0.20200001 -1.789 0.31999999
-5.7290001 -0.219 -1.779 0.25
-5.7529998 -0.23800001 -1.7869999 0.33000001
-5.7470002 -0.25600001 -1.785 0.33000001
-5.75 -0.27399999 -1.7869999 0.31
-5.743 -0.292 -1.785 0.23999999
-5.7449999 -0.301 -1.785 0.34999999
-5.7470002 -0.31999999 -1.7869999 0.27000001
-5.743 -0.33700001 -1.785 0.31
-5.7509999 -0.35600001 -1.789 0.30000001
-5.7480001 -0.37400001 -1.788 0.30000001
-5.743 -0.39199999 -1.7869999 0.31
-5.7550001 -0.41100001 -1.791 0.30000001
-5.7350001 -0.41800001 -1.785 0.30000001
-5.7490001 -0.43799999 -1.79 0.25999999
-5.7360001 -0.45500001 -1.786 0.31
-5.7459998 -0.47400001 -1.79 0.25
-5.743 -0.49200001 -1.789 0.28999999
-5.7410002 -0.50999999 -1.789 0.28999999
-5.7399998 -0.528 -1.789 0.30000001
-5.7459998 -0.537 -1.7920001 0.27000001
-5.7389998 -0.55500001 -1.79 0.28
-5.7389998 -0.57300001 -1.79 0.27000001
-5.7329998 -0.59100002 -1.789 0.31
-5.7090001 -0.60600001 -1.7819999 0.19
-5.7329998 -0.62699997 -1.79 0.27000001
-5.73 -0.64499998 -1.79 0.25
-5.7420001 -0.65499997 -1.794 0.25
-5.7150002 -0.671 -1.786 0.19
-5.7360001 -0.69099998 -1.794 0.28999999
-5.743 -0.71100003 -1.7970001 0.22
-5.71 -0.72500002 -1.7869999 0.22
-5.7309999 -0.74599999 -1.794 0.27000001
-5.7259998 -0.76300001 -1.794 0.23
-5.7059999 -0.76999998 -1.7869999 0.17
-5.7210002 -0.79000002 -1.793 0.28
-5.7410002 -0.81099999 -1.8 0.20999999
-5.7010002 -0.824 -1.788 0.17
-5.7189999 -0.84500003 -1.795 0.31
-5.697 -0.86000001 -1.789 0.22
-5.7059999 -0.88 -1.7920001 0.25999999
-5.6989999 -0.88800001 -1.79 0.23
-5.717 -0.90899998 -1.7970001 0.13
-5.6890001 -0.92299998 -1.789 0.20999999
-5.6960001 -0.94199997 -1.7920001 0.19
-5.7150002 -0.96399999 -1.8 0.27000001
-5.6900001 -0.97799999 -1.7920001 0.23
-5.6890001 -0.99599999 -1.793 0.28
-5.704 -1.008 -1.799 0.27000001
-5.691 -1.024 -1.795 0.20999999
-5.7160001 -1.0470001 -1.8049999 0.13
-5.7069998 -1.064 -1.803 0.20999999
-5.7059999 -1.0829999 -1.804 0.18000001
-5.6950002 -1.099 -1.801 0.18000001
-5.717 -1.113 -1.809 0.25
-5.691 -1.126 -1.802 0.1
-5.684 -1.143 -1.8 0
-5.6950002 -1.164 -1.806 0
-5.6729999 -1.178 -1.799 0
-5.697 -1.202 -1.809 0
-5.6900001 -1.219 -1.807 0.050000001
-5.6729999 -1.225 -1.802 0.16
-5.6469998 -1.238 -1.795 0.18000001
-5.6760001 -1.263 -1.806 0.30000001
-5.6630001 -1.279 -1.803 0.22
-5.6479998 -1.294 -1.799 0.28
-5.651 -1.313 -1.802 0.30000001
-5.651 -1.332 -1.803 0.34
-5.6560001 -1.3430001 -1.806 0.28999999
-5.6430001 -1.358 -1.802 0.20999999
-5.6350002 -1.375 -1.801 0.31
-5.6430001 -1.396 -1.806 0.33000001
-5.652 -1.4170001 -1.8099999 0.31999999
-5.6269999 -1.429 -1.803 0.23999999
-5.6389999 -1.451 -1.809 0.36000001
-5.638 -1.461 -1.809 0.34
-5.6079998 -1.472 -1.8 0.28
-5.6090002 -1.4910001 -1.802 0.30000001
-5.6170001 -1.512 -1.807 0.31999999
-5.5960002 -1.525 -1.801 0.31
-5.5999999 -1.545 -1.804 0.30000001
-5.6040001 -1.5650001 -1.807 0.25
-5.5960002 -1.573 -1.806 0.41
-5.599 -1.592 -1.808 0.31999999
-5.6009998 -1.612 -1.811 0.36000001
-5.5809999 -1.625 -1.806 0.31999999
-5.5910001 -1.647 -1.811 0.41999999
-5.5840001 -1.664 -1.8099999 0.38999999
-5.5689998 -1.679 -1.807 0.38999999
-5.5830002 -1.693 -1.812 0.34999999
-5.585 -1.712 -1.8150001 0.51999998
-5.5560002 -1.723 -1.807 0.34
-5.52 -1.73 -1.796 0.14
-5.4580002 -1.729 -1.777 0
-5.4260001 -1.738 -1.767 0
-4.8140001 -2.03 -1.6109999 0.02
-4.8010001 -2.0420001 -1.608 0.17
-4.7909999 -2.056 -1.607 0.25
-4.7740002 -2.066 -1.603 0.27000001
-4.776 -2.085 -1.6059999 0.31999999
-4.7620001 -2.0880001 -1.602 0.30000001
-4.7509999 -2.1010001 -1.601 0.33000001
-4.7540002 -2.1199999 -1.604 0.34
-4.7420001 -2.1329999 -1.602 0.30000001
-4.7319999 -2.1459999 -1.601 0.34999999
-4.7270002 -2.1619999 -1.602 0.30000001
-4.724 -2.178 -1.603 0.34999999
-4.7140002 -2.1819999 -1.601 0.30000001
-4.7069998 -2.197 -1.601 0.37
-4.6950002 -2.2090001 -1.599 0.30000001
-4.6890001 -2.2249999 -1.599 0.28999999
-4.6789999 -2.2379999 -1.598 0.40000001
-4.677 -2.2550001 -1.6 0.31
-4.6680002 -2.2690001 -1.599 0.34999999
-4.6529999 -2.2709999 -1.595 0.31999999
