# .PCD v0.7 - Point Cloud Data file format
VERSION 0.7
FIELDS x y z intensity
SIZE 4 4 4 4
TYPE F F F F
COUNT 1 1 1 1
WIDTH 1367
HEIGHT 1
VIEWPOINT 0 0 0 1 0 0 0
POINTS 1367
DATA ascii
3.3889999 16.912001 -1.918 0.27000001
3.332 16.905001 -1.916 0.27000001
3.279 16.913 -1.916 0.28
3.223 16.91 -1.914 0.27000001
3.168 16.912001 -1.913 0.27000001
3.1140001 16.917999 -1.913 0.28
3.0580001 16.91 -1.91 0.25999999
3.029 16.900999 -1.909 0.27000001
2.9749999 16.905001 -1.908 0.25999999
2.921 16.91 -1.908 0.25999999
2.8670001 16.915001 -1.9069999 0.23999999
2.8099999 16.899 -1.904 0.18000001
2.7590001 16.917 -1.905 0.44999999
2.701 16.896 -1.901 0.25
2.6760001 16.914 -1.903 0.23999999
2.618 16.885 -1.899 0.17
2.5669999 16.910999 -1.901 0.43000001
2.5109999 16.900999 -1.899 0.25
2.454 16.882 -1.895 0.19
2.402 16.896999 -1.896 0.41
2.349 16.903 -1.896 0.23999999
2.3169999 16.868999 -1.891 0.18000001
2.267 16.893999 -1.893 0.41
2.211 16.877001 -1.89 0.23999999
2.154 16.858999 -1.887 0.18000001
2.1029999 16.877001 -1.8890001 0.41
2.0480001 16.865999 -1.887 0.23999999
1.994 16.870001 -1.886 0.19
1.969 16.882999 -1.888 0.41
1.914 16.870001 -1.885 0.25
1.859 16.860001 -1.883 0.2
1.806 16.868999 -1.8839999 0.40000001
1.752 16.858999 -1.882 0.23
1.7 16.872999 -1.883 0.2
1.647 16.879999 -1.883 0.38
1.619 16.865 -1.881 0.23
1.5650001 16.862 -1.88 0.2
1.512 16.871 -1.88 0.38
1.4579999 16.863001 -1.8789999 0.19
1.406 16.879999 -1.88 0.36000001
1.351 16.858 -1.877 0.18000001
1.299 16.872 -1.878 0.38
1.271 16.857 -1.876 0.18000001
1.2180001 16.864 -1.877 0.37
1.166 16.874001 -1.877 0.18000001
1.112 16.868 -1.876 0.38
1.059 16.863001 -1.875 0.19
1.006 16.870001 -1.876 0.36000001
0.95200002 16.856001 -1.873 0.18000001
0.926 16.858999 -1.874 0.36000001
0.87199998 16.846001 -1.872 0.18000001
0.81999999 16.867001 -1.874 0.34999999
0.76599997 16.844999 -1.8710001 0.19
0.713 16.862 -1.873 0.34
0.66100001 16.868 -1.873 0.2
0.60699999 16.856001 -1.8710001 0.23999999
0.58099997 16.853001 -1.8710001 0.2
0.528 16.858 -1.8710001 0.23
0.47400001 16.844 -1.87 0.2
0.42199999 16.861 -1.8710001 0.22
0.368 16.843 -1.869 0.19
0.31600001 16.860001 -1.8710001 0.22
0.26300001 16.853001 -1.87 0.19
0.236 16.858999 -1.8710001 0.20999999
0.183 16.85 -1.87 0.18000001
0.13 16.868 -1.872 0.22
0.077 16.853001 -1.87 0.2
0.024 16.851 -1.87 0.20999999
-0.028999999 16.863001 -1.8710001 0.18000001
-0.082000002 16.853001 -1.87 0.13
-0.108 16.837 -1.868 0.17
-0.161 16.856001 -1.87 0.22
-0.214 16.836 -1.868 0.19
-0.26699999 16.853001 -1.87 0.23
-0.31999999 16.84 -1.869 0.19
-0.373 16.868999 -1.872 0.22
-0.42500001 16.841 -1.869 0.19
-0.45199999 16.861 -1.8710001 0.20999999
-0.505 16.858999 -1.8710001 0.18000001
-0.55800003 16.841999 -1.87 0.12
-0.611 16.846001 -1.87 0.17
-0.66399997 16.851999 -1.8710001 0.28999999
-0.71700001 16.844999 -1.8710001 0.11
-0.76999998 16.837 -1.87 0.16
-0.79699999 16.862 -1.873 0.30000001
-0.84899998 16.843 -1.8710001 0.11
-0.903 16.860001 -1.874 0.16
-0.95599997 16.85 -1.873 0.12
-1.0089999 16.85 -1.873 0.17
-1.062 16.843 -1.873 0.12
-1.114 16.83 -1.8710001 0.17
-1.141 16.84 -1.873 0.12
-1.1950001 16.844 -1.874 0.17
-1.249 16.854 -1.876 0.31
-1.302 16.848 -1.875 0.2
-1.354 16.837999 -1.875 0.18000001
-1.409 16.854 -1.877 0.20999999
-1.46 16.830999 -1.875 0.18000001
-1.489 16.855 -1.878 0.20999999
-1.54 16.832001 -1.876 0.19
-1.595 16.844999 -1.878 0.22
-1.647 16.836 -1.878 0.19
-1.702 16.848 -1.88 0.22
-1.753 16.825001 -1.878 0.19
-1.807 16.832001 -1.8789999 0.20999999
-1.835 16.84 -1.88 0.18000001
-1.8890001 16.848 -1.882 0.31999999
-1.941 16.834999 -1.881 0.19
-1.9960001 16.844 -1.883 0.34999999
-2.0469999 16.826 -1.882 0.18000001
-2.1040001 16.849001 -1.885 0.36000001
-2.154 16.823 -1.883 0.19
-2.1849999 16.849001 -1.887 0.38
-2.2349999 16.823999 -1.8839999 0.18000001
-2.2909999 16.841 -1.887 0.34999999
-2.3440001 16.829 -1.887 0.18000001
-2.398 16.836 -1.8890001 0.37
-2.4519999 16.832001 -1.8890001 0.19
-2.507 16.84 -1.891 0.34
-2.533 16.83 -1.89 0.19
-2.586 16.827999 -1.891 0.23999999
-2.641 16.827999 -1.892 0.2
-2.697 16.839001 -1.8940001 0.23
-2.747 16.813 -1.892 0.2
-2.806 16.841 -1.897 0.23
-2.855 16.815001 -1.895 0.19
-2.8859999 16.834 -1.898 0.22
-2.9419999 16.84 -1.899 0.18000001
-2.9960001 16.84 -1.901 0.23
-3.05 16.837 -1.901 0.18000001
-3.1029999 16.829 -1.902 0.34
-3.1570001 16.825001 -1.902 0.17
-3.214 16.833 -1.905 0.34999999
-3.2379999 16.818001 -1.903 0.18000001
-3.2980001 16.844999 -1.908 0.36000001
-3.3499999 16.827999 -1.9069999 0.18000001
-3.408 16.843 -1.91 0.34999999
-3.4619999 16.836 -1.911 0.19
-3.5190001 16.846001 -1.914 0.38
-3.5710001 16.83 -1.913 0.23
-3.6259999 16.83 -1.914 0.18000001
-3.658 16.847 -1.9170001 0.41
-3.7130001 16.847 -1.919 0.22
-3.7639999 16.827999 -1.918 0.17
-3.825 16.849001 -1.9220001 0.43000001
-3.8759999 16.829 -1.921 0.25
-3.9330001 16.836 -1.923 0.25
-3.9849999 16.818001 -1.923 0.25
-4.0159998 16.833 -1.925 0.27000001
-4.0760002 16.847 -1.929 0.27000001
-4.1269999 16.827 -1.928 0.27000001
-4.1820002 16.825001 -1.929 0.27000001
-4.2389998 16.825001 -1.931 0.25999999
-4.2950001 16.827 -1.933 0.25
-4.3540001 16.837 -1.936 0.25
-4.3790002 16.823999 -1.9349999 0.17
-4.4390001 16.834999 -1.938 0.43000001
-4.4920001 16.820999 -1.938 0.25
-4.553 16.837999 -1.942 0.25999999
-4.631 16.917 -1.954 0.17
-4.6700001 16.851 -1.947 0.40000001
-4.717 16.815001 -1.9450001 0.23999999
-4.7470002 16.820999 -1.947 0.20999999
-4.796 16.791 -1.9450001 0.14
-4.8629999 16.827 -1.951 0.5
-4.9169998 16.813999 -1.951 0.2
-4.98 16.834 -1.956 0.41
-5.1329999 17.149 -1.998 0.22
-5.0910001 16.818001 -1.9579999 0.23999999
-5.1149998 16.804001 -1.957 0.18000001
-5.1820002 16.833 -1.9630001 0.43000001
-5.2270002 16.791 -1.96 0.23
-5.2930002 16.816 -1.965 0.25999999
-5.3470001 16.802999 -1.966 0.25
-5.4099998 16.818001 -1.97 0.25
-5.4629998 16.802999 -1.97 0.18000001
-5.5 16.826 -1.974 0.44
-5.5539999 16.811001 -1.974 0.25
-5.6160002 16.823 -1.978 0.23
-5.665 16.792999 -1.976 0.17
-5.7329998 16.82 -1.982 0.43000001
-5.7870002 16.805 -1.983 0.23999999
-5.8509998 16.819 -1.987 0.20999999
-5.8670001 16.780001 -1.983 0.38
-5.9029999 16.714001 -1.977 0.20999999
-5.9759998 16.752001 -1.984 0.18000001
-6.059 16.816999 -1.995 0.40000001
-6.1129999 16.802 -1.9960001 0.19
-6.178 16.816 -2 0.38
-6.2290001 16.792999 -2 0.20999999
-6.263 16.801001 -2.0020001 0.23
-6.3169999 16.785 -2.003 0.18000001
-6.3769999 16.784 -2.0050001 0.31
-6.4330001 16.773001 -2.006 0.2
-6.4899998 16.764 -2.0079999 0.17
-6.5500002 16.761999 -2.01 0.31
-6.5890002 16.708 -2.006 0.20999999
-6.6199999 16.709 -2.007 0.25
-6.6929998 16.74 -2.0139999 0.2
-6.7779999 16.798 -2.0239999 0.17
-6.8629999 16.855 -2.0350001 0.41
-6.9169998 16.837 -2.0350001 0.25
-6.9689999 16.813999 -2.0350001 0.23999999
-7.0370002 16.827999 -2.04 0.25
-7.0630002 16.815001 -2.04 0.19
-7.1079998 16.775 -2.0369999 0.46000001
-7.197 16.836 -2.049 0.23
-7.2309999 16.77 -2.043 0.30000001
-7.2410002 16.650999 -2.03 0.11
-6.7059999 15.294 -1.851 0.079999998
-6.7620001 15.291 -1.853 0.14
-6.7919998 15.293 -1.855 0.33000001
-6.842 15.277 -1.8559999 0.23999999
-6.902 15.281 -1.859 0.25999999
-6.961 15.283 -1.862 0.28999999
-7.013 15.272 -1.864 0.28999999
-7.072 15.273 -1.867 0.30000001
-7.1300001 15.27 -1.87 0.30000001
-7.1589999 15.272 -1.8710001 0.31
-7.223 15.282 -1.876 0.31
-7.2800002 15.278 -1.8789999 0.30000001
-7.3379998 15.275 -1.881 0.30000001
-7.401 15.284 -1.886 0.28999999
-7.4580002 15.279 -1.888 0.28999999
-7.52 15.284 -1.892 0.31
-7.5580001 15.3 -1.896 0.30000001
-7.6220002 15.308 -1.9 0.31
-7.6760001 15.297 -1.902 0.30000001
-7.7379999 15.299 -1.906 0.28999999
-7.796 15.294 -1.908 0.28999999
-7.8569999 15.296 -1.9119999 0.28999999
-7.9109998 15.282 -1.913 0.28999999
-7.9749999 15.287 -1.918 0.28999999
-8.0059996 15.288 -1.919 0.28999999
-8.0710001 15.295 -1.924 0.28
-8.132 15.294 -1.927 0.28
-8.1940002 15.294 -1.931 0.27000001
-8.2469997 15.277 -1.932 0.30000001
-8.3050003 15.271 -1.9349999 0.27000001
-8.3640003 15.265 -1.938 0.27000001
-8.4029999 15.278 -1.941 0.27000001
-8.4680004 15.283 -1.946 0.25999999
-8.5290003 15.279 -1.949 0.27000001
-8.5880003 15.273 -1.952 0.28999999
-8.6440001 15.259 -1.954 0.23
-8.691 15.23 -1.954 0
-5.3099999 9.158 -1.1 0.55000001
-5.2870002 9.0539999 -1.0880001 0.23
-5.2870002 8.9890003 -1.081 0.38
-5.277 8.908 -1.072 0.18000001
-5.2940001 8.8730001 -1.069 0.36000001
-5.2940001 8.8100004 -1.063 0.23999999
-5.2880001 8.7690001 -1.058 0.22
-5.2690001 8.677 -1.0470001 0.19
-5.276 8.6280003 -1.0420001 0.23
-5.2649999 8.5489998 -1.033 0.19
-5.2750001 8.5050001 -1.029 0.22
-5.2680001 8.4350004 -1.022 0.20999999
-5.224 8.2790003 -1.003 0.51999998
-5.2740002 8.3000002 -1.008 0.2
-5.27 8.2360001 -1.001 0.34
-5.27 8.1800003 -0.995 0.18000001
-5.2779999 8.1359997 -0.991 0.34999999
-5.2789998 8.0819998 -0.986 0.2
-5.289 8.0419998 -0.98199999 0.34
-5.277 7.9970002 -0.977 0.2
-5.2820001 7.9510002 -0.97299999 0.31999999
-5.2940001 7.914 -0.97000003 0.2
-5.2989998 7.868 -0.96499997 0.18000001
-5.3060002 7.8249998 -0.96100003 0.16
-5.3179998 7.7909999 -0.95899999 0.18000001
-5.3200002 7.7410002 -0.954 0.1
-5.2729998 7.6479998 -0.94099998 0.2
-5.2800002 7.6069999 -0.93800002 0.25
-5.2940001 7.5760002 -0.935 0.19
-5.3200002 7.5619998 -0.93599999 0.19
-5.3340001 7.533 -0.93400002 0.18000001
-5.3740001 7.5380001 -0.93699998 0.40000001
-5.3990002 7.5229998 -0.93800002 0.25
-5.4190001 7.526 -0.93900001 0.27000001
-5.4580002 7.5300002 -0.94199997 0.25999999
-5.4970002 7.533 -0.94599998 0.27000001
-5.5250001 7.5219998 -0.94700003 0.27000001
-5.5669999 7.5300002 -0.94999999 0.28999999
-5.592 7.5139999 -0.95099998 0.28999999
-5.6329999 7.5190001 -0.954 0.28999999
-5.6490002 7.5170002 -0.95499998 0.30000001
-5.6869998 7.5180001 -0.958 0.30000001
-5.724 7.5170002 -0.96100003 0.30000001
-5.756 7.5100002 -0.96200001 0.30000001
-5.7880001 7.5029998 -0.96399999 0.28999999
-5.8280001 7.5050001 -0.96700001 0.22
-5.8670001 7.507 -0.97000003 0.37
-5.8959999 7.52 -0.97399998 0.19
-5.9380002 7.5240002 -0.97799999 0.31
-5.9770002 7.5240002 -0.98000002 0.19
-6.0100002 7.5180001 -0.98199999 0
-6.0609999 7.533 -0.98799998 0
-4.8150001 5.9549999 -0.741 0.1
-4.8499999 5.9590001 -0.74400002 0.090000004
-4.8709998 5.9660001 -0.74599999 0.16
-4.9060001 5.9699998 -0.74900001 0.22
-4.9239998 5.9530001 -0.74900001 0.20999999
-4.9460001 5.9419999 -0.75 0.19
-4.9920001 5.9580002 -0.755 0.41
-5.0190001 5.9530001 -0.75700003 0.25
-5.0469999 5.948 -0.75800002 0.25
-5.0710001 5.9569998 -0.76099998 0.25999999
-5.1009998 5.954 -0.76300001 0.27000001
-5.1269999 5.947 -0.76499999 0.25999999
-5.1599998 5.948 -0.76700002 0.25999999
-5.1880002 5.9419999 -0.76899999 0.27000001
-5.2199998 5.9400001 -0.77200001 0.27000001
-5.2540002 5.9419999 -0.77499998 0.27000001
-5.2740002 5.9450002 -0.77600002 0.27000001
-5.3099999 5.948 -0.77999997 0.25999999
-5.3330002 5.9359999 -0.77999997 0.27000001
-5.3759999 5.9450002 -0.78500003 0.27000001
-5.4039998 5.9390001 -0.78600001 0.27000001
-5.441 5.9419999 -0.79000002 0.25999999
-5.4710002 5.9359999 -0.792 0.27000001
-5.5009999 5.9510002 -0.796 0.27000001
-5.5300002 5.9439998 -0.79699999 0.25999999
-5.5650001 5.9439998 -0.80000001 0.25999999
-5.5960002 5.9390001 -0.80299997 0.25999999
-5.631 5.9390001 -0.80500001 0.22
-5.6690001 5.941 -0.80900002 0.36000001
-5.6950002 5.9320002 -0.81 0.11
-7.2670002 7.5349998 -1.086 0.14
-7.3150001 7.5370002 -1.09 0.20999999
-7.3649998 7.54 -1.095 0.25999999
-7.4109998 7.54 -1.099 0.28999999
-7.4520001 7.5349998 -1.102 0.30000001
-7.4990001 7.5339999 -1.1059999 0.31
-7.5500002 7.5380001 -1.1109999 0.30000001
-7.5749998 7.539 -1.113 0.30000001
-7.6300001 7.546 -1.118 0.28999999
-7.6799998 7.5479999 -1.123 0.28999999
-7.7220001 7.5419998 -1.126 0.28999999
-7.7649999 7.5359998 -1.1289999 0.28
-7.8169999 7.539 -1.1339999 0.27000001
-7.8590002 7.5320001 -1.137 0.28
-7.8979998 7.5450001 -1.142 0.28
-7.9569998 7.553 -1.148 0.28999999
-7.993 7.5409999 -1.15 0.28
-8.0459995 7.5419998 -1.155 0.28999999
-8.0959997 7.5409999 -1.159 0.27000001
-8.1440001 7.539 -1.163 0.27000001
-8.191 7.5349998 -1.1670001 0.25999999
-8.2340002 7.5500002 -1.1720001 0.33000001
-8.2799997 7.5440001 -1.176 0.28999999
-8.3339996 7.546 -1.181 0.33000001
-8.3850002 7.5430002 -1.1849999 0.31999999
-8.4440002 7.5489998 -1.191 0.31999999
-8.493 7.5450001 -1.1950001 0.34
-8.5509996 7.5479999 -1.201 0.28999999
-6.7389998 5.9380002 -0.903 0.23
-6.7659998 5.9229999 -0.90499997 0.19
-8.6070004 7.4780002 -1.201 0.36000001
-8.7749996 7.5749998 -1.224 0.16
-8.835 7.5780001 -1.23 0
-8.8800001 7.5689998 -1.233 0
-8.9250002 7.559 -1.237 0
-8.9659996 7.5689998 -1.2410001 0
-9.0319996 7.5760002 -1.248 0.12
-9.0970001 7.5819998 -1.255 0.15000001
-9.4940004 7.862 -1.314 0.28999999
-9.4949999 7.8119998 -1.3099999 0.22
-9.4989996 7.7649999 -1.307 0.38999999
-9.2700005 7.5310001 -1.267 0.34
-9.316 7.5440001 -1.272 0.33000001
-9.3879995 7.553 -1.28 0.33000001
-9.4420004 7.5479999 -1.285 0.25
-9.6079998 7.6300001 -1.307 0.27000001
-9.6520004 7.6160002 -1.3099999 0
-13.668 10.702 -1.932 0.12
-13.711 10.666 -1.933 0.23
-13.734 10.649 -1.934 0.18000001
-13.745 10.589 -1.931 0.33000001
-13.77 10.54 -1.9299999 0.18000001
-13.802 10.495 -1.929 0.37
-13.822 10.442 -1.928 0.18000001
-13.856 10.4 -1.928 0.36000001
-13.867 10.34 -1.924 0.18000001
-13.885 10.319 -1.925 0.36000001
-13.896 10.26 -1.921 0.22
-13.92 10.211 -1.92 0.2
-13.968 10.179 -1.923 0.38
-13.991 10.128 -1.921 0.2
-14.014 10.078 -1.92 0.25
-14.023 10.018 -1.9170001 0.2
-14.034 9.9919996 -1.916 0.2
-14.056 9.941 -1.914 0.27000001
-14.082 9.8940001 -1.914 0.25999999
-14.054 9.809 -1.905 0.51999998
-14.132 9.7969999 -1.9119999 0.23
-14.132 9.7309999 -1.9069999 0.31
-14.149 9.6780005 -1.905 0.2
-14.147 9.6429996 -1.903 0.18000001
-14.17 9.5950003 -1.902 0.31999999
-14.19 9.5430002 -1.9 0.2
-14.219 9.4980001 -1.9 0.18000001
-14.237 9.4449997 -1.898 0.14
-14.238 9.382 -1.8940001 0.17
-14.278 9.3439999 -1.896 0.28999999
-14.277 9.3109999 -1.893 0.2
-14.271 9.2440004 -1.888 0.19
-9.2220001 5.902 -1.145 0.38
-9.1969995 5.8460002 -1.1390001 0.36000001
-14.336 9.0319996 -1.881 0.18000001
-14.369 8.9899998 -1.882 0.28999999
-14.363 8.9549999 -1.8789999 0.11
-14.408 8.9200001 -1.881 0.17
-9.5819998 5.901 -1.182 0.16
-9.6260004 5.8860002 -1.186 0.27000001
-9.6969995 5.888 -1.193 0.33000001
-9.7539997 5.881 -1.199 0.34
-9.8120003 5.8730001 -1.205 0.37
-9.8859997 5.8959999 -1.214 0.33000001
-9.8789997 5.8499999 -1.21 0.34
-10.012 5.8860002 -1.227 0.22
-14.459 8.427 -1.855 0.19
-14.465 8.3690004 -1.852 0.23
-14.493 8.3249998 -1.853 0.34999999
-14.514 8.276 -1.852 0.34999999
-14.511 8.2449999 -1.85 0.30000001
-14.471 8.1619997 -1.841 0.17
-14.556 8.1499996 -1.849 0.17
-14.585 8.1059999 -1.849 0.28999999
-14.591 8.0489998 -1.847 0.2
-14.62 8.0050001 -1.847 0.16
-14.636 7.9549999 -1.846 0.31
-14.64 7.927 -1.845 0.19
-14.654 7.875 -1.8430001 0.16
-14.667 7.823 -1.841 0.13
-14.681 7.7709999 -1.84 0.17
-14.7 7.7220001 -1.839 0.12
-14.71 7.6690001 -1.837 0.18000001
-14.727 7.619 -1.836 0.12
-14.726 7.5890002 -1.835 0.16
-11.803 5.9949999 -1.426 0.19
-11.676 5.8850002 -1.406 0.14
-14.799 7.3930001 -1.832 0.16
-14.821 7.3460002 -1.831 0.31999999
-14.828 7.2909999 -1.829 0.2
-14.814 7.256 -1.826 0.18000001
-14.828 7.2049999 -1.825 0.20999999
-14.831 7.1490002 -1.822 0.19
-14.835 7.0939999 -1.8200001 0.22
-14.845 7.0409999 -1.818 0.16
-13.538 6.3720002 -1.638 0.16
-13.609 6.3530002 -1.645 0.33000001
-13.567 6.3070002 -1.637 0.36000001
-13.345 6.1539998 -1.605 0.36000001
-13.091 5.987 -1.568 0.40000001
-13.189 5.9819999 -1.579 0.33000001
-13.25 5.9590001 -1.584 0.41
-13.083 5.836 -1.5599999 0.36000001
-13.127 5.8060002 -1.563 0.36000001
-13.156 5.7940001 -1.566 0.38999999
-13.314 5.8130002 -1.584 0.38999999
-13.194 5.7119999 -1.566 0.36000001
-13.422 5.7600002 -1.594 0.38
-13.487 5.7379999 -1.6 0.25999999
-13.465 5.6789999 -1.595 0.47999999
-13.498 5.6420002 -1.597 0.41
-13.512 5.6230001 -1.598 0.37
-13.48 5.5609999 -1.591 0.34999999
-13.554 5.5409999 -1.599 0.44999999
-13.45 5.4499998 -1.582 0.41
-13.541 5.4369998 -1.592 0.34
-13.599 5.4109998 -1.598 0.38
-13.691 5.3969998 -1.608 0.38
-13.8 5.415 -1.6210001 0.47
-13.802 5.3660002 -1.619 0.25
-13.85 5.335 -1.623 0.46000001
-13.908 5.3070002 -1.628 0.37
-13.995 5.289 -1.637 0.28
-14.047 5.2589998 -1.642 0.44
-14.097 5.2270002 -1.647 0.41
-14.123 5.211 -1.649 0.34999999
-14.226 5.198 -1.66 0.44999999
-14.341 5.1890001 -1.673 0.31
-14.426 5.1690001 -1.682 0.5
-14.551 5.1620002 -1.696 0.37
-14.625 5.1360002 -1.704 0.41999999
-14.623 5.0840001 -1.701 0.25
-14.681 5.0780001 -1.7079999 0.36000001
-14.797 5.066 -1.721 0.34999999
-14.916 5.0539999 -1.734 0.25
-15.052 5.0479999 -1.75 0.17
-15.159 5.0300002 -1.762 0.55000001
-15.308 5.026 -1.779 0.28
-15.422 5.0100002 -1.7920001 0.30000001
-15.474 5 -1.7970001 0.31999999
-15.535 4.9650002 -1.803 0.41
-15.575 4.9239998 -1.806 0.36000001
-15.579 4.8720002 -1.8049999 0.30000001
-15.592 4.822 -1.804 0.28
-15.605 4.7729998 -1.804 0.28999999
-15.614 4.7220001 -1.803 0.28999999
-15.622 4.697 -1.803 0.25
-15.619 4.6430001 -1.801 0.18000001
-15.659 4.6009998 -1.804 0.43000001
-15.662 4.5489998 -1.803 0.23999999
-15.674 4.4990001 -1.803 0.19
-15.703 4.454 -1.8049999 0.38999999
-15.696 4.3990002 -1.802 0.19
-15.72 4.3790002 -1.804 0.38
-15.73 4.329 -1.804 0.18000001
-15.746 4.2800002 -1.804 0.36000001
-15.755 4.2290001 -1.803 0.19
-15.77 4.1799998 -1.804 0.38
-15.778 4.1290002 -1.803 0.2
-15.8 4.0819998 -1.804 0.23
-15.799 4.0549998 -1.803 0.18000001
-15.813 4.006 -1.803 0.34999999
-15.834 3.9579999 -1.804 0.19
-15.84 3.9070001 -1.804 0.31999999
-15.841 3.8540001 -1.802 0.19
-15.843 3.802 -1.801 0.34
-15.857 3.753 -1.801 0.19
-15.859 3.727 -1.801 0.37
-15.871 3.677 -1.801 0.18000001
-15.886 3.628 -1.801 0.37
-15.882 3.575 -1.799 0.19
-15.903 3.527 -1.801 0.36000001
-15.91 3.4760001 -1.8 0.18000001
-15.917 3.4260001 -1.8 0.25999999
-15.905 3.3970001 -1.7970001 0.2
-15.905 3.345 -1.796 0.16
-15.933 3.2980001 -1.798 0.41
-15.932 3.2460001 -1.7970001 0.2
-15.956 3.1989999 -1.799 0.37
-15.944 3.1440001 -1.796 0.19
-15.97 3.0969999 -1.798 0.38
-15.971 3.0710001 -1.7970001 0.2
-15.988 3.023 -1.798 0.38
-15.978 2.9690001 -1.796 0.19
-16.003 2.921 -1.798 0.38
-15.982 2.8659999 -1.794 0.22
-15.986 2.8150001 -1.793 0.2
-16.014 2.7679999 -1.796 0.36000001
-16.006001 2.7409999 -1.794 0.19
-16.018999 2.691 -1.795 0.37
-16.025 2.6400001 -1.795 0.16
-16.034 2.5899999 -1.795 0.37
-16.025999 2.5369999 -1.793 0.18000001
-16.046 2.4890001 -1.794 0.34999999
-16.042 2.4360001 -1.793 0.19
-16.045 2.411 -1.793 0.37
-16.052999 2.3610001 -1.793 0.18000001
-16.056 2.3099999 -1.7920001 0.34999999
-16.046 2.257 -1.79 0.18000001
-16.072001 2.2090001 -1.7920001 0.37
-16.066999 2.1570001 -1.791 0.19
-16.077999 2.1070001 -1.7920001 0.38
-16.07 2.0799999 -1.79 0.22
-16.063999 2.0280001 -1.789 0.18000001
-16.09 1.98 -1.791 0.41
-16.087999 1.929 -1.79 0.22
-16.079 1.876 -1.788 0.2
-16.1 1.8279999 -1.79 0.38
-16.106001 1.777 -1.79 0.2
-16.103001 1.751 -1.789 0.34
-16.110001 1.701 -1.79 0.19
-16.110001 1.65 -1.789 0.36000001
-16.103001 1.598 -1.7869999 0.23999999
-16.124001 1.549 -1.789 0.25999999
-16.129999 1.498 -1.79 0.30000001
-16.141001 1.448 -1.79 0.28
-16.139 1.4220001 -1.79 0.16
-16.146999 1.372 -1.79 0.37
-16.143999 1.321 -1.789 0.2
-16.162001 1.271 -1.791 0.37
-16.15 1.219 -1.789 0.18000001
-16.153999 1.168 -1.789 0.38
-16.149 1.117 -1.788 0.17
-16.153 1.092 -1.788 0.38
-16.162001 1.041 -1.789 0.19
-16.15 0.99000001 -1.7869999 0.34
-16.136999 0.93800002 -1.785 0.17
-11.339 0.57800001 -1.1950001 0.61000001
-11.208 0.53600001 -1.178 0.38999999
-11.17 0.49900001 -1.173 0.47
-11.207 0.465 -1.178 0.34
-11.087 0.391 -1.163 0.51999998
-11.039 0.35499999 -1.1569999 0.14
-11.027 0.33700001 -1.155 0.34
-11.012 0.30199999 -1.153 0.34999999
-11.007 0.26699999 -1.153 0.30000001
-10.996 0.23199999 -1.151 0.31999999
-10.995 0.198 -1.151 0.30000001
-10.996 0.163 -1.151 0.34999999
-10.992 0.12899999 -1.15 0.33000001
-10.976 0.111 -1.148 0.36000001
-10.983 0.077 -1.149 0.38
-10.981 0.041999999 -1.149 0.44999999
-10.961 -0.027000001 -1.146 0.64999998
-10.969 -0.061000001 -1.147 0.38999999
-10.967 -0.096000001 -1.147 0.41
-10.974 -0.113 -1.148 0.28999999
-10.982 -0.148 -1.149 0.44999999
-10.987 -0.182 -1.15 0.36000001
-11.007 -0.21699999 -1.152 0.49000001
-11.026 -0.252 -1.155 0.25
-11.001 -0.28600001 -1.152 0.27000001
-11.01 -0.30399999 -1.153 0.25
-10.966 -0.33700001 -1.148 0.13
-10.988 -0.37200001 -1.151 0.20999999
-10.963 -0.40599999 -1.148 0.67000002
-10.988 -0.44100001 -1.151 0.2
-11.105 -0.48100001 -1.165 0.23999999
-11.134 -0.51800001 -1.169 0.38999999
-11.135 -0.53500003 -1.169 0.63999999
-11.002 -0.59799999 -1.153 0.63
-11.064 -0.63599998 -1.161 0.23999999
-11.093 -0.67299998 -1.165 0.16
-11.101 -0.708 -1.166 0
-11.17 -0.74800003 -1.175 0.11
-13.706 -0.96700001 -1.488 0.23999999
-15.849 -1.148 -1.752 0.18000001
-15.853 -1.198 -1.753 0.34999999
-15.825 -1.2460001 -1.75 0.18000001
-15.835 -1.2970001 -1.751 0.38
-15.803 -1.344 -1.748 0.23
-15.815 -1.395 -1.75 0.18000001
-15.81 -1.4450001 -1.75 0.41
-15.808 -1.47 -1.75 0.23999999
-15.78 -1.517 -1.747 0.19
-15.804 -1.5700001 -1.751 0.41999999
-15.786 -1.618 -1.749 0.25
-15.822 -1.6720001 -1.7539999 0.25
-15.826 -1.723 -1.755 0.25
-15.806 -1.745 -1.753 0.17
-15.788 -1.794 -1.752 0.44
-15.753 -1.84 -1.748 0.33000001
-15.739 -1.888 -1.747 0.28999999
-15.733 -1.938 -1.747 0.34
-15.698 -1.983 -1.743 0.28999999
-15.658 -2.0280001 -1.739 0.30000001
-15.6 -2.046 -1.732 0.27000001
-15.55 -2.089 -1.727 0.25999999
-15.512 -2.1329999 -1.723 0.25
-15.466 -2.1760001 -1.7180001 0.27000001
-15.386 -2.214 -1.709 0.20999999
-15.312 -2.253 -1.701 0.38999999
-15.282 -2.2969999 -1.698 0.27000001
-15.251 -2.3169999 -1.6950001 0.28
-15.208 -2.359 -1.6900001 0.25
-15.177 -2.4030001 -1.687 0.27000001
-15.155 -2.4489999 -1.686 0.25999999
-15.101 -2.4890001 -1.6799999 0.22
-15.101 -2.5369999 -1.681 0.41
-15.071 -2.5810001 -1.678 0.30000001
-15.026 -2.598 -1.673 0.25999999
-15.008 -2.6429999 -1.6720001 0.23999999
-14.947 -2.681 -1.665 0.18000001
-14.95 -2.73 -1.666 0.43000001
-14.898 -2.7690001 -1.661 0.25
-14.859 -2.809 -1.6569999 0.16
-14.842 -2.855 -1.656 0.44999999
-14.796 -2.8699999 -1.651 0.23999999
-14.76 -2.911 -1.648 0.27000001
-14.714 -2.95 -1.643 0.2
-14.706 -2.9960001 -1.643 0.41999999
-14.662 -3.0350001 -1.6390001 0.25
-14.631 -3.0769999 -1.636 0.25999999
-14.614 -3.1210001 -1.635 0.25
-14.566 -3.135 -1.63 0.19
-14.562 -3.1819999 -1.631 0.43000001
-14.521 -3.221 -1.627 0.25
-14.505 -3.2650001 -1.626 0.28
-14.481 -3.3069999 -1.624 0.27000001
-14.467 -3.352 -1.624 0.27000001
-14.433 -3.392 -1.6210001 0.25
-14.416 -3.4119999 -1.619 0.36000001
-14.38 -3.451 -1.6160001 0.28
-14.373 -3.497 -1.617 0.27000001
-14.331 -3.5350001 -1.613 0.28999999
-14.293 -3.573 -1.609 0.31
-14.266 -3.6140001 -1.608 0.28999999
-14.243 -3.6559999 -1.6059999 0.25999999
-14.205 -3.6689999 -1.602 0.18000001
-14.191 -3.7130001 -1.602 0.46000001
-14.174 -3.757 -1.601 0.28999999
-14.174 -3.8039999 -1.602 0.31999999
-14.154 -3.8469999 -1.601 0.31999999
-14.146 -3.892 -1.602 0.41
-14.143 -3.9389999 -1.603 0.31999999
-14.144 -3.964 -1.604 0.34
-14.134 -4.0079999 -1.604 0.31999999
-14.115 -4.0510001 -1.604 0.28999999
-14.089 -4.092 -1.602 0.31
-14.051 -4.1290002 -1.599 0.31999999
-14.031 -4.1700001 -1.598 0.33000001
-14.008 -4.2119999 -1.597 0.33000001
-13.986 -4.2290001 -1.595 0.31999999
-13.962 -4.2690001 -1.5930001 0.30000001
-13.92 -4.3039999 -1.589 0.27000001
-13.915 -4.3509998 -1.591 0.34
-13.883 -4.3889999 -1.5880001 0.31
-13.878 -4.4349999 -1.589 0.31
-13.849 -4.474 -1.5880001 0.31
-13.829 -4.4910002 -1.586 0.31
-13.807 -4.5320001 -1.585 0.30000001
-13.782 -4.572 -1.5829999 0.30000001
-13.748 -4.6090002 -1.581 0.30000001
-13.723 -4.6479998 -1.579 0.28999999
-13.695 -4.6869998 -1.5779999 0.28999999
-13.667 -4.7249999 -1.576 0.30000001
-13.65 -4.743 -1.575 0.30000001
-13.626 -4.783 -1.574 0.28999999
-13.603 -4.823 -1.573 0.28999999
-13.566 -4.8579998 -1.5700001 0.30000001
-13.532 -4.8940001 -1.567 0.31999999
-13.496 -4.9289999 -1.5650001 0.30000001
-13.476 -4.9699998 -1.564 0.28999999
-13.454 -4.9850001 -1.562 0.31
-13.427 -5.0229998 -1.561 0.28999999
-13.426 -5.0710001 -1.563 0.30000001
-13.397 -5.1079998 -1.561 0.30000001
-13.36 -5.1420002 -1.558 0.30000001
-13.344 -5.184 -1.558 0.30000001
-13.337 -5.23 -1.5599999 0.30000001
-13.321 -5.2480001 -1.559 0.31999999
-13.312 -5.2930002 -1.5599999 0.31
-13.288 -5.3309999 -1.559 0.30000001
-13.271 -5.3730001 -1.559 0.31999999
-13.245 -5.4109998 -1.557 0.28999999
-13.228 -5.4530001 -1.557 0.31999999
-13.196 -5.4879999 -1.5549999 0.31
-13.177 -5.5040002 -1.554 0.31
-13.154 -5.5430002 -1.553 0.31999999
-13.124 -5.579 -1.551 0.31
-13.102 -5.619 -1.551 0.31
-13.068 -5.6529999 -1.549 0.31
-13.05 -5.6939998 -1.549 0.31
-13.029 -5.7329998 -1.548 0.31999999
-13.023 -5.7550001 -1.549 0.31999999
-12.994 -5.7909999 -1.5470001 0.30000001
-12.973 -5.8299999 -1.5470001 0.31
-12.943 -5.8660002 -1.545 0.31
-12.907 -5.8979998 -1.543 0.30000001
-12.885 -5.9369998 -1.5420001 0.30000001
-12.85 -5.9699998 -1.54 0.31
-12.83 -5.9850001 -1.539 0.30000001
-12.802 -6.0209999 -1.538 0.30000001
-12.776 -6.0580001 -1.5369999 0.30000001
-12.744 -6.092 -1.535 0.31999999
-12.718 -6.1290002 -1.534 0.31
-12.673 -6.1570001 -1.531 0.31999999
-12.65 -6.1950002 -1.53 0.31999999
-12.641 -6.2140002 -1.53 0.31999999
-12.616 -6.2509999 -1.529 0.33000001
-12.576 -6.2810001 -1.527 0.31999999
-12.557 -6.3210001 -1.527 0.31
-12.535 -6.3590002 -1.526 0.30000001
-12.52 -6.401 -1.527 0.31
-12.489 -6.4349999 -1.526 0.31
-12.481 -6.4559999 -1.526 0.28999999
-12.443 -6.4860001 -1.523 0.30000001
-12.419 -6.5229998 -1.523 0.31
-12.365 -6.5440001 -1.518 0.25
-12.35 -6.586 -1.5190001 0.25
-12.314 -6.6160002 -1.517 0.36000001
-12.293 -6.6300001 -1.515 0.38999999
-12.267 -6.665 -1.515 0.38999999
-12.251 -6.7069998 -1.515 0.38
-12.211 -6.7350001 -1.513 0.28999999
-12.146 -6.7490001 -1.507 0.25999999
-12.064 -6.7529998 -1.498 0.30000001
-12.036 -6.7870002 -1.497 0.28
-11.99 -6.8109999 -1.494 0.46000001
-11.969 -6.8239999 -1.492 0.41999999
-11.91 -6.8390002 -1.487 0.36000001
-11.849 -6.8540001 -1.4809999 0.34999999
-11.699 -6.816 -1.4630001 0.44
-11.768 -6.9060001 -1.476 0.34
-11.682 -6.9050002 -1.467 0.44999999
-11.664 -6.9190001 -1.466 0.23999999
-11.571 -6.9120002 -1.455 0.60000002
-11 -6.6170001 -1.377 0.20999999
-10.832 -6.5619998 -1.3559999 0.31999999
-10.716 -6.5380001 -1.342 0.40000001
-10.609 -6.5180001 -1.329 0.44999999
-10.301 -6.3720002 -1.288 0.31
-10.318 -6.4050002 -1.2920001 0.36000001
-10.276 -6.4239998 -1.289 0.31999999
-10.23 -6.4400001 -1.285 0.5
-10.054 -6.3730001 -1.262 0.36000001
-9.9720001 -6.3649998 -1.253 0.34999999
-9.8699999 -6.3439999 -1.2410001 0.41
-9.7790003 -6.3280001 -1.2309999 0.41
-9.7019997 -6.3000002 -1.221 0.44999999
-9.5469999 -6.2410002 -1.201 0.40000001
-9.4390001 -6.2129998 -1.188 0.23999999
-9.5170002 -6.3080001 -1.202 0.47999999
-9.3920002 -6.2670002 -1.187 0.43000001
-9.1700001 -6.1599998 -1.1569999 0.43000001
-8.9829998 -6.0749998 -1.132 0.28999999
-8.9160004 -6.0489998 -1.124 0.31999999
-8.8590002 -6.052 -1.118 0.46000001
-8.7749996 -6.0339999 -1.108 0.30000001
-8.6420002 -5.9819999 -1.091 0.47999999
-8.7250004 -6.0809999 -1.1059999 0.23
-8.6490002 -6.0689998 -1.098 0.54000002
-8.4799995 -5.9889998 -1.075 0.43000001
-8.4110003 -5.96 -1.066 0.28999999
-8.3660002 -5.967 -1.062 0.40000001
-8.3459997 -5.993 -1.062 0.44
-8.2910004 -5.993 -1.057 0.33000001
-8.2469997 -6 -1.053 0.43000001
-8.158 -5.974 -1.0420001 0.34999999
-8.0559998 -5.9390001 -1.029 0.40000001
-8.0799999 -5.9759998 -1.035 0.38999999
-7.974 -5.9359999 -1.021 0.31
-7.9419999 -5.9510002 -1.0190001 0.38
-7.9200001 -5.974 -1.0190001 0.41999999
-7.79 -5.9130001 -1.001 0.36000001
-7.6939998 -5.8790002 -0.98900002 0.30000001
-7.6609998 -5.8920002 -0.98699999 0.54000002
-7.592 -5.8579998 -0.97799999 0.31
-7.586 -5.8909998 -0.98000002 0.44
-7.4770002 -5.8439999 -0.96600002 0.34
-7.4450002 -5.8559999 -0.96399999 0.38
-7.414 -5.8699999 -0.96200001 0.33000001
-7.3790002 -5.8790002 -0.95899999 0.46000001
-7.335 -5.882 -0.95499998 0.28
-7.3249998 -5.8930001 -0.95499998 0.44
-7.283 -5.8969998 -0.95099998 0.31
-7.237 -5.8969998 -0.94700003 0.47999999
-7.2179999 -5.9200001 -0.94700003 0.28999999
-7.1279998 -5.8829999 -0.935 0.41999999
-7.0799999 -5.881 -0.93099999 0.41
-7.0159998 -5.8649998 -0.92299998 0.38999999
-7.046 -5.9089999 -0.93000001 0.22
-6.9819999 -5.8930001 -0.92199999 0.43000001
-6.9590001 -5.9109998 -0.92199999 0.38999999
-6.8730001 -5.8740001 -0.91100001 0.41
-6.8249998 -5.8699999 -0.90600002 0.38
-6.8520002 -5.9320002 -0.91299999 0.31999999
-6.7979999 -5.9219999 -0.90799999 0.38
-6.789 -5.9330001 -0.90799999 0.38999999
-6.8010001 -5.9819999 -0.91299999 0.38
-6.8579998 -6.0700002 -0.92500001 0.28
-6.7919998 -6.0489998 -0.917 0.54000002
-6.895 -6.1810002 -0.93800002 0.23999999
-6.7740002 -6.1110001 -0.921 0.30000001
-6.7519999 -6.1290002 -0.92000002 0.44999999
-6.7090001 -6.1090002 -0.91500002 0.36000001
-6.6669998 -6.1100001 -0.91100001 0.44999999
-6.599 -6.085 -0.903 0.30000001
-6.5619998 -6.0890002 -0.89999998 0.34
-6.5180001 -6.0869999 -0.89600003 0.33000001
-6.48 -6.0890002 -0.89200002 0.46000001
-6.4619999 -6.0910001 -0.89099997 0.27000001
-6.4390001 -6.1079998 -0.88999999 0.44999999
-6.3850002 -6.0949998 -0.884 0.27000001
-6.3670001 -6.1160002 -0.88499999 0.47
-6.6430001 -6.4229999 -0.935 0.28
-6.6620002 -6.4819999 -0.94199997 0.41999999
-6.5770001 -6.4390001 -0.93099999 0.37
-6.3109999 -6.197 -0.88700002 0.37
-6.296 -6.2210002 -0.88700002 0.23999999
-6.2750001 -6.2389998 -0.88700002 0.54000002
-6.3270001 -6.3309999 -0.89999998 0.23999999
-6.3709998 -6.4159999 -0.91100001 0.55000001
-6.27 -6.3530002 -0.89700001 0.25
-6.3039999 -6.4289999 -0.90600002 0.38
-6.1110001 -6.2509999 -0.87400001 0.17
-6.1040001 -6.283 -0.87599999 0.47999999
-6.039 -6.2540002 -0.86799997 0.27000001
-6.027 -6.2820001 -0.87 0.5
-5.7579999 -6.0370002 -0.82499999 0.27000001
-5.9429998 -6.2719998 -0.86199999 0.18000001
-5.9400001 -6.3080001 -0.86400002 0.37
-5.9190001 -6.3060002 -0.86299998 0.25
-5.927 -6.355 -0.86799997 0.49000001
-5.9289999 -6.3969998 -0.87199998 0.31999999
-5.8379998 -6.3379998 -0.85900003 0.25999999
-5.8390002 -6.3800001 -0.86299998 0.49000001
-5.8829999 -6.4689999 -0.87400001 0.34
-5.645 -6.2449999 -0.83399999 0.28
-5.46 -6.059 -0.80199999 0.20999999
-5.5419998 -6.1880002 -0.82099998 0.31999999
-5.5139999 -6.197 -0.81900001 0.38
-5.5139999 -6.237 -0.82300001 0.37
-5.2550001 -6.0180001 -0.78200001 0.37
-5.223 -6.0190001 -0.77899998 0.38999999
-5.1890001 -5.9990001 -0.77499998 0.38999999
-5.1589999 -6.0009999 -0.77200001 0.38999999
-5.119 -5.993 -0.76800001 0.38999999
-5.0949998 -6.0029998 -0.76700002 0.38999999
-5.0560002 -5.9949999 -0.764 0.41
-5.026 -5.9970002 -0.76099998 0.38999999
-4.987 -5.9879999 -0.75700003 0.38999999
-4.961 -5.9759998 -0.75400001 0.47999999
-4.9349999 -5.9829998 -0.75300002 0.18000001
-4.9089999 -5.9899998 -0.75199997 0.56999999
-4.8670001 -5.9759998 -0.74699998 0.27000001
-4.8000002 -5.9699998 -0.741 0.57999998
-4.7550001 -5.9720001 -0.73799998 0.57999998
-4.599 -5.8499999 -0.71399999 0.56
-4.5120001 -5.8130002 -0.704 0.19
-4.5430002 -5.9310002 -0.71799999 0.23
-4.5380001 -5.9429998 -0.71899998 0.49000001
-4.493 -5.9219999 -0.713 0.13
-4.4099998 -5.8499999 -0.69999999 0.37
-4.4400001 -5.9299998 -0.70999998 0.11
-4.415 -5.9359999 -0.70899999 0.18000001
-4.323 -5.849 -0.69400001 0.55000001
-4.3280001 -5.914 -0.69999999 0.38
-4.2290001 -5.816 -0.68400002 0.18000001
-4.2930002 -5.9439998 -0.70099998 0
-4.243 -5.914 -0.69400001 0.11
-4.184 -5.9099998 -0.69 0.28
-4.1690001 -5.908 -0.68900001 0.34
-4.151 -5.921 -0.68900001 0.56999999
-4.0809999 -5.9000001 -0.68099999 0.47
-4.0489998 -5.8930001 -0.67900002 0.30000001
-4.0240002 -5.8959999 -0.67699999 0.34
-3.9949999 -5.8930001 -0.67500001 0.38
-3.98 -5.8909998 -0.67400002 0.37
-3.9460001 -5.881 -0.67000002 0.38
-3.924 -5.8860002 -0.66900003 0.37
-3.9000001 -5.8899999 -0.66799998 0.38
-3.8699999 -5.8860002 -0.66600001 0.38999999
-3.7720001 -5.7750001 -0.648 0.56
-3.8169999 -5.8850002 -0.662 0.2
-3.816 -5.9050002 -0.66399997 0.16
-3.8069999 -5.9320002 -0.66600001 0.25
-3.766 -5.908 -0.66100001 0.27000001
-3.777 -5.967 -0.66799998 0.44999999
-3.747 -5.96 -0.66500002 0.27000001
-3.825 -6.1269999 -0.68800002 0.27000001
-3.967 -6.4029999 -0.72600001 0.28999999
-3.7679999 -6.0999999 -0.68099999 0.27000001
-4.0929999 -6.678 -0.76200002 0
-3.654 -5.9990001 -0.66299999 0
-3.598 -5.948 -0.65399998 0.039999999
-3.6099999 -6.0120001 -0.662 0.13
-3.9519999 -6.6329999 -0.74900001 0.27000001
-3.615 -6.1059999 -0.67199999 0.20999999
-3.6240001 -6.145 -0.67699999 0.17
-3.6429999 -6.2210002 -0.68599999 0.14
-3.599 -6.191 -0.68000001 0.18000001
-3.631 -6.2919998 -0.69300002 0.44999999
-3.9330001 -6.8699999 -0.773 0.18000001
-3.925 -6.9060001 -0.77600002 0.16
-5.6739998 -10.081 -1.221 0.41
-5.2750001 -9.4040003 -1.124 0.37
-5.2379999 -9.4060001 -1.123 0.20999999
-5.2220001 -9.4469995 -1.126 0.5
-3.902 -7.099 -0.79500002 0.37
-3.7920001 -6.9489999 -0.773 0.37
-3.7149999 -6.8569999 -0.75800002 0.25
-3.734 -6.9460001 -0.76899999 0.27000001
-3.6259999 -6.7690001 -0.74400002 0.38999999
-3.5469999 -6.6700001 -0.72799999 0.17
-3.53 -6.6900001 -0.72899997 0.23
-3.4549999 -6.5949998 -0.71499997 0.34
-3.6070001 -6.9419999 -0.76099998 0.2
-3.677 -7.1890001 -0.792 0.5
-3.6719999 -7.2069998 -0.79400003 0.15000001
-3.5739999 -7.0679998 -0.773 0.36000001
-3.48 -6.9349999 -0.75300002 0.27000001
-3.506 -7.0440001 -0.76700002 0.30000001
-3.4489999 -6.9829998 -0.75700003 0.30000001
-3.3670001 -6.8709998 -0.74000001 0.2
-3.3039999 -6.796 -0.72799999 0.44999999
-3.316 -6.8470001 -0.73500001 0.19
-3.326 -6.9239998 -0.74400002 0.20999999
-3.263 -6.8470001 -0.73199999 0.17
-3.5550001 -7.526 -0.82300001 0.17
-3.487 -7.441 -0.81 0.20999999
-3.434 -7.3889999 -0.801 0.22
-3.3150001 -7.1599998 -0.76899999 0.46000001
-3.3039999 -7.1960001 -0.773 0
-3.1889999 -7.0019999 -0.745 0
-2.6589999 -5.9250002 -0.59799999 0
-2.6240001 -5.8969998 -0.59299999 0.050000001
-3.1240001 -7.0939999 -0.75199997 0.14
-3.04 -6.9310002 -0.73000002 0.33000001
-3.043 -6.9990001 -0.73799998 0.17
-2.9909999 -6.9369998 -0.72799999 0.28
-2.97 -6.9489999 -0.72799999 0.33000001
-4.0739999 -9.6409998 -1.086 0.11
-2.4820001 -5.9000001 -0.58700001 0.38999999
-2.4430001 -5.8569999 -0.57999998 0.14
-3.175 -7.6680002 -0.81999999 0.41
-2.431 -5.9089999 -0.58499998 0.27000001
-3.9189999 -9.6540003 -1.08 0.20999999
-3.1389999 -7.7880001 -0.83200002 0.27000001
-3.0780001 -7.7049999 -0.81900001 0.22
-3.223 -8.1470003 -0.87599999 0.34
-3.7449999 -9.5670004 -1.062 0.22
-3.289 -8.4329996 -0.912 0.40000001
-3.1359999 -8.1129999 -0.86900002 0.16
-3.102 -8.1000004 -0.866 0.43000001
-3.2079999 -8.4589996 -0.91100001 0.34999999
-2.99 -8.0319996 -0.85299999 0.54000002
-2.948 -8.0349998 -0.852 0.55000001
-2.885 -7.9400001 -0.838 0.19
-2.888 -8.0270004 -0.84799999 0.36000001
-2.8559999 -8.0159998 -0.84500003 0.40000001
-2.8369999 -8.0439997 -0.84799999 0.44999999
-2.7909999 -7.9920001 -0.83999997 0.14
-2.753 -7.9619999 -0.83499998 0.47999999
-2.776 -8.073 -0.84899998 0.2
-2.7160001 -7.9759998 -0.83499998 0.54000002
-2.7249999 -8.0889997 -0.84899998 0.27000001
-2.7 -8.099 -0.84899998 0.20999999
-2.651 -8.0360003 -0.83999997 0.50999999
-2.684 -8.2229996 -0.86299998 0.31
-2.6300001 -8.099 -0.84600002 0.27000001
-2.595 -8.0790005 -0.84299999 0.30000001
-2.5799999 -8.1169996 -0.84600002 0.36000001
-2.6010001 -8.2770004 -0.866 0.18000001
-2.553 -8.2130003 -0.85699999 0.19
-2.5420001 -8.2690001 -0.86299998 0.41999999
-2.5009999 -8.2290001 -0.85699999 0.2
-2.4990001 -8.2670002 -0.861 0
-1.829 -6.0970001 -0.58200002 0
-1.994 -6.7319999 -0.66299999 0
-1.978 -6.7589998 -0.66500002 0
-1.888 -6.5209999 -0.634 0
-1.927 -6.7410002 -0.66100001 0
-1.923 -6.849 -0.67400002 0.090000004
-2.2920001 -8.3859997 -0.86799997 0.38
-3.0439999 -11.457 -1.256 0.54000002
-3.0090001 -11.47 -1.257 0.28
-2.977 -11.493 -1.258 0.41
-2.951 -11.469 -1.255 0.23
-2.9030001 -11.428 -1.248 0.54000002
-2.8970001 -11.558 -1.2640001 0.12
-2.8629999 -11.577 -1.265 0.28
-3.191 -13.097 -1.456 0.38
-3.148 -13.095 -1.454 0.28999999
-3.1289999 -13.2 -1.466 0.38
-3.102 -13.181 -1.4630001 0.22
-3.062 -13.197 -1.464 0.38999999
-3.0239999 -13.222 -1.466 0.34
-2.9790001 -13.212 -1.4630001 0.20999999
-2.9389999 -13.229 -1.464 0.18000001
-2.901 -13.256 -1.467 0.5
-2.8610001 -13.271 -1.467 0.20999999
-2.8329999 -13.242 -1.4630001 0.23
-2.7920001 -13.255 -1.464 0.19
-2.7479999 -13.252 -1.462 0.49000001
-2.71 -13.28 -1.465 0.27000001
-2.6659999 -13.279 -1.4630001 0.25999999
-2.3299999 -11.779 -1.275 0.25999999
-2.5840001 -13.299 -1.464 0.31999999
-2.5639999 -13.309 -1.465 0.22
-2.5220001 -13.315 -1.464 0.36000001
-2.48 -13.325 -1.465 0.2
-2.4330001 -13.305 -1.461 0.22
-2.3940001 -13.328 -1.4630001 0.31
-2.3529999 -13.336 -1.4630001 0.20999999
-2.3329999 -13.349 -1.464 0.28999999
-2.2880001 -13.339 -1.462 0
-0.995 -5.9369998 -0.54000002 0
-0.958 -5.8249998 -0.52499998 0
-0.94400001 -5.855 -0.52899998 0
-0.92400002 -5.8499999 -0.528 0
-0.91299999 -5.836 -0.52600002 0
-0.89999998 -5.8759999 -0.53100002 0
-0.92500001 -6.1820002 -0.56800002 0
-0.97000003 -6.6339998 -0.62400001 0
-0.949 -6.6370001 -0.62400001 0
-0.85500002 -6.1009998 -0.55699998 0
-0.833 -6.0809999 -0.55400002 0
-0.88599998 -6.5640001 -0.61400002 0
-0.94400001 -7.1789999 -0.69 0
-0.93300003 -7.2729998 -0.70099998 0
-0.74199998 -5.8979998 -0.53100002 0
-0.88599998 -7.2690001 -0.69999999 0
-0.86199999 -7.263 -0.699 0
-0.83899999 -7.2620001 -0.69800001 0
-0.81699997 -7.1690001 -0.68699998 0
-0.80400002 -7.2620001 -0.69800001 0.12
-0.78100002 -7.2589998 -0.69700003 0.11
-0.75800002 -7.2649999 -0.69800001 0
-0.73500001 -7.2610002 -0.69700003 0
-0.708 -7.2220001 -0.69199997 0.050000001
-0.68800002 -7.256 -0.69599998 0.12
-0.55000001 -5.8369999 -0.52100003 0.34999999
-0.52999997 -5.8270001 -0.51899999 0.22
-0.51200002 -5.8270001 -0.51899999 0
-0.493 -5.8270001 -0.51899999 0
-0.58600003 -7.2670002 -0.69599998 0.090000004
-0.60000002 -7.77 -0.75700003 0.20999999
-0.58999997 -7.796 -0.76099998 0
-0.426 -5.7919998 -0.514 0.12
-0.53899997 -7.776 -0.75800002 0.23999999
-0.51499999 -7.7800002 -0.75800002 0.28999999
-0.49000001 -7.7810001 -0.75800002 0.27000001
-0.46599999 -7.7810001 -0.75800002 0
-0.40099999 -7.0250001 -0.66500002 0.07
-0.37599999 -6.7620001 -0.63200003 0.17
-0.354 -6.7350001 -0.62900001 0.17
-0.32800001 -6.6409998 -0.61699998 0
-0.30500001 -6.5869999 -0.61000001 0.11
-0.289 -6.7129998 -0.62599999 0.23
-0.26800001 -6.717 -0.62599999 0.31999999
-0.24600001 -6.6849999 -0.62199998 0.20999999
-0.236 -6.6929998 -0.62300003 0.16
-0.213 -6.6360002 -0.616 0.17
-0.193 -6.6880002 -0.62199998 0.25999999
-0.17200001 -6.6669998 -0.62 0.22
-0.15099999 -6.6869998 -0.62199998 0
-0.12800001 -6.5609999 -0.60600001 0.12
-0.11 -6.7080002 -0.62400001 0.23999999
-0.098999999 -6.7059999 -0.62400001 0.25999999
-0.078000002 -6.7379999 -0.62800002 0.25999999
-0.057 -6.8000002 -0.63599998 0
-0.015 -6.7550001 -0.63 0.25999999
0.0060000001 -6.5879998 -0.61000001 0
0.028999999 -6.967 -0.65600002 0
0.043000001 -7.2090001 -0.68599999 0
0.066 -7.2410002 -0.69 0
0.089000002 -7.2519999 -0.69099998 0
0.111 -7.2480001 -0.69099998 0
0.134 -7.2399998 -0.69 0
0.15700001 -7.2470002 -0.69099998 0.12
0.18000001 -7.243 -0.69 0.22
0.191 -7.2480001 -0.69099998 0.16
0.214 -7.2399998 -0.69 0
0.237 -7.2470002 -0.69099998 0
0.259 -7.2319999 -0.68900001 0
0.29899999 -7.6339998 -0.73900002 0.07
0.33000001 -7.7880001 -0.75800002 0.14
0.354 -7.7750001 -0.75599998 0
0.366 -7.7839999 -0.75700003 0
0.391 -7.7789998 -0.75700003 0.11
0.41499999 -7.7800002 -0.75700003 0
0.44 -7.7820001 -0.75800002 0
0.46399999 -7.7789998 -0.75700003 0
0.48800001 -7.7719998 -0.75700003 0.07
0.50099999 -7.7870002 -0.759 0.090000004
0.52499998 -7.777 -0.75800002 0
0.55199999 -7.8070002 -0.76200002 0
0.57700002 -7.809 -0.76200002 0
0.59899998 -7.7820001 -0.759 0.059999999
0.62400001 -7.776 -0.75800002 0.14
0.64899999 -7.7859998 -0.75999999 0
0.66100001 -7.7810001 -0.759 0
0.68099999 -7.7290001 -0.75300002 0
0.66100001 -7.2649999 -0.69599998 0.12
0.70599997 -7.2459998 -0.69499999 0.33000001
0.72899997 -7.2519999 -0.69599998 0.18000001
0.75099999 -7.244 -0.69499999 0.25999999
0.764 -7.2519999 -0.69599998 0.31999999
0.78500003 -7.2340002 -0.69400001 0.14
0.838 -7.4959998 -0.727 0
1.012 -8.7650003 -0.884 0.1
1.053 -8.8719997 -0.898 0
1.0829999 -8.8879995 -0.89999998 0.07
0.903 -7.2550001 -0.69800001 0.22
0.91399997 -7.2509999 -0.69800001 0.2
0.917 -7.1009998 -0.68000001 0
0.68199998 -5.2090001 -0.44600001 0
0.69099998 -5.1539998 -0.43900001 0.07
0.704 -5.1259999 -0.43599999 0.079999998
0.71799999 -5.112 -0.435 0.079999998
0.73100001 -5.0900002 -0.43200001 0.16
0.741 -5.0970001 -0.433 0.16
0.75599998 -5.0890002 -0.43200001 0.31999999
0.76700002 -5.059 -0.42899999 0.22
0.78399998 -5.0640001 -0.43000001 0.25
0.79900002 -5.0560002 -0.42899999 0.27000001
0.81300002 -5.0380001 -0.42699999 0.25999999
0.82599998 -5.0679998 -0.43099999 0.36000001
0.83899999 -5.0500002 -0.42899999 0.30000001
0.85600001 -5.053 -0.43000001 0.23
0.87400001 -5.0640001 -0.43200001 0.33000001
0.89099997 -5.0669999 -0.43200001 0.2
0.90399998 -5.0469999 -0.43000001 0.18000001
0.92900002 -5.0939999 -0.43700001 0
0.935 -5.0809999 -0.435 0
0.95200002 -5.0819998 -0.43599999 0
0.97500002 -5.1139998 -0.44 0
1 -5.158 -0.44600001 0.079999998
1.5420001 -7.7540002 -0.77100003 0.25
1.564 -7.7379999 -0.76999998 0.30000001
1.5930001 -7.7540002 -0.773 0.18000001
1.579 -7.6269999 -0.75700003 0.25999999
1.599 -7.6069999 -0.755 0.31999999
1.574 -7.375 -0.727 0
1.656 -7.6350002 -0.75999999 0
2.3970001 -10.84 -1.164 0.050000001
1.748 -7.7059999 -0.77100003 0.31
1.738 -7.6110001 -0.759 0.23
1.744 -7.5279999 -0.74900001 0.18000001
1.811 -7.7059999 -0.773 0.18000001
1.826 -7.6620002 -0.76800001 0.11
1.823 -7.546 -0.75400001 0
2.1389999 -8.7130003 -0.90200001 0
2.165 -8.7049999 -0.90200001 0
2.1630001 -8.6379995 -0.89399999 0
1.938 -7.552 -0.75800002 0.19
1.957 -7.5289998 -0.75599998 0.47999999
1.99 -7.5549998 -0.75999999 0.18000001
2.006 -7.5219998 -0.75599998 0.28
2.0309999 -7.5209999 -0.75700003 0.38999999
2.0469999 -7.533 -0.759 0.27000001
2.0799999 -7.559 -0.76300001 0.28999999
2.102 -7.5469999 -0.76300001 0.2
2.128 -7.546 -0.76300001 0.27000001
2.1600001 -7.5679998 -0.76700002 0.34
2.181 -7.5539999 -0.76599997 0.2
2.1989999 -7.526 -0.76300001 0.25999999
2.184 -7.4330001 -0.75199997 0.28999999
2.178 -7.329 -0.73900002 0.27000001
2.1700001 -7.2220001 -0.727 0.15000001
2.207 -7.2600002 -0.73199999 0.49000001
2.2249999 -7.2379999 -0.73000002 0.15000001
2.2090001 -7.1079998 -0.71499997 0.28999999
2.2219999 -7.1079998 -0.71499997 0.19
2.2869999 -7.237 -0.73299998 0.27000001
2.3310001 -7.2940001 -0.741 0.2
2.3770001 -7.3590002 -0.75 0.36000001
2.4289999 -7.4380002 -0.76099998 0.25999999
2.4519999 -7.428 -0.76099998 0.30000001
2.4400001 -7.3150001 -0.74699998 0.20999999
2.447 -7.3000002 -0.74599999 0.41999999
2.473 -7.302 -0.74699998 0.2
2.4920001 -7.2810001 -0.74599999 0.18000001
2.4219999 -7.007 -0.71100003 0
2.0320001 -5.8330002 -0.55900002 0.12
2.027 -5.7610002 -0.551 0.15000001
2.326 -6.5359998 -0.65200001 0.25
2.3429999 -6.5510001 -0.65499997 0.22
2.332 -6.4559999 -0.64300001 0.50999999
2.3840001 -6.5339999 -0.65499997 0.23
2.336 -6.3439999 -0.63099998 0.23
2.3310001 -6.27 -0.62199998 0.20999999
2.4289999 -6.4699998 -0.64899999 0.5
2.4260001 -6.402 -0.64099997 0.19
2.444 -6.4180002 -0.64399999 0.30000001
2.415 -6.283 -0.62699997 0.23
2.4400001 -6.29 -0.62900001 0.28999999
2.5020001 -6.3299999 -0.63599998 0.44999999
2.5780001 -6.4619999 -0.65499997 0.22
2.6070001 -6.4759998 -0.65799999 0.25
2.536 -6.2729998 -0.63099998 0.17
2.5769999 -6.3169999 -0.63800001 0.23999999
2.6029999 -6.323 -0.63999999 0.28999999
2.737 -6.586 -0.676 0.1
2.753 -6.566 -0.67500001 0.18000001
2.6619999 -6.296 -0.63999999 0.25
2.665 -6.276 -0.63800001 0.22
2.6589999 -6.2090001 -0.63 0.18000001
2.6949999 -6.2389998 -0.63499999 0.18000001
2.5539999 -5.8649998 -0.58600003 0.34
2.7160001 -6.1799998 -0.63 0.19
2.727 -6.152 -0.62699997 0
2.9230001 -6.5359998 -0.68000001 0
5.9060001 -13.085 -1.563 0.090000004
5.9380002 -13.046 -1.5599999 0.14
5.973 -13.015 -1.559 0.2
6.0289998 -13.028 -1.563 0.47999999
6.0739999 -13.018 -1.564 0.22
6.1160002 -13.001 -1.5650001 0.23
6.1659999 -13.001 -1.567 0.36000001
6.1859999 -12.992 -1.567 0.30000001
6.2259998 -12.97 -1.567 0.25999999
6.2719998 -12.961 -1.569 0.30000001
6.3140001 -12.943 -1.569 0.28
6.3709998 -12.957 -1.573 0.31999999
6.4089999 -12.932 -1.573 0.2
6.4640002 -12.94 -1.577 0.25
6.48 -12.921 -1.575 0.20999999
6.5370002 -12.934 -1.58 0.44999999
6.572 -12.903 -1.579 0.2
6.6220002 -12.9 -1.581 0
6.6700001 -12.893 -1.5829999 0
2.96 -5.7090001 -0.58999997 0
2.983 -5.711 -0.59200001 0
3.0220001 -5.7189999 -0.59500003 0.22
3.0420001 -5.7129998 -0.59500003 0.22
6.902 -12.795 -1.586 0.28999999
6.934 -12.758 -1.5829999 0.19
6.987 -12.76 -1.587 0.31999999
5.678 -10.341 -1.249 0.15000001
5.724 -10.347 -1.252 0.30000001
5.7459998 -10.312 -1.25 0.25999999
5.7779999 -10.292 -1.25 0.31
5.8010001 -10.258 -1.248 0.27000001
5.8460002 -10.262 -1.251 0.43000001
5.8579998 -10.208 -1.2460001 0.22
5.559 -9.6560001 -1.169 0.47
5.546 -9.5629997 -1.158 0.25999999
3.3199999 -5.704 -0.611 0.30000001
3.3329999 -5.6849999 -0.61000001 0.23999999
3.345 -5.6659999 -0.60900003 0.18000001
4.9660001 -8.3260002 -0.991 0.57999998
4.9219999 -8.1949997 -0.97399998 0.18000001
4.9369998 -8.191 -0.97500002 0.25999999
4.9590001 -8.1680002 -0.97399998 0.40000001
4.9569998 -8.1090002 -0.96799999 0.18000001
4.9829998 -8.0930004 -0.96799999 0.31999999
5.013 -8.0860004 -0.96899998 0.44999999
5.0229998 -8.0450001 -0.96499997 0.25
5.0380001 -8.0139999 -0.963 0.2
5.0599999 -8.0190001 -0.96499997 0.41999999
5.0749998 -7.9879999 -0.963 0.25999999
5.1090002 -7.9860001 -0.96499997 0.28
5.1459999 -7.9879999 -0.96700001 0.43000001
3.678 -5.684 -0.63200003 0.19
5.2010002 -7.9640002 -0.96899998 0.25
5.2709999 -8.0150003 -0.97899997 0.31999999
5.316 -8.0550003 -0.986 0.22
6.092 -9.1619997 -1.152 0.23
6.1110001 -9.1280003 -1.149 0.13
6.276 -9.3109999 -1.179 0.34
6.3060002 -9.2910004 -1.179 0.40000001
6.3150001 -9.2419996 -1.175 0.38999999
6.4000001 -9.335 -1.1900001 0.23999999
6.415 -9.2939997 -1.187 0.38
6.961 -10.014 -1.298 0.41
6.539 -9.2849998 -1.1950001 0.44
6.3319998 -8.9329996 -1.145 0.44999999
6.618 -9.2729998 -1.199 0.30000001
6.494 -9.0699997 -1.17 0.38
6.5619998 -9.1049995 -1.179 0.22
6.6669998 -9.1879997 -1.194 0.20999999
6.4640002 -8.8520002 -1.146 0.38999999
6.5500002 -8.9099998 -1.158 0.34999999
6.586 -8.8999996 -1.16 0.36000001
6.586 -8.8409996 -1.154 0.34
6.573 -8.7959995 -1.149 0.33000001
6.6890001 -8.8929996 -1.1670001 0.31999999
6.6599998 -8.7959995 -1.155 0.41
6.8829999 -9.0299997 -1.1950001 0.30000001
6.6880002 -8.7189999 -1.15 0.41999999
6.73 -8.717 -1.153 0.18000001
6.1789999 -7.9559999 -1.0369999 0.23999999
6.3499999 -8.1479998 -1.069 0.57999998
6.3140001 -8.0500002 -1.057 0.16
6.5710001 -8.3219995 -1.103 0.34
6.5089998 -8.191 -1.085 0.30000001
4.5279999 -5.6739998 -0.69199997 0.15000001
6.697 -8.3179998 -1.112 0.47
6.7199998 -8.2939997 -1.1109999 0.27000001
6.776 -8.3360004 -1.12 0.19
7.073 -8.6440001 -1.1720001 0.28
7.1459999 -8.677 -1.181 0.41
7.2150002 -8.7049999 -1.189 0.23
6.6929998 -8.0270004 -1.084 0.14
6.6370001 -7.9099998 -1.068 0.61000001
6.6760001 -7.8800001 -1.069 0.58999997
6.9619999 -8.1630001 -1.118 0.38
6.8730001 -8.0089998 -1.096 0.13
7.0999999 -8.2200003 -1.1339999 0.54000002
6.9419999 -7.987 -1.1 0.25999999
6.9260001 -7.9190001 -1.092 0.16
7.1279998 -8.1219997 -1.127 0.34999999
7.1420002 -8.0880003 -1.125 0.2
7.1079998 -7.9990001 -1.115 0.52999997
7.2379999 -8.0930004 -1.1339999 0.19
7.382 -8.2010002 -1.155 0.47999999
7.3369999 -8.1000004 -1.143 0.28
7.8990002 -8.6630001 -1.24 0.18000001
7.2639999 -7.9439998 -1.122 0.56
7.4109998 -8.0539999 -1.1440001 0.25999999
