# .PCD v0.7 - Point Cloud Data file format
VERSION 0.7
FIELDS x y z intensity
SIZE 4 4 4 4
TYPE F F F F
COUNT 1 1 1 1
WIDTH 1381
HEIGHT 1
VIEWPOINT 0 0 0 1 0 0 0
POINTS 1381
DATA ascii
-6.414 12.859 -2.0039999 0.33000001
-6.4530001 12.837 -2.0039999 0.25
-6.5 12.829 -2.006 0.36000001
-6.54 12.808 -2.006 0.31999999
-6.5809999 12.789 -2.006 0.31
-6.6269999 12.779 -2.0079999 0.31
-6.6490002 12.772 -2.0079999 0.31
-6.6960001 12.765 -2.0109999 0.34999999
-6.7389998 12.749 -2.0120001 0.31999999
-6.7820001 12.733 -2.013 0.30000001
-6.8239999 12.716 -2.013 0.33000001
-6.8670001 12.701 -2.0150001 0.23
-6.915 12.693 -2.017 0.23
-6.9320002 12.677 -2.016 0.57999998
-6.9780002 12.668 -2.0179999 0.28
-7.0300002 12.666 -2.0220001 0.33000001
-7.073 12.651 -2.023 0.34
-7.1110001 12.625 -2.0220001 0.30000001
-7.1529999 12.608 -2.023 0.37
-7.1820002 12.567 -2.02 0.30000001
-7.2059999 12.562 -2.0209999 0.31
-7.2529998 12.553 -2.0239999 0.31999999
-7.302 12.546 -2.026 0.34
-7.3340001 12.511 -2.0239999 0.31999999
-7.3740001 12.489 -2.0250001 0.28999999
-7.4060001 12.454 -2.0220001 0.34999999
-7.4510002 12.439 -2.0239999 0.25999999
-7.474 12.435 -2.0250001 0.36000001
-7.5149999 12.414 -2.026 0.31
-7.553 12.389 -2.0250001 0.31
-7.5900002 12.362 -2.0250001 0.36000001
-7.6220002 12.326 -2.023 0.27000001
-7.6669998 12.314 -2.0250001 0.34999999
-7.7080002 12.293 -2.0250001 0.31999999
-7.7160001 12.263 -2.0220001 0.23
-7.7659998 12.257 -2.0250001 0.15000001
-6.2810001 9.835 -1.59 0.57999998
-6.3080001 9.8100004 -1.589 0.19
-6.4250002 9.8549995 -1.605 0.38999999
-6.283 9.5699997 -1.556 0.18000001
-6.2719998 9.5200005 -1.549 0.25999999
-6.2649999 9.4440002 -1.539 0.14
-6.2480001 9.3549995 -1.526 0.15000001
-6.2360001 9.2729998 -1.5140001 0.34999999
-6.2399998 9.2159996 -1.507 0.51999998
-6.2449999 9.1619997 -1.501 0.37
-6.2309999 9.0780001 -1.489 0.52999997
-6.2410002 9.033 -1.484 0.34
-6.2090001 8.9560003 -1.472 0.51999998
-6.2189999 8.9110003 -1.467 0.31
-6.204 8.8299999 -1.456 0.50999999
-6.1989999 8.7629995 -1.447 0.31
-6.1880002 8.6890001 -1.437 0.50999999
-6.1960001 8.6429996 -1.432 0.33000001
-6.177 8.5600004 -1.42 0.51999998
-6.1700001 8.5209999 -1.414 0.34
-6.1589999 8.4490004 -1.404 0.54000002
-6.1630001 8.3990002 -1.398 0.33000001
-6.1459999 8.3210001 -1.387 0.52999997
-6.1539998 8.2779999 -1.383 0.31999999
-6.1399999 8.2040005 -1.372 0.51999998
-6.151 8.1639996 -1.368 0.33000001
-6.1209998 8.0979996 -1.358 0.52999997
-6.1259999 8.052 -1.352 0.33000001
-6.119 7.9899998 -1.344 0.54000002
-6.125 7.9460001 -1.339 0.34
-6.1110001 7.8759999 -1.33 0.52999997
-6.1220002 7.8400002 -1.326 0.34
-6.0929999 7.777 -1.316 0.44
-6.0910001 7.724 -1.309 0.44
-6.099 7.6849999 -1.3049999 0.34999999
-6.0910001 7.625 -1.298 0.46000001
-6.0929999 7.5780001 -1.2920001 0.36000001
-6.086 7.52 -1.285 0.44999999
-6.0910001 7.4780002 -1.28 0.34
-6.0669999 7.401 -1.268 0.51999998
-6.0640001 7.3740001 -1.265 0.31
-6.046 7.3049998 -1.255 0.5
-6.0560002 7.2709999 -1.252 0.33000001
-6.0440001 7.2090001 -1.244 0.44999999
-6.0549998 7.177 -1.2410001 0.34999999
-6.0469999 7.1209998 -1.234 0.47999999
-6.0640001 7.0960002 -1.232 0.38
-6.0469999 7.0539999 -1.226 0.51999998
-6.0580001 7.0209999 -1.223 0.38999999
-6.0669999 6.987 -1.22 0.41
-6.0770001 6.954 -1.217 0.41
-6.0819998 6.9159999 -1.2130001 0.46000001
-6.1389999 6.9369998 -1.222 0.66000003
-6.0110002 6.7490001 -1.187 0
-6.1199999 6.8499999 -1.21 0
-6.2080002 6.862 -1.22 0
-6.2389998 6.8520002 -1.222 0
-6.3340001 6.9130001 -1.239 0
-6.4569998 7.0040002 -1.262 0
-6.4109998 6.888 -1.244 0
-6.3140001 6.6560001 -1.2079999 0.38999999
-6.3319998 6.6329999 -1.207 0.41
-6.3449998 6.605 -1.205 0.52999997
-6.3759999 6.5960002 -1.2079999 0.38999999
-6.3839998 6.5830002 -1.207 0.47999999
-6.4159999 6.5749998 -1.21 0.38
-6.454 6.573 -1.214 0.36000001
-6.4749999 6.552 -1.214 0.5
-6.506 6.5430002 -1.216 0.37
-6.5409999 6.5370002 -1.219 0.47999999
-6.5669999 6.5219998 -1.22 0.36000001
-6.579 6.513 -1.221 0.47999999
-6.6139998 6.5079999 -1.224 0.37
-6.645 6.4959998 -1.226 0.49000001
-6.6750002 6.4850001 -1.228 0.38
-6.6999998 6.4679999 -1.229 0.44999999
-6.7309999 6.4580002 -1.232 0.61000001
-6.7420001 6.427 -1.229 0
-6.8460002 6.4260001 -1.2410001 0.34
-6.9099998 6.4450002 -1.25 0.36000001
-6.9590001 6.4499998 -1.256 0.38999999
-6.9970002 6.4439998 -1.26 0.38999999
-7.0469999 6.4499998 -1.266 0.38
-7.0840001 6.4629998 -1.271 0.46000001
-7.1420002 6.4759998 -1.279 0.31999999
-7.2140002 6.5 -1.29 0.69
-7.3769999 6.605 -1.319 0
-7.2839999 6.4809999 -1.296 0.079999998
-7.4780002 6.5710001 -1.3279999 0.22
-10.912 9.5430002 -2.023 0.38999999
-10.921 9.5200005 -2.0220001 0.38
-10.957 9.4910002 -2.023 0.41
-10.928 9.4060001 -2.0120001 0.43000001
-10.982 9.3929996 -2.016 0.38
-11.001 9.349 -2.0139999 0.43000001
-11 9.2889996 -2.0079999 0.37
-11.007 9.2650003 -2.007 0.40000001
-11.019 9.217 -2.003 0.44
-11.018 9.1569996 -1.997 0.28999999
-11.037 9.1140003 -1.995 0.47999999
-11.049 9.066 -1.992 0.34999999
-11.079 9.0319996 -1.992 0.40000001
-11.114 9.0030003 -1.994 0.38999999
-11.1 8.9630003 -1.988 0.44
-11.087 8.8940001 -1.98 0.34999999
-11.113 8.8579998 -1.98 0.44
-11.161 8.8389997 -1.984 0.41
-11.209 8.8199997 -1.988 0.36000001
-11.227 8.7770004 -1.9859999 0.43000001
-11.226 8.7200003 -1.98 0.38999999
-11.204 8.6459999 -1.971 0.34
-11.239 8.6459999 -1.975 0.44999999
-11.249 8.5970001 -1.972 0.47999999
-11.276 8.5620003 -1.972 0.37
-11.238 8.4770002 -1.959 0.36000001
-11.304 8.4720001 -1.967 0.54000002
-11.307 8.4180002 -1.962 0.34999999
-11.311 8.3660002 -1.9579999 0.40000001
-11.317 8.3430004 -1.956 0.38999999
-11.359 8.3190002 -1.959 0.40000001
-11.364 8.2679996 -1.955 0.44999999
-11.431 8.2620001 -1.9630001 0.36000001
-11.419 8.198 -1.956 0.34
-11.425 8.1490002 -1.952 0.51999998
-11.491 8.1689997 -1.962 0.34999999
-11.476 8.1040001 -1.955 0.38999999
-11.515 8.0769997 -1.957 0.44
-11.577 8.0670004 -1.964 0.43000001
-11.578 8.0139999 -1.96 0.40000001
-11.556 7.9450002 -1.951 0.41
-11.614 7.9310002 -1.957 0.37
-11.614 7.8769999 -1.952 0.40000001
-11.63 7.8610001 -1.9529999 0.38999999
-11.685 7.8460002 -1.959 0.47999999
-11.638 7.7610002 -1.9450001 0.31999999
-11.693 7.7449999 -1.951 0.34999999
-11.779 7.7480001 -1.962 0.47999999
-11.781 7.697 -1.959 0.25
-11.816 7.6669998 -1.96 0.5
-11.843 7.658 -1.9630001 0.38
-11.855 7.6129999 -1.961 0.47
-11.9 7.5900002 -1.965 0.38
-11.836 7.4959998 -1.949 0.44
-11.874 7.4679999 -1.952 0.34999999
-11.886 7.4229999 -1.949 0.43000001
-11.854 7.3520002 -1.939 0.36000001
-11.875 7.3390002 -1.941 0.43000001
-11.902 7.3039999 -1.942 0.33000001
-11.967 7.2919998 -1.949 0.47
-11.966 7.2399998 -1.9450001 0.38
-11.945 7.1760001 -1.937 0.38999999
-11.927 7.1139998 -1.9299999 0.36000001
-12.015 7.1160002 -1.942 0.37
-12.053 7.1129999 -1.947 0.51999998
-12.042 7.0549998 -1.941 0.44
-12.059 7.0149999 -1.9400001 0.28999999
-12.026 6.9450002 -1.9299999 0.43000001
-11.998 6.8779998 -1.921 0.36000001
-12.086 6.8790002 -1.933 0.38
-12.114 6.8699999 -1.936 0.44
-12.112 6.8179998 -1.932 0.34
-12.107 6.7659998 -1.927 0.41
-12.149 6.7389998 -1.931 0.36000001
-12.188 6.71 -1.934 0.38
-12.261 6.7010002 -1.943 0.38
-12.285 6.664 -1.944 0.41
-12.292 6.6430001 -1.943 0.36000001
-12.358 6.6279998 -1.951 0.38
-12.395 6.598 -1.954 0.43000001
-12.391 6.546 -1.949 0.34999999
-12.411 6.507 -1.949 0.38
-12.472 6.4889998 -1.956 0.38999999
-12.552 6.4809999 -1.967 0.44999999
-12.537 6.4229999 -1.961 0.34999999
-12.526 6.3930001 -1.957 0.34999999
-12.613 6.3870001 -1.969 0.5
-12.707 6.3850002 -1.9809999 0.30000001
-12.734 6.349 -1.982 0.47
-12.86 6.362 -2.0009999 0.27000001
-12.909 6.335 -2.0050001 0.47999999
-12.962 6.3109999 -2.0109999 0.28999999
-12.958 6.2839999 -2.0090001 0.47999999
-13.003 6.2550001 -2.013 0.38
-13.086 6.2449999 -2.0239999 0.41
-13.142 6.2210002 -2.03 0.5
-13.204 6.1999998 -2.0369999 0.27000001
-13.231 6.1609998 -2.0380001 0.58999997
-13.348 6.1659999 -2.0550001 0.47
-13.658 6.283 -2.1059999 0.20999999
-13.827 6.309 -2.131 0.36000001
-13.837 6.2610002 -2.1289999 0.36000001
-13.844 6.2119999 -2.1270001 0.25999999
-13.862 6.1680002 -2.1270001 0.36000001
-13.887 6.1259999 -2.128 0.34999999
-13.908 6.0840001 -2.128 0.36000001
-13.925 6.0650001 -2.1289999 0.33000001
-13.931 6.0159998 -2.1270001 0.25
-13.959 5.9759998 -2.1289999 0.38999999
-13.979 5.9330001 -2.1289999 0.34999999
-14.012 5.895 -2.131 0.28999999
-14.049 5.8579998 -2.135 0.37
-14.058 5.8099999 -2.1329999 0.27000001
-14.091 5.7979999 -2.1370001 0.30000001
-14.133 5.7639999 -2.141 0.36000001
-14.14 5.7150002 -2.1389999 0.30000001
-14.151 5.6669998 -2.138 0.27000001
-14.123 5.6040001 -2.1300001 0.25999999
-14.162 5.5689998 -2.1340001 0.25999999
-14.233 5.5710001 -2.1440001 0.30000001
-14.326 5.5560002 -2.1570001 0.34999999
-14.36 5.5170002 -2.1589999 0.31
-14.363 5.4660001 -2.1570001 0.23
-14.317 5.3969998 -2.1470001 0.41
-14.373 5.3670001 -2.1530001 0.2
-14.36 5.3109999 -2.148 0.43000001
-14.335 5.276 -2.1429999 0.23
-14.348 5.23 -2.142 0.2
-14.383 5.191 -2.145 0.40000001
-14.375 5.1370001 -2.141 0.25
-14.38 5.0879998 -2.1389999 0.2
-14.416 5.0500002 -2.1429999 0.41
-14.402 4.994 -2.138 0.23
-14.425 4.9520001 -2.1389999 0.20999999
-14.438 4.9310002 -2.1400001 0.37
-14.42 4.8740001 -2.135 0.19
-14.458 4.836 -2.138 0.34999999
-14.46 4.7870002 -2.1359999 0.19
-14.469 4.7389998 -2.135 0.23
-14.478 4.6919999 -2.1340001 0.2
-14.499 4.6479998 -2.135 0.22
-14.498 4.6230001 -2.1340001 0.18000001
-14.507 4.5760002 -2.1329999 0.13
-14.512 4.527 -2.131 0.17
-14.534 4.4840002 -2.1329999 0.12
-14.527 4.4320002 -2.1289999 0.18000001
-14.554 4.3899999 -2.131 0.12
-14.551 4.3390002 -2.1289999 0.17
-14.573 4.3210001 -2.131 0.12
-14.584 4.2750001 -2.131 0.16
-14.584 4.2249999 -2.1289999 0.12
-14.584 4.1750002 -2.1270001 0.16
-14.615 4.1339998 -2.1289999 0.12
-14.61 4.0830002 -2.1270001 0.18000001
-14.634 4.0409999 -2.128 0.30000001
-14.648 4.02 -2.1300001 0.2
-14.638 3.9679999 -2.1259999 0.17
-14.658 3.924 -2.1270001 0.13
-14.655 3.8729999 -2.125 0.17
-14.677 3.8299999 -2.1259999 0.28999999
-14.685 3.783 -2.1259999 0.2
-14.685 3.734 -2.1240001 0.19
-14.693 3.711 -2.1240001 0.23
-14.693 3.6619999 -2.122 0.2
-14.718 3.619 -2.125 0.20999999
-14.714 3.569 -2.122 0.18000001
-14.742 3.527 -2.125 0.22
-14.744 3.4790001 -2.1229999 0.18000001
-14.758 3.4330001 -2.1240001 0.33000001
-14.777 3.4130001 -2.1259999 0.2
-14.774 3.3629999 -2.1240001 0.18000001
-14.802 3.3210001 -2.1270001 0.20999999
-14.809 3.2739999 -2.1259999 0.18000001
-14.821 3.227 -2.1259999 0.31
-14.814 3.177 -2.1240001 0.2
-14.829 3.132 -2.125 0.16
-14.848 3.1110001 -2.1270001 0.13
-14.84 3.0610001 -2.1240001 0.16
-14.853 3.0150001 -2.125 0.12
-14.853 2.967 -2.1229999 0.16
-14.86 2.9200001 -2.1229999 0.27000001
-14.873 2.8740001 -2.1229999 0.25
-14.89 2.8280001 -2.125 0.25
-14.879 2.802 -2.122 0.25999999
-14.894 2.756 -2.1229999 0.25999999
-14.902 2.71 -2.1229999 0.25999999
-14.895 2.6600001 -2.1210001 0.11
-14.894 2.6110001 -2.119 0.16
-14.919 2.5680001 -2.122 0.11
-14.906 2.517 -2.118 0.17
-14.918 2.4949999 -2.1199999 0.12
-14.906 2.4449999 -2.1170001 0.16
-14.919 2.3989999 -2.118 0.28
-14.929 2.352 -2.118 0.2
-14.92 2.303 -2.115 0.18000001
-14.924 2.256 -2.115 0.31
-14.935 2.2090001 -2.115 0.19
-14.924 2.184 -2.1129999 0.31999999
-14.923 2.1359999 -2.112 0.19
-14.932 2.089 -2.112 0.34
-14.944 2.043 -2.1129999 0.19
-14.923 1.992 -2.109 0.23
-14.9 1.942 -2.105 0.2
-14.902 1.8940001 -2.1040001 0.18000001
-14.909 1.8710001 -2.105 0.16
-14.919 1.825 -2.105 0
-14.93 1.779 -2.1059999 0.13
-14.914 1.729 -2.1029999 0.18000001
-14.918 1.682 -2.102 0.40000001
-14.909 1.6339999 -2.0999999 0.22
-14.877 1.5829999 -2.095 0.18000001
-14.903 1.539 -2.098 0.41
-14.888 1.513 -2.095 0.23
-14.895 1.467 -2.095 0.20999999
-14.899 1.42 -2.095 0.38
-14.9 1.373 -2.095 0.23
-14.884 1.324 -2.092 0.19
-14.91 1.279 -2.095 0.38999999
-14.9 1.255 -2.0929999 0.18000001
-14.904 1.2079999 -2.0929999 0.36000001
-14.91 1.161 -2.0940001 0.2
-14.909 1.114 -2.0929999 0.23
-14.893 1.066 -2.0899999 0.2
-14.91 1.02 -2.092 0.23
-14.889 0.972 -2.0880001 0.19
-14.907 0.949 -2.0910001 0.23
-14.896 0.90200001 -2.089 0.18000001
-14.906 0.85500002 -2.0899999 0.12
-14.887 0.80699998 -2.0869999 0.18000001
-14.916 0.76200002 -2.0910001 0.28999999
-14.908 0.71399999 -2.089 0.27000001
-14.896 0.667 -2.0869999 0.25999999
-14.901 0.64399999 -2.0880001 0.25999999
-14.891 0.59600002 -2.086 0.25999999
-14.885 0.54900002 -2.085 0.25999999
-14.887 0.50300002 -2.085 0.25
-14.883 0.456 -2.0840001 0.25
-14.88 0.40900001 -2.0829999 0.27000001
-14.811 0.38299999 -2.072 0.27000001
-14.816 0.33700001 -2.073 0.25999999
-14.804 0.28999999 -2.0710001 0.11
-14.799 0.244 -2.0699999 0.17
-14.801 0.197 -2.0699999 0.28999999
-14.794 0.17399999 -2.069 0.2
-14.778 0.127 -2.0669999 0.19
-14.79 0.081 -2.0680001 0.22
-14.793 0.034000002 -2.069 0.18000001
-14.787 -0.012 -2.0680001 0.34
-14.791 -0.059 -2.0680001 0.19
-14.786 -0.105 -2.0680001 0.33000001
-14.798 -0.12800001 -2.0699999 0.19
-14.784 -0.175 -2.0680001 0.34
-14.789 -0.221 -2.0680001 0.2
-14.78 -0.26800001 -2.0669999 0.31999999
-14.795 -0.31400001 -2.0699999 0.19
-14.776 -0.36000001 -2.0669999 0.31999999
-14.777 -0.40700001 -2.0669999 0.2
-14.769 -0.43000001 -2.066 0.18000001
-14.779 -0.477 -2.0680001 0.20999999
-14.772 -0.523 -2.0669999 0.18000001
-14.77 -0.56900001 -2.0669999 0.12
-14.748 -0.61500001 -2.0639999 0.17
-14.756 -0.662 -2.0650001 0.28
-14.766 -0.70899999 -2.0669999 0.25999999
-14.751 -0.73100001 -2.0650001 0.25
-14.752 -0.778 -2.066 0.27000001
-14.742 -0.824 -2.0650001 0.25999999
-14.741 -0.87 -2.0650001 0.25
-14.737 -0.91600001 -2.0650001 0.25
-14.734 -0.96200001 -2.0650001 0.25999999
-14.723 -1.008 -2.063 0.11
-14.705 -1.03 -2.0610001 0.15000001
-14.718 -1.0779999 -2.063 0.12
-14.704 -1.123 -2.062 0.15000001
-14.701 -1.169 -2.062 0.28
-14.693 -1.215 -2.0610001 0.2
-14.689 -1.261 -2.0610001 0.17
-14.691 -1.308 -2.062 0.31999999
-14.669 -1.329 -2.059 0.18000001
-14.669 -1.376 -2.0599999 0.34999999
-14.663 -1.4220001 -2.059 0.18000001
-14.656 -1.467 -2.059 0.25999999
-14.634 -1.512 -2.056 0.2
-14.635 -1.558 -2.0569999 0.18000001
-14.64 -1.605 -2.059 0.41
-14.621 -1.627 -2.056 0.23
-14.616 -1.6720001 -2.056 0.18000001
-14.631 -1.721 -2.059 0.41
-14.611 -1.765 -2.0569999 0.23999999
-14.608 -1.811 -2.0580001 0.23
-14.665 -1.865 -2.0669999 0.31999999
-14.688 -1.915 -2.072 0.28999999
-14.675 -1.936 -2.0699999 0.28999999
-14.677 -1.984 -2.0710001 0.28
-14.586 -2.0179999 -2.0580001 0.23
-14.369 -2.0339999 -2.026 0.36000001
-14.319 -2.073 -2.0190001 0.25
-14.195 -2.1010001 -2.0009999 0.51999998
-13.934 -2.108 -1.962 0.34
-13.904 -2.1259999 -1.957 0.38999999
-13.836 -2.1600001 -1.948 0.28999999
-13.81 -2.2 -1.9450001 0.54000002
-13.631 -2.2160001 -1.918 0.28999999
-13.599 -2.2550001 -1.914 0.43000001
-13.514 -2.2839999 -1.902 0.27000001
-13.53 -2.3310001 -1.906 0.50999999
-13.397 -2.3299999 -1.886 0.23999999
-13.135 -2.3269999 -1.846 0.44
-13.131 -2.369 -1.847 0.30000001
-13.021 -2.392 -1.831 0.46000001
-13.146 -2.457 -1.851 0.27000001
-12.969 -2.467 -1.825 0.43000001
-13.151 -2.5439999 -1.855 0.36000001
-13.007 -2.5380001 -1.8329999 0.31999999
-12.949 -2.5680001 -1.825 0.47999999
-13.001 -2.6210001 -1.834 0.34999999
-12.828 -2.6289999 -1.809 0.40000001
-12.951 -2.6960001 -1.829 0.36000001
-12.72 -2.6900001 -1.794 0.43000001
-12.814 -2.7520001 -1.8099999 0.31999999
-12.85 -2.7809999 -1.817 0.40000001
-12.714 -2.793 -1.7970001 0.38
-12.9 -2.8759999 -1.827 0.31999999
-12.851 -2.908 -1.821 0.47999999
-12.701 -2.9159999 -1.799 0.31
-12.977 -3.0220001 -1.844 0.37
-12.536 -2.9619999 -1.776 0.38999999
-12.777 -3.039 -1.8150001 0.38
-12.647 -3.05 -1.796 0.37
-12.708 -3.1070001 -1.807 0.37
-12.635 -3.132 -1.7970001 0.34999999
-12.602 -3.1659999 -1.793 0.38
-12.897 -3.2820001 -1.841 0.41
-12.655 -3.263 -1.8049999 0.31999999
-12.56 -3.26 -1.79 0.34
-12.44 -3.2709999 -1.773 0.37
-12.134 -3.2320001 -1.726 0.30000001
-12.265 -3.3080001 -1.749 0.41999999
-12.084 -3.3 -1.722 0.43000001
-12.183 -3.368 -1.739 0.34
-12.149 -3.4000001 -1.735 0.38
-11.988 -3.375 -1.71 0.36000001
-12.114 -3.4519999 -1.732 0.30000001
-11.982 -3.4549999 -1.7130001 0.5
-12.039 -3.513 -1.724 0.34
-12.026 -3.55 -1.723 0.41
-12.246 -3.6559999 -1.76 0.31
-12.07 -3.645 -1.734 0.38999999
-12.232 -3.7149999 -1.761 0.27000001
-12.368 -3.7980001 -1.785 0.47
-12.192 -3.786 -1.758 0.25
-12.189 -3.8280001 -1.76 0.37
-12.023 -3.8169999 -1.735 0.38
-11.888 -3.816 -1.715 0.27000001
-11.865 -3.8499999 -1.7130001 0.46000001
-11.863 -3.869 -1.714 0.36000001
-11.865 -3.9119999 -1.716 0.44
-11.795 -3.9300001 -1.707 0.33000001
-11.794 -3.97 -1.709 0.43000001
-11.976 -4.073 -1.74 0.30000001
-12.133 -4.1690001 -1.768 0.43000001
-12.038 -4.1789999 -1.755 0.36000001
-11.979 -4.1789999 -1.7460001 0.28999999
-11.934 -4.2059999 -1.7410001 0.41
-11.898 -4.2360001 -1.737 0.23999999
-12.062 -4.336 -1.766 0.38
-11.978 -4.348 -1.755 0.41999999
-11.845 -4.3429999 -1.735 0.27000001
-11.872 -4.395 -1.742 0.46000001
-11.685 -4.3470001 -1.7130001 0.18000001
-11.538 -4.3340001 -1.691 0.46000001
-11.565 -4.3860002 -1.697 0.38
-11.446 -4.382 -1.6799999 0.41999999
-11.471 -4.4330001 -1.686 0.30000001
-11.492 -4.4819999 -1.692 0.40000001
-11.557 -4.5489998 -1.705 0.40000001
-11.651 -4.6069999 -1.722 0.23999999
-11.602 -4.6300001 -1.716 0.54000002
-11.517 -4.638 -1.705 0.34
-11.341 -4.6090002 -1.678 0.31999999
-11.376 -4.665 -1.686 0.44999999
-11.373 -4.7049999 -1.688 0.34999999
-11.266 -4.7030001 -1.673 0.44999999
-11.303 -4.7389998 -1.6799999 0.31999999
-11.292 -4.776 -1.681 0.51999998
-11.153 -4.7589998 -1.66 0.28999999
-11.272 -4.8520002 -1.683 0.44
-11.201 -4.8629999 -1.673 0.30000001
-10.979 -4.8080001 -1.6390001 0.38
-10.927 -4.8270001 -1.633 0.43000001
-11.054 -4.9029999 -1.655 0.31
-11.228 -5.0219998 -1.687 0.38999999
-11.185 -5.0450001 -1.682 0.25999999
-11.237 -5.1110001 -1.694 0.51999998
-11.22 -5.1459999 -1.693 0.34
-10.871 -5.0279999 -1.637 0.27000001
-10.789 -5.0310001 -1.626 0.62
-10.994 -5.1479998 -1.6619999 0.28
-10.957 -5.1719999 -1.659 0.47999999
-11.131 -5.2969999 -1.691 0.34
-11.07 -5.3109999 -1.683 0.36000001
-11.034 -5.336 -1.6799999 0.36000001
-10.594 -5.165 -1.608 0.46000001
-10.794 -5.3039999 -1.645 0.31999999
-10.706 -5.2820001 -1.631 0.38999999
-10.744 -5.3429999 -1.641 0.27000001
-10.701 -5.3629999 -1.636 0.47999999
-10.731 -5.421 -1.6440001 0.43000001
-10.797 -5.4970002 -1.659 0.36000001
-10.745 -5.513 -1.653 0.44999999
-10.671 -5.5170002 -1.643 0.28
-10.571 -5.487 -1.627 0.46000001
-10.506 -5.4949999 -1.619 0.31
-10.484 -5.526 -1.618 0.38
-10.432 -5.54 -1.612 0.41999999
-10.484 -5.6100001 -1.624 0.41999999
-10.564 -5.6950002 -1.641 0.38
-10.448 -5.6760001 -1.624 0.40000001
-10.483 -5.7160001 -1.632 0.38
-10.463 -5.7480001 -1.631 0.36000001
-10.423 -5.7680001 -1.627 0.33000001
-10.442 -5.822 -1.6339999 0.40000001
-10.443 -5.8649998 -1.637 0.38
-10.369 -5.8670001 -1.628 0.34999999
-10.392 -5.9229999 -1.635 0.40000001
-10.386 -5.941 -1.636 0.38
-10.368 -5.974 -1.636 0.38
-10.357 -6.0110002 -1.637 0.47999999
-10.381 -6.0689998 -1.645 0.38
-10.36 -6.0999999 -1.6440001 0.44999999
-10.37 -6.1500001 -1.65 0.34
-10.157 -6.0669999 -1.615 0.41
-10.209 -6.1199999 -1.626 0.38999999
-10.128 -6.1149998 -1.615 0.38
-10.151 -6.1729999 -1.623 0.40000001
-10.117 -6.1950002 -1.62 0.40000001
-10.126 -6.244 -1.625 0.36000001
-10.138 -6.296 -1.631 0.38
-10.226 -6.395 -1.65 0.40000001
-10.159 -6.375 -1.64 0.36000001
-10.175 -6.4299998 -1.647 0.40000001
-10.045 -6.3920002 -1.627 0.33000001
-10.011 -6.415 -1.624 0.43000001
-9.8459997 -6.3540001 -1.598 0.36000001
-9.8649998 -6.4089999 -1.605 0.23
-9.9499998 -6.5089998 -1.624 0.46000001
-9.9169998 -6.5100002 -1.62 0.43000001
-9.7860003 -6.4679999 -1.6 0.33000001
-9.9619999 -6.6290002 -1.636 0.34999999
-9.8979998 -6.632 -1.628 0.33000001
-9.8409996 -6.638 -1.6210001 0.56
-9.7299995 -6.6079998 -1.604 0.31999999
-9.6730003 -6.6139998 -1.598 0.33000001
-9.585 -6.5760002 -1.5829999 0.38999999
-9.4689999 -6.5409999 -1.566 0.34
-9.4720001 -6.5869999 -1.5700001 0.43000001
-9.4639997 -6.625 -1.572 0.36000001
-9.4300003 -6.6459999 -1.5700001 0.40000001
-9.4449997 -6.7010002 -1.577 0.38999999
-9.448 -6.7480001 -1.581 0.41999999
-9.4209995 -6.7509999 -1.5779999 0.38
-9.3739996 -6.7620001 -1.573 0.34
-9.2580004 -6.723 -1.5549999 0.38999999
-9.2670002 -6.7740002 -1.561 0.38999999
-9.2159996 -6.7810001 -1.5549999 0.36000001
-9.2469997 -6.849 -1.5650001 0.37
-9.1160002 -6.7969999 -1.544 0.38
-9.2290001 -6.9029999 -1.568 0.44
-9.283 -6.9889998 -1.5829999 0.28999999
-9.1870003 -6.9619999 -1.568 0.40000001
-9.1870003 -7.0079999 -1.573 0.41
-9.1409998 -7.0180001 -1.568 0.37
-9.1870003 -7.099 -1.581 0.34
-9.1169996 -7.0910001 -1.572 0.38999999
-9.2089996 -7.1859999 -1.592 0.40000001
-9.1879997 -7.2160001 -1.592 0.33000001
-9.1969995 -7.2690001 -1.598 0.44999999
-9.0839996 -7.2270002 -1.581 0.40000001
-9.0129995 -7.217 -1.571 0.38
-8.9689999 -7.2280002 -1.567 0.27000001
-9.0200005 -7.316 -1.582 0.46000001
-8.8900003 -7.2340002 -1.558 0.36000001
-8.9219999 -7.3070002 -1.569 0.40000001
-8.901 -7.336 -1.5700001 0.38
-8.8549995 -7.3449998 -1.5650001 0.41999999
-8.8970003 -7.427 -1.5779999 0.30000001
-8.8570004 -7.441 -1.575 0.43000001
-8.835 -7.4699998 -1.575 0.34
-8.8190002 -7.48 -1.574 0.46000001
-8.823 -7.5310001 -1.58 0.27000001
-8.7790003 -7.5419998 -1.576 0.51999998
-8.6809998 -7.5050001 -1.5599999 0.30000001
-8.7209997 -7.5879998 -1.574 0.43000001
-8.7089996 -7.6259999 -1.576 0.44999999
-8.7030001 -7.6690001 -1.58 0.30000001
-8.6239996 -7.6240001 -1.566 0.49000001
-8.5970001 -7.6479998 -1.5650001 0.20999999
-8.4849997 -7.5960002 -1.5470001 0.58999997
-8.7080002 -7.8449998 -1.598 0.28
-8.757 -7.9380002 -1.613 0.27000001
-8.8839998 -8.1040001 -1.645 0.28
-8.8780003 -8.1490002 -1.649 0.36000001
-8.3870001 -7.7249999 -1.549 0.31
-8.7159996 -8.0769997 -1.623 0.31
-8.8000002 -8.2060003 -1.646 0.33000001
-8.7559996 -8.2159996 -1.642 0.28999999
-8.7360001 -8.2489996 -1.643 0.36000001
-8.6940002 -8.2620001 -1.64 0.34
-8.6610003 -8.2819996 -1.638 0.27000001
-8.6450005 -8.2930002 -1.638 0.34999999
-8.6199999 -8.3219995 -1.638 0.28999999
-8.5830002 -8.3380003 -1.636 0.36000001
-8.559 -8.3669996 -1.636 0.30000001
-8.5369997 -8.3979998 -1.637 0.43000001
-8.474 -8.3889999 -1.6289999 0.27000001
-8.4169998 -8.3850002 -1.623 0.2
-8.3950005 -8.3900003 -1.6210001 0.37
-8.349 -8.3970003 -1.617 0.2
-8.3479996 -8.448 -1.622 0.25
-8.349 -8.5019999 -1.628 0.33000001
-8.3100004 -8.5159998 -1.625 0.28999999
-8.2840004 -8.5430002 -1.626 0.34999999
-8.2650003 -8.5509996 -1.624 0.28999999
-8.2390003 -8.5769997 -1.624 0.34999999
-8.2049999 -8.5950003 -1.623 0.33000001
-8.1739998 -8.6169996 -1.622 0.34
-8.1409998 -8.6370001 -1.6210001 0.28999999
-8.118 -8.6660004 -1.622 0.36000001
-8.0839996 -8.6850004 -1.62 0.28999999
-8.066 -8.6929998 -1.619 0.34999999
-8.0360003 -8.7150002 -1.619 0.28
-8.007 -8.7390003 -1.618 0.34999999
-7.9759998 -8.7600002 -1.617 0.34
-7.9419999 -8.7779999 -1.6160001 0.34999999
-7.5170002 -8.415 -1.531 0.97000003
-7.6849999 -8.6569996 -1.576 0.74000001
-7.8000002 -8.8140001 -1.6059999 0.31
-7.7919998 -8.8610001 -1.61 0.28
-7.7220001 -8.8380003 -1.6 0.38
-7.6760001 -8.8409996 -1.596 0.28999999
-7.6900001 -8.9130001 -1.6059999 0.30000001
-7.6570001 -8.9309998 -1.605 0.38999999
-7.625 -8.9510002 -1.604 0.27000001
-7.5500002 -8.8920002 -1.59 0.17
-7.2210002 -8.5600004 -1.518 0.66000003
-7.0960002 -8.4659996 -1.495 0.23
-7.5159998 -9.0220003 -1.601 0.31
-7.4840002 -9.0410004 -1.6 0.30000001
-7.4510002 -9.0600004 -1.6 0.34999999
-7.4190001 -9.0780001 -1.599 0.33000001
-7.4039998 -9.0889997 -1.598 0.34
-7.3660002 -9.1009998 -1.596 0.28999999
-7.3410001 -9.1289997 -1.597 0.36000001
-7.3080001 -9.1459999 -1.596 0.33000001
-7.2800002 -9.1700001 -1.596 0.31999999
-7.2529998 -9.1940002 -1.597 0.34
-7.2379999 -9.2060003 -1.597 0.34
-7.204 -9.2220001 -1.595 0.31999999
-7.1729999 -9.2419996 -1.595 0.33000001
-7.1430001 -9.2629995 -1.594 0.34
-7.1160002 -9.2880001 -1.595 0.28999999
-7.0869999 -9.3109999 -1.595 0.38
-7.0609999 -9.3369999 -1.596 0.30000001
-7.039 -9.3389997 -1.594 0.31999999
-7.0110002 -9.3629999 -1.594 0.31999999
-6.9829998 -9.3859997 -1.595 0.31999999
-6.9520001 -9.4069996 -1.594 0.33000001
-6.9180002 -9.4219999 -1.5930001 0.30000001
-6.888 -9.4440002 -1.5930001 0.31999999
-6.8579998 -9.4650002 -1.5930001 0.34
-6.8460002 -9.4790001 -1.594 0.37
-6.803 -9.4829998 -1.59 0.25999999
-6.776 -9.5080004 -1.591 0.31999999
-6.75 -9.5349998 -1.592 0.38999999
-4.1589999 -5.9320002 -0.912 0.28999999
-4.0770001 -5.8540001 -0.89499998 0.34
-4.02 -5.8119998 -0.88499999 0.28
-4 -5.802 -0.88200003 0.38
-3.9790001 -5.8109999 -0.88099998 0.31
-3.95 -5.8070002 -0.87800002 0.41
-3.9230001 -5.8070002 -0.87599999 0.40000001
-3.8970001 -5.8080001 -0.87400001 0.40000001
-3.8729999 -5.8119998 -0.87199998 0.41
-3.8469999 -5.8119998 -0.87 0.44999999
-3.842 -5.8249998 -0.87099999 0.31999999
-3.8139999 -5.822 -0.86900002 0.43000001
-3.7969999 -5.836 -0.86900002 0.36000001
-3.777 -5.8460002 -0.86900002 0.46000001
-3.7620001 -5.8629999 -0.87 0.31999999
-3.7349999 -5.8610001 -0.86699998 0.62
-3.714 -5.868 -0.866 0.31
-3.7019999 -5.8699999 -0.866 0.30000001
-3.6889999 -5.8899999 -0.86699998 0.41
-3.681 -5.9190001 -0.87 0.38999999
-3.664 -5.9320002 -0.87 0.28999999
-3.6530001 -5.9569998 -0.87300003 0.46000001
-3.645 -5.9850001 -0.87599999 0.31999999
-3.6259999 -5.9959998 -0.87599999 0.43000001
-3.632 -6.027 -0.88 0.36000001
-3.6229999 -6.0560002 -0.88300002 0.30000001
-3.6300001 -6.1100001 -0.89099997 0.22
-3.5810001 -6.072 -0.88200003 0.56999999
-5.8940001 -10.032 -1.585 0.12
-5.8579998 -10.042 -1.5829999 0.31999999
-5.8260002 -10.06 -1.5829999 0.34
-5.8140001 -10.076 -1.585 0.28
-5.77 -10.072 -1.581 0.34999999
-5.744 -10.101 -1.5829999 0.34
-5.7090001 -10.114 -1.582 0.28
-5.6719999 -10.121 -1.58 0.38999999
-5.6350002 -10.13 -1.5779999 0.31999999
-5.6090002 -10.158 -1.58 0.36000001
-5.585 -10.153 -1.5779999 0.31999999
-5.5430002 -10.152 -1.574 0.28999999
-5.52 -10.186 -1.577 0.43000001
-5.4819999 -10.191 -1.575 0.30000001
-5.4499998 -10.209 -1.575 0.37
-5.4260001 -10.241 -1.5779999 0.25999999
-5.3800001 -10.232 -1.574 0.41
-5.362 -10.237 -1.573 0.25999999
-5.3130002 -10.222 -1.567 0.44
-5.2789998 -10.236 -1.567 0.41999999
-5.257 -10.271 -1.5700001 0.31999999
-5.2220001 -10.283 -1.569 0.51999998
-5.1859999 -10.292 -1.568 0.36000001
-5.1609998 -10.322 -1.5700001 0.44999999
-5.151 -10.343 -1.573 0.41
-5.1139998 -10.35 -1.571 0.34
-5.0700002 -10.343 -1.567 0.38999999
-5.0380001 -10.359 -1.567 0.36000001
-4.9899998 -10.343 -1.562 0.54000002
-4.9569998 -10.358 -1.562 0.38999999
-4.9219999 -10.368 -1.561 0.30000001
-4.8920002 -10.348 -1.556 0.52999997
-4.8639998 -10.372 -1.557 0.33000001
-4.8140001 -10.351 -1.551 0.5
-4.7880001 -10.381 -1.554 0.28999999
-4.743 -10.369 -1.549 0.52999997
-4.7119999 -10.387 -1.55 0.33000001
-4.6589999 -10.357 -1.5420001 0.56
-4.632 -10.339 -1.538 0.38
-4.6030002 -10.362 -1.54 0.38999999
-4.566 -10.366 -1.538 0.40000001
-4.5170002 -10.342 -1.531 0.44
-4.4959998 -10.384 -1.536 0.40000001
-4.4590001 -10.387 -1.534 0.46000001
-4.447 -10.405 -1.536 0.28999999
-4.3889999 -10.36 -1.526 0.50999999
-4.3460002 -10.349 -1.522 0.41
-4.3319998 -10.406 -1.529 0.31999999
-4.2859998 -10.387 -1.524 0.47999999
-4.2529998 -10.4 -1.524 0.5
-4.2150002 -10.401 -1.522 0.38999999
-4.1989999 -10.407 -1.522 0.43000001
-4.1630001 -10.413 -1.52 0.44999999
-4.1300001 -10.426 -1.52 0.34
-4.092 -10.426 -1.518 0.44999999
-4.0619998 -10.444 -1.5190001 0.30000001
-4.0120001 -10.413 -1.512 0.50999999
-3.9719999 -10.407 -1.5089999 0.31
-3.961 -10.426 -1.511 0.40000001
-3.905 -10.379 -1.501 0.41999999
-3.8870001 -10.429 -1.507 0.44
-3.859 -10.456 -1.51 0.40000001
-3.8180001 -10.445 -1.506 0.40000001
-3.7850001 -10.456 -1.506 0.38999999
-3.7449999 -10.447 -1.503 0.47
-3.727 -10.449 -1.502 0.31999999
-3.681 -10.424 -1.4960001 0.5
-3.674 -10.508 -1.508 0.40000001
-3.635 -10.502 -1.505 0.38
-3.589 -10.476 -1.499 0.44999999
-3.5580001 -10.493 -1.5 0.44
-3.516 -10.478 -1.4960001 0.31
-3.4849999 -10.441 -1.489 0.5
-3.45 -10.446 -1.488 0.31999999
-3.411 -10.438 -1.485 0.54000002
-3.372 -10.43 -1.482 0.28999999
-3.349 -10.47 -1.487 0.44999999
-3.306 -10.449 -1.4809999 0.47
-3.276 -10.469 -1.483 0.30000001
-3.263 -10.485 -1.485 0.5
-3.237 -10.516 -1.488 0.37
-3.2049999 -10.53 -1.489 0.38
-3.1689999 -10.53 -1.487 0.44999999
-3.1359999 -10.542 -1.487 0.38
-3.1059999 -10.56 -1.489 0.43000001
-3.0780001 -10.588 -1.492 0.41
-3.075 -10.639 -1.499 0.34999999
-3.0469999 -10.667 -1.502 0.49000001
-3.0139999 -10.681 -1.503 0.44999999
-2.9820001 -10.694 -1.503 0.36000001
-2.9449999 -10.692 -1.501 0.36000001
-2.9230001 -10.743 -1.508 0.33000001
-2.9059999 -10.815 -1.518 0.34
-2.8959999 -10.844 -1.522 0.40000001
-2.8570001 -10.836 -1.5190001 0.31
-2.8169999 -10.822 -1.516 0.25
-2.78 -10.818 -1.5140001 0.23999999
-2.7449999 -10.822 -1.513 0.36000001
-2.7130001 -10.842 -1.515 0.47
-2.678 -10.847 -1.5140001 0.31999999
-2.655 -10.826 -1.51 0.28999999
-2.6210001 -10.833 -1.51 0.25999999
-2.573 -10.785 -1.501 0.34
-2.5369999 -10.782 -1.499 0.34
-2.5079999 -10.811 -1.503 0.36000001
-2.473 -10.815 -1.502 0.30000001
-2.4360001 -10.811 -1.5 0.31
-2.4200001 -10.819 -1.501 0.31999999
-2.3859999 -10.826 -1.501 0.31999999
-2.352 -10.835 -1.501 0.31
-2.3150001 -10.829 -1.499 0.31999999
-2.2820001 -10.838 -1.499 0.31999999
-2.243 -10.824 -1.4960001 0.34
-2.21 -10.835 -1.497 0.31999999
-2.194 -10.844 -1.497 0.31999999
-2.1570001 -10.834 -1.495 0.31
-2.1210001 -10.835 -1.494 0.31
-2.0880001 -10.845 -1.494 0.30000001
-2.0510001 -10.834 -1.492 0.31999999
-2.016 -10.839 -1.4910001 0.30000001
-1.984 -10.855 -1.493 0.31999999
-1.964 -10.84 -1.49 0.31999999
-1.929 -10.842 -1.49 0.31999999
-1.897 -10.858 -1.4910001 0.34
-1.857 -10.835 -1.487 0.28
-1.825 -10.852 -1.488 0.36000001
-1.79 -10.852 -1.487 0.30000001
-1.753 -10.838 -1.484 0.31
-1.7359999 -10.841 -1.484 0.34
-1.701 -10.843 -1.484 0.30000001
-1.666 -10.838 -1.482 0.30000001
-1.631 -10.841 -1.482 0.36000001
-1.598 -10.85 -1.483 0.30000001
-1.563 -10.847 -1.4809999 0.30000001
-1.544 -10.842 -1.48 0.31999999
-1.51 -10.841 -1.479 0.30000001
-1.473 -10.83 -1.477 0.30000001
-1.439 -10.833 -1.477 0.30000001
-1.405 -10.837 -1.477 0.31
-1.3710001 -10.841 -1.477 0.33000001
-1.336 -10.838 -1.475 0.30000001
-1.319 -10.844 -1.476 0.31
-1.283 -10.826 -1.473 0.31
-1.249 -10.832 -1.473 0.31999999
-1.215 -10.838 -1.473 0.31999999
-1.1799999 -10.834 -1.472 0.33000001
-1.146 -10.834 -1.471 0.31999999
-1.112 -10.843 -1.472 0.31999999
-1.0930001 -10.821 -1.469 0.34
-1.0599999 -10.836 -1.471 0.33000001
-1.026 -10.838 -1.47 0.31999999
-0.99000001 -10.823 -1.467 0.27000001
-0.95599997 -10.822 -1.467 0.38999999
-0.92199999 -10.831 -1.4680001 0.31999999
-0.88700002 -10.824 -1.466 0.33000001
-0.87 -10.826 -1.466 0.34
-0.83700001 -10.838 -1.4680001 0.31
-0.80199999 -10.821 -1.465 0.31999999
-0.76800001 -10.829 -1.466 0.31
-0.73400003 -10.836 -1.466 0.31999999
-0.70099998 -10.844 -1.467 0.33000001
-0.66600001 -10.844 -1.467 0.33000001
-0.64899999 -10.833 -1.465 0.34
-0.61400002 -10.825 -1.464 0.31999999
-0.57999998 -10.833 -1.464 0.31
-0.546 -10.825 -1.4630001 0.30000001
-0.51200002 -10.833 -1.464 0.37
-0.477 -10.822 -1.462 0.30000001
-0.44299999 -10.808 -1.46 0.28999999
-0.426 -10.805 -1.459 0.34999999
-0.391 -10.794 -1.457 0.30000001
-0.35699999 -10.801 -1.4579999 0.34999999
-0.32300001 -10.783 -1.455 0.28999999
-0.289 -10.793 -1.457 0.37
-0.255 -10.774 -1.454 0.31999999
-0.221 -10.775 -1.454 0.36000001
-0.204 -10.756 -1.451 0.25999999
-0.17 -10.748 -1.449 0.38
-0.13600001 -10.743 -1.448 0.31
-0.102 -10.737 -1.447 0.31999999
-0.068000004 -10.73 -1.446 0.30000001
-0.035 -10.726 -1.446 0.34999999
-0.001 -10.718 -1.444 0.31999999
0.016000001 -10.704 -1.442 0.33000001
0.050000001 -10.708 -1.443 0.31999999
0.082999997 -10.696 -1.441 0.34
0.117 -10.684 -1.439 0.30000001
0.15000001 -10.68 -1.439 0.25
0.184 -10.679 -1.439 0.44999999
0.2 -10.665 -1.437 0.33000001
0.234 -10.666 -1.437 0.34
0.26699999 -10.659 -1.436 0.33000001
0.301 -10.653 -1.4349999 0.33000001
0.33399999 -10.638 -1.433 0.34999999
0.36700001 -10.637 -1.433 0.23999999
0.40000001 -10.628 -1.432 0.38
0.417 -10.627 -1.432 0.31999999
0.44999999 -10.626 -1.432 0.34
0.48300001 -10.618 -1.431 0.30000001
0.51700002 -10.619 -1.431 0.31999999
0.55000001 -10.619 -1.431 0.34
0.58399999 -10.617 -1.431 0.31999999
0.61699998 -10.607 -1.4299999 0.28
0.634 -10.612 -1.431 0.33000001
0.66799998 -10.62 -1.433 0.31999999
0.69999999 -10.61 -1.431 0.28999999
0.73400003 -10.61 -1.432 0.31999999
0.76700002 -10.605 -1.431 0.31
0.80000001 -10.603 -1.431 0.28999999
0.83200002 -10.585 -1.429 0.27000001
0.84899998 -10.587 -1.4299999 0.34
0.88200003 -10.577 -1.428 0.28999999
0.91600001 -10.58 -1.429 0.30000001
0.94800001 -10.567 -1.428 0.25
0.98199999 -10.574 -1.429 0.38
1.0140001 -10.561 -1.428 0.25999999
1.046 -10.546 -1.426 0.23
1.066 -10.57 -1.4299999 0.44
1.098 -10.558 -1.429 0.28999999
1.132 -10.567 -1.431 0.28999999
1.165 -10.559 -1.4299999 0.25999999
1.197 -10.548 -1.429 0.33000001
1.232 -10.56 -1.431 0.27000001
1.263 -10.534 -1.428 0.30000001
1.28 -10.54 -1.429 0.25
1.314 -10.538 -1.429 0.31
1.345 -10.522 -1.427 0.27000001
1.3789999 -10.525 -1.429 0.25
1.411 -10.507 -1.427 0.20999999
1.4450001 -10.513 -1.428 0.43000001
1.478 -10.506 -1.428 0.25
1.495 -10.508 -1.428 0.23999999
1.526 -10.493 -1.427 0.31999999
1.558 -10.48 -1.426 0.19
1.594 -10.495 -1.429 0.41
1.624 -10.47 -1.426 0.23
1.658 -10.471 -1.427 0.31999999
1.6900001 -10.462 -1.426 0.28
1.704 -10.446 -1.424 0.27000001
1.74 -10.458 -1.427 0.25
1.771 -10.441 -1.425 0.30000001
1.802 -10.427 -1.424 0.23999999
1.8329999 -10.41 -1.4220001 0.18000001
1.8710001 -10.435 -1.427 0.47
1.88 -10.387 -1.42 0.25
1.913 -10.387 -1.421 0.27000001
1.947 -10.385 -1.421 0.25999999
1.978 -10.373 -1.42 0.28
2.01 -10.363 -1.42 0.27000001
2.046 -10.374 -1.4220001 0.25999999
2.076 -10.356 -1.421 0.28999999
2.0940001 -10.358 -1.421 0.27000001
2.128 -10.36 -1.423 0.28
2.158 -10.343 -1.421 0.28999999
2.1889999 -10.329 -1.42 0.30000001
2.227 -10.347 -1.424 0.27000001
2.2550001 -10.317 -1.42 0.31
2.289 -10.317 -1.421 0.27000001
2.3050001 -10.315 -1.4220001 0.25999999
2.3369999 -10.304 -1.421 0.31999999
2.3710001 -10.307 -1.423 0.28
2.405 -10.303 -1.423 0.31
2.4349999 -10.288 -1.4220001 0.33000001
2.4690001 -10.288 -1.423 0.27000001
2.507 -10.303 -1.427 0.34
2.523 -10.297 -1.427 0.30000001
2.5569999 -10.295 -1.427 0.28999999
2.5910001 -10.294 -1.429 0.30000001
2.619 -10.269 -1.426 0.27000001
2.651 -10.259 -1.426 0.25
2.6889999 -10.273 -1.429 0.31999999
2.7149999 -10.242 -1.426 0.34
2.733 -10.243 -1.427 0.27000001
2.763 -10.229 -1.426 0.2
2.802 -10.245 -1.4299999 0.41
2.829 -10.217 -1.427 0.28
2.8640001 -10.218 -1.428 0.25999999
2.8959999 -10.211 -1.428 0.23
2.9289999 -10.203 -1.429 0.30000001
2.944 -10.197 -1.428 0.2
2.974 -10.178 -1.427 0.41
3.003 -10.159 -1.425 0.23999999
3.039 -10.163 -1.427 0.28
3.0639999 -10.132 -1.424 0.2
3.1040001 -10.149 -1.428 0.41
3.1289999 -10.117 -1.425 0.23999999
3.1470001 -10.118 -1.426 0.28
3.177 -10.102 -1.425 0.19
3.214 -10.109 -1.427 0.38999999
3.2409999 -10.084 -1.425 0.23999999
3.277 -10.087 -1.427 0.28
3.302 -10.057 -1.424 0.19
3.3340001 -10.049 -1.424 0.38999999
3.348 -10.036 -1.423 0.23999999
3.388 -10.052 -1.427 0.27000001
3.411 -10.015 -1.423 0.2
3.448 -10.021 -1.426 0.38999999
3.473 -9.9910002 -1.423 0.22
3.5 -9.9689999 -1.421 0.18000001
3.5179999 -9.9689999 -1.4220001 0.38999999
3.552 -9.9659996 -1.423 0.20999999
3.575 -9.9320002 -1.42 0.17
3.6170001 -9.9490004 -1.424 0.44999999
3.6400001 -9.915 -1.421 0.2
3.6700001 -9.9020004 -1.42 0.23999999
3.6900001 -9.8590002 -1.415 0.20999999
3.7149999 -9.8789997 -1.419 0.27000001
3.733 -9.8339996 -1.414 0.19
3.777 -9.8549995 -1.419 0.41
3.8039999 -9.8339996 -1.418 0.22
3.823 -9.7910004 -1.413 0.15000001
3.8559999 -9.7840004 -1.414 0.25
3.8610001 -9.7080002 -1.403 0.55000001
3.901 -9.7639999 -1.413 0.23
3.941 -9.776 -1.4170001 0.25999999
3.964 -9.743 -1.414 0.2
3.9990001 -9.7419996 -1.416 0.38999999
4.0240002 -9.7159996 -1.414 0.23
4.059 -9.7139997 -1.415 0.25999999
4.0840001 -9.6870003 -1.413 0.27000001
4.099 -9.6809998 -1.413 0.27000001
4.1360002 -9.684 -1.416 0.27000001
4.1570001 -9.6490002 -1.4119999 0.30000001
4.184 -9.6269999 -1.411 0.28
4.2189999 -9.6269999 -1.413 0.20999999
4.2480001 -9.6099997 -1.4119999 0.37
4.2810001 -9.6020002 -1.413 0.22
4.29 -9.5819998 -1.411 0.31999999
4.3140001 -9.5539999 -1.408 0.28999999
4.349 -9.5530005 -1.411 0.28999999
4.381 -9.5430002 -1.411 0.25
4.4000001 -9.5059996 -1.4069999 0.18000001
4.4380002 -9.5080004 -1.41 0.41999999
4.447 -9.4910002 -1.408 0.23999999
4.4720001 -9.4659996 -1.406 0.25999999
4.5040002 -9.4549999 -1.4069999 0.23999999
4.5320001 -9.4390001 -1.4069999 0.41999999
4.5560002 -9.4130001 -1.404 0.23
4.586 -9.3979998 -1.404 0.2
4.6170001 -9.3870001 -1.405 0.18000001
4.632 -9.382 -1.405 0.47999999
4.6570001 -9.3570004 -1.404 0.23999999
4.6939998 -9.3579998 -1.406 0.25999999
4.7179999 -9.3319998 -1.404 0.27000001
4.7449999 -9.3120003 -1.404 0.2
4.776 -9.3009996 -1.404 0.46000001
4.7969999 -9.2700005 -1.401 0.23999999
4.8299999 -9.2639999 -1.403 0.23999999
4.8460002 -9.2580004 -1.403 0.31
4.8670001 -9.2270002 -1.401 0.27000001
4.8990002 -9.2180004 -1.402 0.23
4.9400001 -9.2259998 -1.406 0.34
4.9689999 -9.21 -1.406 0.28999999
4.9970002 -9.1929998 -1.405 0.28
5.0279999 -9.1800003 -1.406 0.31
5.039 -9.1660004 -1.405 0.23999999
5.0599999 -9.1359997 -1.402 0.23999999
5.0890002 -9.1219997 -1.403 0.27000001
5.1199999 -9.1090002 -1.403 0.41
5.1370001 -9.0719995 -1.4 0.23
5.184 -9.0889997 -1.405 0.23
5.1859999 -9.0600004 -1.402 0.31999999
5.2049999 -9.026 -1.399 0.27000001
5.2360001 -9.0150003 -1.4 0.25999999
5.2639999 -8.9969997 -1.399 0.25999999
5.2930002 -8.9820004 -1.4 0.27000001
5.3179998 -8.96 -1.399 0.20999999
5.348 -8.9469995 -1.399 0.46000001
5.3509998 -8.9200001 -1.396 0.23999999
5.3920002 -8.9250002 -1.4 0.23999999
5.4159999 -8.901 -1.399 0.28
5.4369998 -8.8719997 -1.397 0.31
5.4650002 -8.8549995 -1.397 0.27000001
5.4980001 -8.8470001 -1.398 0.34
5.5110002 -8.8059998 -1.3940001 0.18000001
5.5359998 -8.8149996 -1.397 0.41999999
5.5489998 -8.7749996 -1.393 0.23999999
5.5830002 -8.7670002 -1.395 0.22
5.6030002 -8.7379999 -1.393 0.20999999
5.6350002 -8.7270002 -1.3940001 0.49000001
5.6490002 -8.6890001 -1.39 0.2
5.698 -8.7049999 -1.396 0.41
5.6950002 -8.6689997 -1.391 0.25
5.7249999 -8.6560001 -1.392 0.23999999
5.7589998 -8.6479998 -1.3940001 0.28999999
5.7649999 -8.599 -1.388 0.23
5.8130002 -8.6120005 -1.3940001 0.38999999
5.8319998 -8.5819998 -1.392 0.23
5.8499999 -8.5500002 -1.39 0.2
5.8590002 -8.5349998 -1.388 0.51999998
5.8889999 -8.5209999 -1.3890001 0.27000001
5.9120002 -8.4960003 -1.388 0.25999999
5.9330001 -8.4689999 -1.387 0.20999999
5.9679999 -8.4639997 -1.3890001 0.30000001
5.9899998 -8.4379997 -1.388 0.36000001
5.9959998 -8.4180002 -1.386 0.25
6.013 -8.3859997 -1.383 0.23
6.0510001 -8.3830004 -1.386 0.41
6.0710001 -8.3559999 -1.385 0.30000001
6.0949998 -8.3339996 -1.3839999 0.34999999
6.125 -8.3190002 -1.385 0.31999999
6.1399999 -8.2860003 -1.382 0.28999999
6.1469998 -8.2679996 -1.381 0.25999999
6.1659999 -8.2390003 -1.3789999 0.25
6.198 -8.2279997 -1.381 0.36000001
6.223 -8.2069998 -1.38 0.34
6.2319999 -8.165 -1.376 0.22
6.2670002 -8.158 -1.378 0.38999999
6.2839999 -8.1269999 -1.376 0.22
6.2979999 -8.1190004 -1.377 0.47
6.322 -8.0979996 -1.376 0.36000001
6.349 -8.0790005 -1.377 0.31
6.3660002 -8.0480003 -1.374 0.31
6.3860002 -8.0220003 -1.373 0.23999999
6.414 -8.0050001 -1.374 0.34
6.434 -7.9790001 -1.373 0.36000001
6.4390001 -7.9590001 -1.3710001 0.30000001
6.4640002 -7.9390001 -1.3710001 0.20999999
6.4889998 -7.9190001 -1.3710001 0.44999999
6.5050001 -7.888 -1.369 0.30000001
6.5300002 -7.8670001 -1.369 0.33000001
6.559 -7.8530002 -1.37 0.38999999
6.5780001 -7.8239999 -1.368 0.30000001
6.5939999 -7.8189998 -1.369 0.34
6.6139998 -7.7930002 -1.368 0.34
6.6399999 -7.7740002 -1.369 0.31999999
6.6630001 -7.7519999 -1.368 0.33000001
6.677 -7.7189999 -1.3660001 0.28999999
6.7049999 -7.7020001 -1.367 0.22
6.737 -7.6900001 -1.369 0.34999999
6.744 -7.6729999 -1.368 0.46000001
6.7740002 -7.658 -1.369 0.28999999
6.8049998 -7.6459999 -1.3710001 0.38
6.8319998 -7.6269999 -1.3710001 0.25999999
6.869 -7.6209998 -1.374 0.41
6.8940001 -7.5999999 -1.374 0.31999999
6.914 -7.5739999 -1.374 0.31999999
6.9180002 -7.5549998 -1.372 0.28
6.9039998 -7.4920001 -1.363 0.27000001
6.8940001 -7.434 -1.3559999 0.40000001
6.9109998 -7.4050002 -1.354 0.31
6.9130001 -7.3600001 -1.349 0.28
6.888 -7.2880001 -1.339 0.37
6.8940001 -7.2709999 -1.3380001 0.25
6.855 -7.184 -1.324 0.47999999
6.8959999 -7.1820002 -1.3279999 0.36000001
6.9120002 -7.1529999 -1.326 0.47999999
6.9250002 -7.1220002 -1.324 0.41
6.9749999 -7.1279998 -1.33 0.44999999
6.9780002 -7.0869999 -1.326 0.31999999
6.9359999 -7.0219998 -1.3150001 0.47
7.0040002 -7.0469999 -1.325 0.36000001
7.0019999 -7.0009999 -1.319 0.37
7.0120001 -6.9660001 -1.317 0.55000001
7.059 -6.9689999 -1.322 0.41
7.0960002 -6.9619999 -1.325 0.34999999
7.1589999 -6.98 -1.334 0.44999999
7.1399999 -6.9400001 -1.3279999 0.44
7.1729999 -6.928 -1.33 0.31999999
7.2379999 -6.947 -1.339 0.44999999
7.2199998 -6.8860002 -1.331 0.41
7.27 -6.8899999 -1.337 0.43000001
7.2639999 -6.842 -1.331 0.31
7.2509999 -6.7859998 -1.324 0.44999999
7.3189998 -6.829 -1.336 0.34
7.4130001 -6.8730001 -1.351 0.43000001
7.467 -6.8800001 -1.358 0.38
7.4169998 -6.79 -1.3430001 0.43000001
7.3670001 -6.7020001 -1.3279999 0.44999999
7.4050002 -6.6950002 -1.332 0.34
7.4169998 -6.6630001 -1.33 0.38999999
7.434 -6.6570001 -1.331 0.31
7.5089998 -6.6820002 -1.342 0.38
7.4959998 -6.6279998 -1.335 0.38
7.5560002 -6.6389999 -1.3430001 0.33000001
7.5289998 -6.573 -1.334 0.46000001
7.5939999 -6.5890002 -1.3430001 0.34999999
7.5609999 -6.5180001 -1.332 0.34999999
7.5619998 -6.4990001 -1.33 0.40000001
7.6100001 -6.4980001 -1.335 0.46000001
7.6420002 -6.4840002 -1.3380001 0.31
7.6609998 -6.4590001 -1.3380001 0.47999999
7.7329998 -6.4780002 -1.348 0.30000001
7.763 -6.4629998 -1.35 0.47999999
7.7930002 -6.4460001 -1.352 0.31999999
7.7529998 -6.3920002 -1.342 0.34999999
7.7470002 -6.3460002 -1.337 0.47
7.7909999 -6.342 -1.341 0.34999999
7.7930002 -6.302 -1.3380001 0.43000001
7.8109999 -6.277 -1.3380001 0.36000001
7.8460002 -6.2649999 -1.341 0.40000001
7.8270001 -6.2090001 -1.3329999 0.31999999
7.8940001 -6.2420001 -1.344 0.43000001
7.8899999 -6.1989999 -1.34 0.36000001
7.98 -6.2290001 -1.353 0.38999999
7.9310002 -6.151 -1.34 0.37
7.9640002 -6.1360002 -1.3430001 0.41
7.9390001 -6.0780001 -1.334 0.34
7.9629998 -6.0760002 -1.337 0.46000001
7.9099998 -5.9959998 -1.323 0.33000001
7.9850001 -6.0139999 -1.334 0.36000001
8.0389996 -6.0149999 -1.341 0.38
8.04 -5.9770002 -1.337 0.44
8.0319996 -5.9310002 -1.332 0.34
8.1300001 -5.9650002 -1.347 0.38
8.1490002 -5.9590001 -1.349 0.44999999
8.1450005 -5.9169998 -1.345 0.36000001
8.1929998 -5.9120002 -1.35 0.41
8.1520004 -5.8439999 -1.339 0.34
8.2250004 -5.8569999 -1.349 0.41
8.2510004 -5.8369999 -1.351 0.44999999
8.2119999 -5.77 -1.34 0.34
8.3050003 -5.816 -1.3559999 0.38
8.3070002 -5.7789998 -1.353 0.41
8.3360004 -5.7610002 -1.355 0.40000001
8.3400002 -5.724 -1.352 0.37
8.3430004 -5.6880002 -1.349 0.38999999
8.4160004 -5.6999998 -1.36 0.40000001
8.3800001 -5.6370001 -1.35 0.38
8.4200001 -5.645 -1.355 0.38999999
8.4619999 -5.6350002 -1.36 0.41
8.4449997 -5.585 -1.354 0.41
8.4370003 -5.5409999 -1.349 0.43000001
8.4390001 -5.5050001 -1.346 0.34999999
8.4659996 -5.4850001 -1.348 0.43000001
8.4770002 -5.454 -1.347 0.31999999
8.507 -5.454 -1.351 0.44
8.5539999 -5.447 -1.3559999 0.34999999
8.6040001 -5.441 -1.362 0.43000001
8.566 -5.3790002 -1.352 0.34999999
8.5530005 -5.3330002 -1.347 0.38999999
8.5010004 -5.2639999 -1.334 0.43000001
8.5780001 -5.2740002 -1.345 0.28999999
8.6269999 -5.2859998 -1.352 0.5
8.493 -5.1669998 -1.325 0.33000001
8.5839996 -5.1849999 -1.339 0.36000001
8.6239996 -5.1719999 -1.3430001 0.33000001
8.7200003 -5.1929998 -1.357 0.43000001
8.6359997 -5.1059999 -1.339 0.38
8.6350002 -5.0689998 -1.336 0.36000001
8.7209997 -5.1009998 -1.35 0.38
8.783 -5.1009998 -1.358 0.37
8.8260002 -5.0890002 -1.363 0.41
8.7670002 -5.0180001 -1.35 0.37
8.7720003 -4.9850001 -1.348 0.38
8.5900002 -4.8449998 -1.313 0.37
7.9419999 -4.461 -1.198 0.38999999
7.9349999 -4.4239998 -1.194 0.36000001
7.9559999 -4.4029999 -1.1950001 0.31
7.9749999 -4.381 -1.196 0.38999999
7.9920001 -4.3579998 -1.197 0.34
8.0159998 -4.3379998 -1.199 0.36000001
8.0389996 -4.3179998 -1.2 0.38
8.0450001 -4.3049998 -1.2 0.38
8.073 -4.2870002 -1.2029999 0.38
8.0970001 -4.2670002 -1.205 0.33000001
8.1219997 -4.2480001 -1.207 0.43000001
8.1479998 -4.2290001 -1.209 0.38999999
8.1630001 -4.204 -1.209 0.38999999
8.1809998 -4.1810002 -1.21 0.34999999
8.2019997 -4.1760001 -1.212 0.41
8.224 -4.1550002 -1.214 0.27000001
8.2460003 -4.1329999 -1.215 0.46000001
8.2659998 -4.1110001 -1.217 0.40000001
8.2930002 -4.092 -1.219 0.30000001
8.316 -4.0710001 -1.221 0.49000001
8.3360004 -4.0479999 -1.222 0.34999999
8.3599997 -4.0440001 -1.225 0.43000001
8.408 -4.0349998 -1.2309999 0.33000001
9.0769997 -4.323 -1.3430001 0.27000001
9.2600002 -4.375 -1.3710001 0.41
9.2880001 -4.3530002 -1.374 0.30000001
9.1680002 -4.2610002 -1.351 0.36000001
9.3640003 -4.3169999 -1.382 0.38
9.2880001 -4.2639999 -1.368 0.38999999
9.3500004 -4.257 -1.376 0.23
9.1940002 -4.151 -1.348 0.5
9.2810001 -4.1550002 -1.36 0.28999999
9.3009996 -4.1290002 -1.3609999 0.37
9.2939997 -4.0910001 -1.358 0.43000001
9.3719997 -4.0900002 -1.369 0.30000001
9.2880001 -4.0359998 -1.354 0.5
9.335 -4.0219998 -1.36 0.28
9.2150002 -3.9349999 -1.3380001 0.44
9.3240004 -3.947 -1.354 0.25
9.3669996 -3.931 -1.359 0.46000001
9.3140001 -3.8740001 -1.348 0.40000001
9.3360004 -3.8670001 -1.351 0.34
9.3870001 -3.8529999 -1.357 0.44999999
9.3059998 -3.7850001 -1.341 0.36000001
9.4860001 -3.8239999 -1.369 0.30000001
9.5310001 -3.8080001 -1.375 0.41
9.5369997 -3.776 -1.374 0.28
9.7919998 -3.842 -1.414 0.44999999
9.6669998 -3.7750001 -1.392 0.28
9.6149998 -3.7190001 -1.382 0.44999999
9.809 -3.76 -1.4119999 0.34
9.6160002 -3.6500001 -1.378 0.44999999
9.823 -3.694 -1.41 0.37
9.868 -3.6760001 -1.416 0.41999999
9.9350004 -3.6659999 -1.425 0.41999999
9.8739996 -3.625 -1.414 0.28999999
9.9989996 -3.6359999 -1.432 0.52999997
9.7030001 -3.493 -1.382 0.30000001
9.526 -3.395 -1.352 0.34999999
9.4980001 -3.3510001 -1.345 0.36000001
9.4840002 -3.313 -1.341 0.36000001
9.4549999 -3.2690001 -1.335 0.38
9.4300003 -3.244 -1.33 0.38
9.4049997 -3.2019999 -1.325 0.36000001
9.3549995 -3.152 -1.3150001 0.38999999
9.3439999 -3.1159999 -1.311 0.34999999
9.382 -3.096 -1.316 0.44
9.4029999 -3.0699999 -1.318 0.28999999
9.4619999 -3.0569999 -1.326 0.38
9.5059996 -3.0550001 -1.332 0.40000001
9.5439997 -3.0339999 -1.337 0.27000001
9.5819998 -3.013 -1.341 0.40000001
9.5889997 -2.9820001 -1.341 0.36000001
9.6020002 -2.9530001 -1.341 0.41999999
9.6129999 -2.924 -1.342 0.43000001
9.6339998 -2.8970001 -1.344 0.33000001
9.6569996 -2.8870001 -1.347 0.31999999
9.691 -2.8640001 -1.351 0.41
9.7299995 -2.8429999 -1.355 0.38999999
9.7449999 -2.8139999 -1.3559999 0.41
9.7709999 -2.7880001 -1.359 0.34999999
9.8000002 -2.763 -1.362 0.40000001
9.8219995 -2.7360001 -1.364 0.37
9.8699999 -2.733 -1.3710001 0.31999999
9.9110003 -2.711 -1.377 0.38
9.9289999 -2.6830001 -1.378 0.36000001
9.9639997 -2.6589999 -1.382 0.31
10.009 -2.6370001 -1.388 0.40000001
10.059 -2.6170001 -1.395 0.41
10.129 -2.6010001 -1.404 0.33000001
10.941 -2.793 -1.5319999 0.25
10.951 -2.7590001 -1.533 0.66000003
10.977 -2.7290001 -1.535 0.30000001
10.89 -2.671 -1.52 0.43000001
10.896 -2.6359999 -1.52 0.34
10.902 -2.6010001 -1.52 0.43000001
10.905 -2.566 -1.5190001 0.44999999
10.895 -2.546 -1.517 0.41
10.892 -2.5090001 -1.515 0.38
10.967 -2.49 -1.525 0.38
10.95 -2.45 -1.521 0.47999999
11.011 -2.427 -1.53 0.28
11.027 -2.3940001 -1.531 0.52999997
10.988 -2.3499999 -1.524 0.23999999
10.995 -2.3329999 -1.524 0.55000001
11.012 -2.3010001 -1.526 0.41
11.093 -2.2809999 -1.5369999 0.38
11.135 -2.2539999 -1.543 0.37
