# .PCD v0.7 - Point Cloud Data file format
VERSION 0.7
FIELDS x y z intensity
SIZE 4 4 4 4
TYPE F F F F
COUNT 1 1 1 1
WIDTH 1420
HEIGHT 1
VIEWPOINT 0 0 0 1 0 0 0
POINTS 1420
DATA ascii
3.1659999 -5.8200002 -1.849 0.38
3.1849999 -5.8109999 -1.849 0.30000001
3.214 -5.822 -1.8559999 0.36000001
3.2030001 -5.7800002 -1.8430001 0.31
3.2420001 -5.8080001 -1.857 0.37
3.2490001 -5.776 -1.849 0.34
3.273 -5.7779999 -1.853 0.31999999
3.2679999 -5.7259998 -1.839 0.34
3.2909999 -5.724 -1.842 0.34999999
3.3099999 -5.737 -1.848 0.36000001
3.3310001 -5.7309999 -1.85 0.37
3.3510001 -5.724 -1.851 0.38
3.3729999 -5.7199998 -1.853 0.33000001
3.3940001 -5.7160001 -1.855 0.47999999
3.346 -5.5929999 -1.817 0.28999999
3.4300001 -5.6950002 -1.855 0.30000001
3.461 -5.7249999 -1.868 0.37
3.4530001 -5.6719999 -1.853 0.36000001
3.4549999 -5.6350002 -1.844 0.38
3.497 -5.6630001 -1.858 0.31999999
3.4820001 -5.5999999 -1.839 0.34
3.497 -5.5840001 -1.8380001 0.31
3.507 -5.5619998 -1.834 0.44999999
3.4849999 -5.507 -1.817 0.28999999
3.52 -5.5240002 -1.826 0.30000001
3.5769999 -5.5739999 -1.848 0.34
3.6170001 -5.599 -1.8609999 0.36000001
3.6389999 -5.5939999 -1.863 0.38
3.6159999 -5.5209999 -1.841 0.36000001
3.6370001 -5.5149999 -1.8430001 0.31
3.6500001 -5.5149999 -1.845 0.36000001
3.688 -5.5359998 -1.857 0.38
3.711 -5.5320001 -1.859 0.31999999
3.724 -5.5139999 -1.857 0.38999999
3.7320001 -5.4879999 -1.852 0.37
3.74 -5.4640002 -1.847 0.34999999
3.7320001 -5.4320002 -1.8380001 0.34
3.766 -5.4460001 -1.847 0.37
3.7809999 -5.4310002 -1.846 0.34999999
3.8080001 -5.4330001 -1.851 0.36000001
3.825 -5.421 -1.851 0.36000001
3.8150001 -5.3720002 -1.8380001 0.34999999
3.848 -5.381 -1.846 0.36000001
3.878 -5.4070001 -1.857 0.38999999
3.881 -5.3740001 -1.85 0.31999999
3.835 -5.2750001 -1.818 0.34
3.902 -5.3330002 -1.8430001 0.34
3.941 -5.3509998 -1.855 0.38999999
3.9530001 -5.3309999 -1.852 0.33000001
3.9430001 -5.3000002 -1.8430001 0.37
3.983 -5.3200002 -1.855 0.31999999
3.961 -5.2550001 -1.835 0.36000001
3.9719999 -5.2350001 -1.8329999 0.34999999
4.026 -5.2729998 -1.851 0.34999999
4.0739999 -5.302 -1.867 0.36000001
4.0799999 -5.2750001 -1.862 0.37
4.098 -5.2810001 -1.8660001 0.36000001
4.1059999 -5.257 -1.862 0.34
4.099 -5.2140002 -1.851 0.34999999
4.1389999 -5.2309999 -1.862 0.34
4.1760001 -5.244 -1.872 0.37
4.1729999 -5.2069998 -1.863 0.28999999
4.1430001 -5.1350002 -1.841 0.31
4.1339998 -5.1079998 -1.8329999 0.44999999
4.1350002 -5.0760002 -1.825 0.34999999
4.1859999 -5.1059999 -1.842 0.34
4.2249999 -5.1209998 -1.853 0.41
4.2379999 -5.1040001 -1.851 0.33000001
4.2540002 -5.0910001 -1.851 0.37
4.2750001 -5.0840001 -1.854 0.38
4.2639999 -5.053 -1.845 0.33000001
4.2810001 -5.0409999 -1.845 0.38999999
4.2800002 -5.0089998 -1.8380001 0.37
4.2989998 -4.9980001 -1.839 0.36000001
4.289 -4.9559999 -1.827 0.36000001
4.3309999 -4.973 -1.839 0.34999999
4.3499999 -4.9790001 -1.845 0.36000001
4.3660002 -4.9650002 -1.845 0.40000001
4.3800001 -4.9499998 -1.844 0.31999999
4.4260001 -4.9710002 -1.858 0.37
4.447 -4.9629998 -1.86 0.31999999
4.4530001 -4.9390001 -1.8559999 0.38
4.4879999 -4.9460001 -1.864 0.34
4.4860001 -4.927 -1.86 0.38999999
4.52 -4.9349999 -1.868 0.36000001
4.5149999 -4.8979998 -1.859 0.36000001
4.5419998 -4.8959999 -1.864 0.31
4.5560002 -4.881 -1.864 0.40000001
4.5359998 -4.8280001 -1.849 0.40000001
4.5 -4.7600002 -1.826 0.34
4.513 -4.7579999 -1.829 0.30000001
4.5770001 -4.7950001 -1.85 0.34
4.6469998 -4.8390002 -1.874 0.37
4.6389999 -4.8000002 -1.863 0.34
4.6399999 -4.7709999 -1.858 0.34
4.618 -4.7179999 -1.842 0.36000001
4.6420002 -4.7129998 -1.846 0.36000001
4.664 -4.7210002 -1.852 0.37
4.6430001 -4.6690001 -1.837 0.38999999
4.6599998 -4.658 -1.8380001 0.30000001
4.7129998 -4.6810002 -1.854 0.34
4.7490001 -4.6880002 -1.863 0.31999999
4.757 -4.6659999 -1.86 0.38999999
4.763 -4.6570001 -1.859 0.33000001
4.7820001 -4.6459999 -1.8609999 0.34999999
4.8109999 -4.6459999 -1.867 0.38999999
4.802 -4.6079998 -1.858 0.31999999
4.7909999 -4.5679998 -1.847 0.37
4.79 -4.5380001 -1.841 0.34
4.7690001 -4.4899998 -1.826 0.31999999
4.8179998 -4.5219998 -1.8430001 0.34999999
4.8000002 -4.4770002 -1.83 0.31999999
4.823 -4.4699998 -1.834 0.34
4.7480001 -4.3720002 -1.798 0.31999999
4.7670002 -4.362 -1.8 0.31999999
4.7740002 -4.3410001 -1.7970001 0.31999999
4.783 -4.322 -1.796 0.31999999
4.777 -4.303 -1.79 0.31999999
4.7919998 -4.289 -1.791 0.34
4.8130002 -4.2810001 -1.794 0.38999999
4.842 -4.2789998 -1.8 0.31999999
4.855 -4.2639999 -1.8 0.31999999
4.836 -4.2199998 -1.7869999 0.31999999
4.842 -4.2119999 -1.7869999 0.34999999
4.8410001 -4.184 -1.781 0.38999999
4.8660002 -4.1789999 -1.786 0.33000001
4.8470001 -4.1360002 -1.773 0.34
4.8439999 -4.1069999 -1.767 0.34999999
4.8299999 -4.0700002 -1.757 0.38
4.8670001 -4.0739999 -1.766 0.31999999
4.8829999 -4.0749998 -1.77 0.34999999
4.9120002 -4.0739999 -1.776 0.37
4.928 -4.0609999 -1.777 0.31999999
4.9559999 -4.0570002 -1.783 0.34
4.961 -4.0359998 -1.78 0.34999999
4.9879999 -4.0320001 -1.786 0.34
5.013 -4.026 -1.79 0.37
5.007 -4.0089998 -1.786 0.33000001
5.0120001 -3.987 -1.783 0.36000001
5.0409999 -3.984 -1.789 0.33000001
5.0609999 -3.974 -1.7920001 0.34
5.0599999 -3.948 -1.7869999 0.34999999
5.0770001 -3.9349999 -1.789 0.34
5.1030002 -3.9300001 -1.794 0.36000001
5.1209998 -3.931 -1.798 0.37
5.1290002 -3.9119999 -1.7970001 0.37
5.1370001 -3.892 -1.795 0.36000001
5.1479998 -3.875 -1.794 0.34999999
5.125 -3.832 -1.781 0.41999999
4.974 -3.694 -1.721 0.25999999
5.1259999 -3.7950001 -1.775 0.30000001
5.2010002 -3.826 -1.798 0.38
5.1830001 -3.7880001 -1.788 0.44999999
5.053 -3.6670001 -1.735 0.20999999
5.2090001 -3.756 -1.788 0.25999999
5.2049999 -3.7290001 -1.7819999 0.44999999
5.1420002 -3.6589999 -1.755 0.34999999
5.119 -3.631 -1.745 0.25999999
5.1420002 -3.622 -1.749 0.40000001
5.0469999 -3.5309999 -1.71 0.28
5.1269999 -3.563 -1.735 0.28999999
5.1849999 -3.5799999 -1.752 0.33000001
5.2220001 -3.5810001 -1.761 0.38
5.2090001 -3.549 -1.753 0.34
5.1939998 -3.526 -1.745 0.30000001
5.2610002 -3.5480001 -1.765 0.44999999
5.1609998 -3.4560001 -1.725 0.23
4.487 -2.98 -1.48 0.38999999
4.5359998 -2.993 -1.495 0.37
5.2379999 -3.437 -1.7410001 0.25999999
5.3410001 -3.4820001 -1.774 0.36000001
5.342 -3.47 -1.773 0.34
5.3579998 -3.4560001 -1.774 0.38
5.3720002 -3.4419999 -1.776 0.31999999
5.368 -3.415 -1.77 0.34
5.369 -3.392 -1.767 0.38
5.3829999 -3.3770001 -1.768 0.31999999
5.3930001 -3.372 -1.77 0.34999999
5.395 -3.3499999 -1.767 0.31
5.414 -3.3380001 -1.77 0.41999999
5.3969998 -3.3039999 -1.76 0.34
5.4549999 -3.316 -1.777 0.34
5.4390001 -3.283 -1.768 0.38
5.4260001 -3.2520001 -1.76 0.33000001
5.4130001 -3.233 -1.753 0.34999999
5.4229999 -3.2160001 -1.753 0.36000001
5.427 -3.1949999 -1.751 0.36000001
5.4169998 -3.1659999 -1.744 0.30000001
5.4250002 -3.148 -1.744 0.41999999
5.3670001 -3.0910001 -1.72 0.28999999
5.3699999 -3.082 -1.72 0.33000001
5.4000001 -3.076 -1.727 0.31999999
5.381 -3.043 -1.717 0.34
5.4190001 -3.0420001 -1.727 0.34
5.4419999 -3.033 -1.7309999 0.34999999
5.3709998 -2.971 -1.704 0.33000001
5.3720002 -2.9489999 -1.701 0.31999999
5.3870001 -2.947 -1.704 0.44999999
5.3189998 -2.8870001 -1.678 0.31
5.3850002 -2.902 -1.698 0.33000001
5.428 -2.9030001 -1.709 0.38
5.401 -2.8670001 -1.697 0.38
5.3340001 -2.809 -1.671 0.36000001
5.348 -2.7950001 -1.673 0.38999999
5.3369999 -2.779 -1.668 0.33000001
5.3260002 -2.7509999 -1.661 0.36000001
5.3379998 -2.7360001 -1.6619999 0.36000001
5.3909998 -2.7420001 -1.677 0.34999999
5.3790002 -2.7149999 -1.67 0.34
5.3940001 -2.7019999 -1.6720001 0.34
5.4419999 -2.704 -1.686 0.38
5.467 -2.7060001 -1.692 0.38
5.5040002 -2.7030001 -1.702 0.34
5.4990001 -2.6789999 -1.698 0.34
5.5190001 -2.668 -1.702 0.34999999
5.559 -2.6659999 -1.712 0.36000001
5.5760002 -2.652 -1.715 0.38
5.5700002 -2.628 -1.71 0.34999999
5.5539999 -2.6099999 -1.7029999 0.38
5.5479999 -2.586 -1.699 0.31
5.5770001 -2.5780001 -1.706 0.31
5.5900002 -2.563 -1.707 0.38999999
5.6160002 -2.553 -1.7130001 0.38
5.6110001 -2.53 -1.709 0.37
5.598 -2.513 -1.7029999 0.34
5.6490002 -2.5150001 -1.717 0.41
5.5370002 -2.444 -1.678 0.25
5.6110001 -2.4560001 -1.7 0.31999999
5.6170001 -2.437 -1.699 0.36000001
5.6300001 -2.4219999 -1.701 0.34
5.5999999 -2.388 -1.689 0.37
5.5549998 -2.358 -1.673 0.30000001
5.5939999 -2.3540001 -1.683 0.31999999
5.5960002 -2.335 -1.682 0.28999999
5.6240001 -2.326 -1.688 0.43000001
5.5630002 -2.279 -1.666 0.28999999
5.579 -2.266 -1.669 0.28999999
5.5180001 -2.221 -1.647 0.34999999
5.461 -2.187 -1.628 0.28
5.5339999 -2.197 -1.649 0.31
5.539 -2.1789999 -1.649 0.41
5.4689999 -2.131 -1.624 0.27000001
5.4990001 -2.1229999 -1.631 0.31999999
5.5380001 -2.118 -1.642 0.38
5.5700002 -2.1099999 -1.65 0.34999999
5.5440001 -2.0910001 -1.641 0.33000001
5.5450001 -2.0710001 -1.6390001 0.38
5.507 -2.0369999 -1.625 0.38999999
5.4070001 -1.98 -1.591 0.25
5.5110002 -1.999 -1.622 0.38
5.4990001 -1.975 -1.6160001 0.27000001
5.5180001 -1.962 -1.62 0.33000001
5.5079999 -1.949 -1.6160001 0.36000001
5.54 -1.941 -1.624 0.34
5.5240002 -1.916 -1.617 0.33000001
5.5570002 -1.908 -1.626 0.46000001
5.3670001 -1.823 -1.564 0.30000001
5.2729998 -1.772 -1.533 0.22
5.579 -1.867 -1.628 0.33000001
5.5900002 -1.851 -1.63 0.34999999
5.651 -1.851 -1.647 0.36000001
5.6680002 -1.837 -1.65 0.34
5.6700001 -1.818 -1.649 0.33000001
5.6810002 -1.802 -1.651 0.31999999
5.7379999 -1.801 -1.6670001 0.34
5.7420001 -1.7920001 -1.6670001 0.31
5.7420001 -1.772 -1.666 0.40000001
5.7309999 -1.749 -1.66 0.34999999
5.7610002 -1.739 -1.668 0.34
5.7550001 -1.717 -1.664 0.34
5.77 -1.702 -1.6670001 0.34999999
5.7709999 -1.692 -1.6670001 0.38
5.7849998 -1.677 -1.67 0.34999999
5.7979999 -1.661 -1.6720001 0.38999999
5.8270001 -1.649 -1.679 0.34
5.8390002 -1.633 -1.682 0.34
5.8439999 -1.615 -1.682 0.38
5.8460002 -1.595 -1.6799999 0.38
5.8649998 -1.591 -1.686 0.43000001
5.8699999 -1.572 -1.686 0.28999999
5.8470001 -1.546 -1.677 0.28999999
5.8429999 -1.526 -1.674 0.28999999
5.855 -1.5089999 -1.676 0.25999999
5.8520002 -1.489 -1.674 0.30000001
5.868 -1.473 -1.678 0.27000001
5.8649998 -1.4630001 -1.676 0.27000001
5.8540001 -1.4400001 -1.671 0.18000001
5.8639998 -1.423 -1.673 0.20999999
5.8499999 -1.401 -1.6670001 0.44
5.8790002 -1.388 -1.675 0.30000001
5.8720002 -1.367 -1.671 0.44999999
5.9060001 -1.355 -1.6799999 0.28999999
5.8839998 -1.34 -1.673 0.55000001
5.8990002 -1.325 -1.676 0.34
5.8850002 -1.302 -1.671 0.46000001
5.915 -1.289 -1.679 0.46000001
5.8930001 -1.265 -1.671 0.30000001
5.895 -1.2460001 -1.67 0.27000001
5.9120002 -1.23 -1.674 0.27000001
5.9120002 -1.22 -1.674 0.27000001
5.9159999 -1.202 -1.674 0.27000001
5.9039998 -1.1799999 -1.669 0.30000001
5.9190001 -1.164 -1.6720001 0.25999999
5.921 -1.145 -1.6720001 0.27000001
5.9250002 -1.126 -1.6720001 0.28999999
5.921 -1.1160001 -1.67 0.27000001
5.9089999 -1.094 -1.666 0.28
5.9260001 -1.0779999 -1.67 0.28999999
5.9390001 -1.061 -1.6720001 0.25999999
5.934 -1.041 -1.67 0.28
5.928 -1.021 -1.6670001 0.18000001
5.9239998 -1.001 -1.665 0.30000001
5.9310002 -0.99299997 -1.6670001 0.25
5.9320002 -0.97399998 -1.666 0.28
5.9369998 -0.95599997 -1.6670001 0.25999999
5.9380002 -0.93699998 -1.666 0.2
5.9390001 -0.91799998 -1.666 0.28
5.9460001 -0.89999998 -1.6670001 0.25
5.9520001 -0.88099998 -1.668 0.18000001
5.9559999 -0.87199998 -1.668 0.27000001
5.9429998 -0.85100001 -1.664 0.22
5.9460001 -0.833 -1.664 0.19
5.9580002 -0.815 -1.6670001 0.27000001
5.9759998 -0.79900002 -1.671 0.19
5.9549999 -0.77700001 -1.664 0.25
5.9569998 -0.76800001 -1.664 0.2
5.9699998 -0.75 -1.668 0.25
5.9749999 -0.73199999 -1.668 0.2
5.96 -0.71100003 -1.663 0.25
5.9790001 -0.69400001 -1.668 0.2
5.9759998 -0.67500001 -1.6670001 0.23999999
5.9679999 -0.65499997 -1.664 0.19
5.9790001 -0.64700001 -1.6670001 0.25
5.973 -0.62699997 -1.664 0.18000001
5.9749999 -0.60799998 -1.664 0.25
5.9770002 -0.58899999 -1.664 0.18000001
5.9899998 -0.57200003 -1.668 0.25
5.994 -0.55299997 -1.668 0.19
5.9819999 -0.53299999 -1.664 0.23
5.994 -0.52499998 -1.668 0.19
5.9809999 -0.505 -1.663 0.23
5.98 -0.486 -1.663 0.18000001
5.993 -0.46799999 -1.666 0.13
5.9829998 -0.44800001 -1.663 0.20999999
6 -0.43000001 -1.6670001 0.2
5.9879999 -0.41100001 -1.663 0.23999999
5.994 -0.40200001 -1.665 0.2
5.994 -0.38299999 -1.664 0.25
5.9889998 -0.36300001 -1.663 0.23
5.9840002 -0.34400001 -1.661 0.17
5.9949999 -0.32600001 -1.664 0.25999999
5.9879999 -0.30700001 -1.6619999 0.19
5.9889998 -0.29699999 -1.6619999 0.25
5.9840002 -0.278 -1.66 0.2
5.9889998 -0.25999999 -1.661 0.25
5.9879999 -0.241 -1.66 0.22
5.9840002 -0.222 -1.659 0.19
5.9990001 -0.20299999 -1.663 0.27000001
5.993 -0.184 -1.6619999 0.22
5.9749999 -0.16500001 -1.656 0.18000001
5.994 -0.156 -1.6619999 0.25999999
5.9889998 -0.13699999 -1.66 0.22
5.9910002 -0.118 -1.66 0.2
5.9949999 -0.1 -1.6619999 0.25
5.9860001 -0.081 -1.659 0.23
5.973 -0.061999999 -1.655 0.18000001
5.9959998 -0.052999999 -1.6619999 0.28
5.9959998 -0.034000002 -1.6619999 0.23
5.994 -0.015 -1.661 0.25
5.796 0.0040000002 -1.6720001 0.23
5.8210001 0.023 -1.6799999 0.19
5.8000002 0.041000001 -1.674 0.23
5.8109999 0.059 -1.677 0.19
5.7950001 0.077 -1.6720001 0.22
5.8179998 0.096000001 -1.679 0.18000001
5.802 0.114 -1.675 0.23999999
5.8140001 0.123 -1.678 0.16
5.7940001 0.141 -1.6720001 0.25
5.8189998 0.16 -1.6799999 0.19
5.7969999 0.177 -1.674 0.25
5.8060002 0.19599999 -1.676 0.18000001
5.79 0.213 -1.6720001 0.25
5.7950001 0.23199999 -1.674 0.18000001
5.789 0.241 -1.6720001 0.25
5.8049998 0.25999999 -1.677 0.18000001
5.7870002 0.27700001 -1.6720001 0.25
5.8070002 0.296 -1.678 0.19
5.7930002 0.31400001 -1.674 0.25
5.7919998 0.33199999 -1.674 0.19
5.789 0.34999999 -1.674 0.25
5.8000002 0.36000001 -1.677 0.19
5.7849998 0.377 -1.673 0.25
5.7940001 0.396 -1.676 0.23
5.783 0.414 -1.673 0.18000001
5.7820001 0.43200001 -1.673 0.25999999
5.8010001 0.45199999 -1.679 0.16
5.7659998 0.458 -1.669 0.25999999
5.7820001 0.47799999 -1.674 0.18000001
5.7649999 0.49399999 -1.669 0.25
5.7979999 0.51599997 -1.6799999 0.2
5.7709999 0.53100002 -1.6720001 0.12
5.7680001 0.54900002 -1.6720001 0.2
5.77 0.56800002 -1.673 0.11
5.777 0.57800001 -1.675 0.18000001
5.7579999 0.59399998 -1.67 0.12
5.7579999 0.61199999 -1.671 0.2
5.744 0.62900001 -1.6670001 0.11
5.7579999 0.64899999 -1.6720001 0.19
5.7480001 0.66600001 -1.669 0.11
5.7610002 0.68599999 -1.674 0.20999999
5.75 0.69400001 -1.671 0.11
5.7519999 0.71200001 -1.6720001 0.2
5.7420001 0.73000002 -1.67 0.11
5.757 0.75 -1.675 0.2
5.737 0.76599997 -1.67 0.11
5.75 0.78600001 -1.675 0.2
5.7389998 0.79299998 -1.6720001 0.11
5.737 0.81099999 -1.6720001 0.2
5.7360001 0.82999998 -1.6720001 0.11
5.7490001 0.85000002 -1.677 0.2
5.723 0.86500001 -1.67 0.11
5.717 0.88200003 -1.669 0.19
5.7160001 0.89999998 -1.669 0.11
5.7449999 0.91399997 -1.679 0.2
5.7290001 0.93000001 -1.675 0.11
5.7259998 0.94800001 -1.675 0.18000001
5.724 0.96600002 -1.675 0.11
5.7329998 0.986 -1.679 0.17
5.7069998 1 -1.6720001 0.050000001
5.7080002 1.0190001 -1.673 0.18000001
5.6929998 1.025 -1.669 0.050000001
5.71 1.0470001 -1.675 0.17
5.6900001 1.062 -1.67 0.050000001
5.7020001 1.0829999 -1.675 0.17
5.6939998 1.1 -1.674 0.11
5.698 1.119 -1.676 0.18000001
5.6859999 1.135 -1.673 0.11
5.7119999 1.15 -1.682 0.17
5.671 1.16 -1.67 0.050000001
5.691 1.183 -1.678 0.17
5.6729999 1.198 -1.673 0.18000001
5.6630001 1.214 -1.671 0.1
5.6739998 1.235 -1.676 0.18000001
5.6690001 1.243 -1.675 0.20999999
5.678 1.2640001 -1.679 0.2
5.6550002 1.278 -1.673 0.11
5.6589999 1.2970001 -1.675 0.18000001
5.645 1.313 -1.6720001 0.1
5.6370001 1.33 -1.671 0.2
5.6370001 1.348 -1.6720001 0.1
5.664 1.374 -1.682 0.17
5.6300001 1.375 -1.6720001 0.12
5.6300001 1.393 -1.674 0.2
5.6220002 1.41 -1.6720001 0.11
5.6079998 1.425 -1.669 0.2
5.6129999 1.4450001 -1.6720001 0.11
5.6209998 1.466 -1.676 0.18000001
5.6040001 1.471 -1.6720001 0.12
5.6160002 1.493 -1.677 0.18000001
5.5910001 1.506 -1.671 0.23
5.6100001 1.53 -1.678 0.18000001
5.5830002 1.541 -1.671 0.25
5.5819998 1.5599999 -1.6720001 0.19
5.566 1.574 -1.669 0.25
5.5799999 1.5880001 -1.674 0.18000001
5.559 1.6 -1.669 0.25
5.5700002 1.623 -1.674 0.20999999
5.5630002 1.64 -1.674 0.12
5.552 1.655 -1.6720001 0.20999999
5.5440001 1.6720001 -1.671 0.17
5.5349998 1.688 -1.669 0.27000001
5.5500002 1.702 -1.675 0.23
5.5359998 1.717 -1.6720001 0.2
5.5190001 1.7309999 -1.669 0.25
5.5339999 1.755 -1.675 0.18000001
5.5029998 1.7640001 -1.6670001 0.25
5.5079999 1.785 -1.671 0.22
5.5149999 1.796 -1.674 0.17
5.494 1.809 -1.669 0.28
5.5009999 1.83 -1.673 0.23
5.494 1.847 -1.6720001 0.25999999
5.4699998 1.858 -1.666 0.18000001
5.48 1.881 -1.6720001 0.28
5.4819999 1.9 -1.674 0.22
5.4770002 1.908 -1.674 0.16
5.4650002 1.924 -1.6720001 0.25999999
5.4650002 1.943 -1.674 0.25
5.4580002 1.96 -1.674 0.18000001
5.4380002 1.972 -1.669 0.27000001
5.4390001 1.992 -1.671 0.23999999
5.4330001 2.0090001 -1.671 0.17
5.4310002 2.0179999 -1.6720001 0.27000001
5.4299998 2.0369999 -1.674 0.23
5.4099998 2.0480001 -1.669 0.19
5.4169998 2.0710001 -1.674 0.27000001
5.4050002 2.086 -1.6720001 0.23
5.4039998 2.105 -1.674 0.18000001
5.414 2.128 -1.679 0.2
5.4099998 2.1370001 -1.679 0.31999999
5.3889999 2.148 -1.674 0.38999999
5.3899999 2.168 -1.676 0.36000001
5.3720002 2.1800001 -1.673 0.46000001
5.3559999 2.194 -1.67 0.44999999
5.3569999 2.2130001 -1.6720001 0.34999999
5.3439999 2.2279999 -1.671 0.46000001
5.3439999 2.2379999 -1.6720001 0.46000001
5.3390002 2.2550001 -1.6720001 0.27000001
5.348 2.279 -1.678 0.18000001
5.3299999 2.2909999 -1.674 0.27000001
5.3330002 2.313 -1.678 0.22
5.3280001 2.3299999 -1.678 0.17
5.3099999 2.332 -1.674 0.25999999
5.3200002 2.3570001 -1.679 0.18000001
5.302 2.369 -1.676 0.25
5.2930002 2.385 -1.675 0.19
5.2789998 2.398 -1.673 0.25
5.3010001 2.428 -1.683 0.20999999
5.263 2.431 -1.673 0.12
5.277 2.447 -1.679 0.2
5.2659998 2.4619999 -1.678 0.11
5.2579999 2.4790001 -1.678 0.2
5.2449999 2.493 -1.676 0.11
5.2820001 2.5309999 -1.691 0.18000001
5.2360001 2.529 -1.678 0.23
5.25 2.5569999 -1.686 0.19
5.2340002 2.559 -1.682 0.12
5.2249999 2.575 -1.681 0.18000001
5.2340002 2.5999999 -1.687 0.2
5.2129998 2.6099999 -1.683 0.31999999
5.197 2.622 -1.6799999 0.23999999
5.1869998 2.6370001 -1.679 0.1
5.2059999 2.668 -1.689 0.18000001
5.171 2.6600001 -1.678 0.22
5.178 2.684 -1.684 0.19
5.1589999 2.6949999 -1.6799999 0.25
5.1560001 2.714 -1.682 0.18000001
5.132 2.7219999 -1.676 0.25
5.1469998 2.7509999 -1.6849999 0.19
5.1100001 2.7520001 -1.675 0.12
5.1269999 2.7709999 -1.682 0.18000001
5.1020002 2.7780001 -1.676 0.050000001
5.0929999 2.7939999 -1.676 0.17
5.0809999 2.8080001 -1.675 0.11
5.092 2.836 -1.682 0.19
5.0679998 2.8429999 -1.677 0.11
5.0669999 2.8529999 -1.678 0.18000001
5.0609999 2.8710001 -1.679 0.19
5.0310001 2.8740001 -1.6720001 0.1
5.0479999 2.905 -1.681 0.19
5.027 2.915 -1.677 0.2
5.007 2.924 -1.673 0.1
5.027 2.9460001 -1.682 0.18000001
4.9990001 2.951 -1.675 0.20999999
4.993 2.9690001 -1.676 0.1
4.9970002 2.9920001 -1.681 0.18000001
4.9809999 3.0039999 -1.679 0.2
4.9720001 3.02 -1.679 0.18000001
4.9590001 3.033 -1.678 0.1
4.9770002 3.0550001 -1.686 0.17
4.9510002 3.0610001 -1.6799999 0.20999999
4.9429998 3.0769999 -1.681 0.16
4.9159999 3.0810001 -1.674 0.050000001
4.9169998 3.1040001 -1.678 0.17
4.9109998 3.1210001 -1.679 0.19
4.8909998 3.131 -1.676 0.1
4.8860002 3.138 -1.676 0.18000001
4.881 3.1570001 -1.678 0.1
4.8699999 3.171 -1.677 0.18000001
4.8639998 3.1900001 -1.679 0.1
4.8660002 3.2119999 -1.683 0.16
4.8410001 3.2179999 -1.678 0.20999999
4.8200002 3.2260001 -1.674 0.1
4.8429999 3.2520001 -1.684 0.17
4.8130002 3.2539999 -1.676 0.23
4.8070002 3.2720001 -1.678 0.2
4.7789998 3.2750001 -1.6720001 0.22
4.7859998 3.302 -1.678 0.16
4.77 3.313 -1.676 0.23
4.7719998 3.3369999 -1.681 0.16
4.7480001 3.3310001 -1.674 0.23
4.756 3.359 -1.681 0.18000001
4.7309999 3.3640001 -1.675 0.23
4.7259998 3.382 -1.677 0.18000001
4.7059999 3.3900001 -1.674 0.25
4.7090001 3.415 -1.679 0.18000001
4.6789999 3.404 -1.669 0.23999999
4.6880002 3.434 -1.677 0.18000001
4.665 3.4389999 -1.6720001 0.23
4.6620002 3.46 -1.675 0.18000001
4.645 3.47 -1.673 0.23
4.6490002 3.4960001 -1.679 0.18000001
4.6290002 3.5039999 -1.675 0.23999999
4.6279998 3.5139999 -1.677 0.22
4.6110001 3.5239999 -1.675 0.17
4.5970001 3.536 -1.674 0.25999999
4.592 3.5550001 -1.676 0.19
4.5760002 3.566 -1.674 0.25
4.5679998 3.5829999 -1.675 0.19
4.5510001 3.5929999 -1.673 0.23999999
4.552 3.6059999 -1.676 0.22
4.5419998 3.6210001 -1.676 0.2
4.5279999 3.6329999 -1.675 0.23999999
4.5209999 3.651 -1.677 0.19
4.5050001 3.661 -1.675 0.25
4.5019999 3.6830001 -1.679 0.2
4.4819999 3.6900001 -1.675 0.23
4.4790001 3.6989999 -1.676 0.23
4.4699998 3.7160001 -1.678 0.16
4.4520001 3.724 -1.675 0.25999999
4.4489999 3.7449999 -1.678 0.19
4.4310002 3.7539999 -1.676 0.23999999
4.4289999 3.777 -1.6799999 0.18000001
4.4039998 3.779 -1.675 0.23999999
4.4070001 3.7939999 -1.678 0.23
4.3940001 3.806 -1.678 0.18000001
4.3790002 3.8169999 -1.676 0.25999999
4.3769999 3.8399999 -1.681 0.18000001
4.3499999 3.8410001 -1.675 0.25
4.3499999 3.865 -1.679 0.18000001
4.3379998 3.8670001 -1.677 0.25
4.3319998 3.885 -1.679 0.19
4.3080001 3.8889999 -1.675 0.25
4.3060002 3.911 -1.679 0.19
4.2810001 3.9130001 -1.674 0.13
4.2729998 3.9300001 -1.675 0.20999999
4.2729998 3.9560001 -1.681 0.20999999
4.2579999 3.954 -1.677 0.25
4.2529998 3.974 -1.6799999 0.2
4.237 3.9849999 -1.679 0.12
4.237 4.0100002 -1.684 0.18000001
4.2080002 4.0079999 -1.677 0.11
4.211 4.0349998 -1.684 0.18000001
4.1880002 4.026 -1.676 0.23
4.1919999 4.0549998 -1.684 0.19
4.1620002 4.052 -1.676 0.12
4.1550002 4.0710001 -1.679 0.2
4.138 4.0799999 -1.677 0.11
4.1339998 4.1009998 -1.681 0.2
4.1129999 4.1059999 -1.677 0.11
4.1129999 4.119 -1.6799999 0.20999999
4.0970001 4.1290002 -1.679 0.11
4.086 4.1430001 -1.679 0.2
4.0780001 4.1620002 -1.682 0.11
4.0689998 4.1789999 -1.684 0.19
4.0440001 4.1789999 -1.678 0.1
4.033 4.1939998 -1.679 0.18000001
4.0289998 4.2030001 -1.681 0.11
4.0209999 4.2220001 -1.683 0.19
3.997 4.223 -1.678 0.1
4.0120001 4.2649999 -1.691 0.15000001
3.98 4.2579999 -1.682 0.050000001
3.9790001 4.2839999 -1.688 0.17
3.951 4.2800002 -1.681 0.19
3.9400001 4.2820001 -1.679 0.18000001
3.941 4.3099999 -1.686 0.1
3.928 4.3239999 -1.687 0.15000001
3.901 4.3200002 -1.6799999 0.050000001
3.9070001 4.355 -1.689 0.18000001
3.8770001 4.349 -1.682 0.050000001
3.881 4.381 -1.6900001 0.17
3.8710001 4.3829999 -1.688 0.19
3.8429999 4.3790002 -1.682 0.18000001
3.8329999 4.3959999 -1.684 0.1
3.845 4.4380002 -1.696 0.14
3.8050001 4.4200001 -1.684 0.050000001
3.7950001 4.4359999 -1.6849999 0.16
3.7869999 4.4549999 -1.688 0.050000001
3.7809999 4.4629998 -1.689 0.17
3.7579999 4.4629998 -1.684 0.2
3.753 4.4860001 -1.689 0.090000004
3.7309999 4.4879999 -1.6849999 0.18000001
3.707 4.4879999 -1.6799999 0.050000001
3.7119999 4.5229998 -1.689 0.16
3.6949999 4.5170002 -1.6849999 0.18000001
3.6789999 4.526 -1.684 0.18000001
3.6730001 4.5479999 -1.688 0.090000004
3.6619999 4.5640001 -1.689 0.15000001
3.632 4.5560002 -1.682 0.050000001
3.635 4.5879998 -1.6900001 0.17
3.6129999 4.5900002 -1.687 0.2
3.6059999 4.5960002 -1.687 0.16
3.5940001 4.6100001 -1.688 0.050000001
3.5769999 4.619 -1.687 0.16
3.5650001 4.6329999 -1.688 0.2
3.5669999 4.6669998 -1.697 0.16
3.5309999 4.6490002 -1.6849999 0.059999999
3.529 4.677 -1.692 0.18000001
3.5190001 4.6789999 -1.691 0.11
3.5050001 4.6900001 -1.691 0.18000001
3.484 4.6939998 -1.688 0.2
3.4809999 4.7199998 -1.694 0.1
3.46 4.723 -1.691 0.17
3.4400001 4.7259998 -1.688 0.20999999
3.4360001 4.7360001 -1.689 0.16
3.411 4.7329998 -1.684 0.050000001
3.4119999 4.7670002 -1.693 0.18000001
3.3929999 4.7719998 -1.691 0.11
3.3740001 4.776 -1.688 0.18000001
3.3610001 4.79 -1.689 0.11
3.349 4.8049998 -1.691 0.19
3.335 4.8010001 -1.688 0.11
3.335 4.8330002 -1.696 0.18000001
3.3080001 4.8260002 -1.689 0.23
3.3039999 4.8530002 -1.6950001 0.19
3.2809999 4.8520002 -1.691 0.11
3.266 4.862 -1.691 0.18000001
3.2460001 4.8660002 -1.689 0.22
3.2520001 4.8920002 -1.697 0.2
3.223 4.881 -1.689 0.11
3.214 4.901 -1.692 0.18000001
3.194 4.9050002 -1.6900001 0.23
3.1930001 4.9369998 -1.698 0.19
3.1659999 4.928 -1.691 0.11
3.152 4.941 -1.692 0.20999999
3.142 4.9429998 -1.691 0.17
3.125 4.9489999 -1.6900001 0.25999999
3.109 4.9590001 -1.6900001 0.23
3.086 4.9559999 -1.6849999 0.17
3.0710001 4.967 -1.686 0.25999999
3.059 4.9829998 -1.688 0.23999999
3.0450001 4.9949999 -1.689 0.16
3.0369999 4.9990001 -1.689 0.25999999
3.02 5.007 -1.688 0.23
3.0009999 5.0120001 -1.687 0.18000001
2.9909999 5.0310001 -1.6900001 0.28
2.9760001 5.04 -1.6900001 0.25
2.954 5.04 -1.687 0.18000001
2.9419999 5.0560002 -1.689 0.27000001
2.9289999 5.052 -1.686 0.23999999
2.9119999 5.0580001 -1.6849999 0.17
2.9070001 5.0869999 -1.692 0.27000001
2.885 5.086 -1.688 0.23
2.865 5.0869999 -1.6849999 0.16
2.8510001 5.1009998 -1.687 0.27000001
2.8429999 5.105 -1.687 0.22
2.829 5.1170001 -1.688 0.17
2.8110001 5.1230001 -1.687 0.27000001
2.7980001 5.1370001 -1.689 0.23999999
2.7839999 5.1490002 -1.6900001 0.18000001
2.767 5.158 -1.6900001 0.27000001
2.747 5.158 -1.687 0.23
2.7420001 5.1690001 -1.689 0.2
2.7219999 5.1690001 -1.687 0.13
2.7049999 5.178 -1.687 0.2
2.6849999 5.178 -1.684 0.18000001
2.675 5.1999998 -1.688 0.25999999
2.6619999 5.2150002 -1.691 0.22
2.6440001 5.2199998 -1.689 0.18000001
2.635 5.2220001 -1.689 0.25999999
2.6199999 5.2340002 -1.6900001 0.23
2.6010001 5.237 -1.688 0.18000001
2.5880001 5.2519999 -1.691 0.27000001
2.5739999 5.2649999 -1.692 0.23
2.5550001 5.2680001 -1.691 0.16
2.539 5.276 -1.691 0.28
2.5350001 5.289 -1.694 0.25
2.5150001 5.2909999 -1.692 0.27000001
2.5039999 5.3099999 -1.6950001 0.27000001
2.4849999 5.3119998 -1.694 0.30000001
2.4690001 5.3239999 -1.6950001 0.28999999
2.4579999 5.342 -1.698 0.25
2.4349999 5.3369999 -1.694 0.16
2.427 5.3410001 -1.694 0.30000001
2.4089999 5.3470001 -1.694 0.23999999
2.3900001 5.349 -1.692 0.16
2.3759999 5.362 -1.694 0.28
2.3629999 5.3779998 -1.697 0.25
2.3429999 5.3790002 -1.694 0.25999999
2.3310001 5.3979998 -1.698 0.25999999
2.323 5.4039998 -1.699 0.28999999
2.2969999 5.388 -1.691 0.22
2.2750001 5.3829999 -1.687 0.30000001
2.256 5.3860002 -1.686 0.33000001
2.2349999 5.3829999 -1.682 0.31999999
2.2079999 5.3649998 -1.674 0.25999999
2.188 5.3649998 -1.6720001 0.34
2.1789999 5.3670001 -1.671 0.31999999
2.161 5.3720002 -1.671 0.44999999
2.145 5.3800001 -1.671 0.34
2.135 5.4050002 -1.677 0.34
2.118 5.4109998 -1.677 0.34
2.1070001 5.4320002 -1.682 0.33000001
2.0880001 5.4349999 -1.681 0.28999999
2.0869999 5.4580002 -1.687 0.34999999
2.075 5.4770002 -1.691 0.27000001
2.0580001 5.4860001 -1.692 0.30000001
2.0469999 5.5079999 -1.697 0.23
2.0350001 5.5310001 -1.7029999 0.20999999
2.0120001 5.5190001 -1.697 0.19
1.998 5.5359998 -1.7 0.44999999
1.9809999 5.5159998 -1.692 0.20999999
1.967 5.5310001 -1.6950001 0.28999999
1.9529999 5.546 -1.698 0.25
1.937 5.5580001 -1.7 0.22
1.9069999 5.526 -1.688 0.30000001
1.892 5.5409999 -1.691 0.28999999
1.883 5.5700002 -1.698 0.31999999
1.86 5.5300002 -1.684 0.28999999
1.84 5.5300002 -1.682 0.28999999
1.822 5.5320001 -1.681 0.25999999
1.8 5.5250001 -1.677 0.36000001
1.774 5.5019999 -1.668 0.30000001
1.763 5.5289998 -1.675 0.38999999
1.767 5.572 -1.688 0.34999999
1.749 5.5739999 -1.687 0.31999999
1.729 5.572 -1.684 0.25
1.71 5.5739999 -1.683 0.34999999
1.6950001 5.5879998 -1.686 0.31999999
1.678 5.5949998 -1.687 0.31
1.658 5.5900002 -1.683 0.28999999
1.647 5.585 -1.681 0.28999999
1.627 5.5830002 -1.678 0.30000001
1.605 5.5710001 -1.673 0.30000001
1.5880001 5.5780001 -1.674 0.27000001
1.5700001 5.5809999 -1.673 0.28
1.553 5.5879998 -1.674 0.28999999
1.5319999 5.5819998 -1.67 0.28999999
1.52 5.5710001 -1.666 0.31
1.5039999 5.5819998 -1.668 0.28999999
1.484 5.579 -1.665 0.28999999
1.465 5.5780001 -1.663 0.28999999
1.446 5.5749998 -1.661 0.28999999
1.433 5.5960002 -1.666 0.25999999
1.4119999 5.5879998 -1.6619999 0.28999999
1.4 5.579 -1.659 0.28999999
1.387 5.5999999 -1.664 0.27000001
1.367 5.5949998 -1.661 0.28
1.346 5.586 -1.6569999 0.30000001
1.3329999 5.6090002 -1.663 0.25999999
1.308 5.5799999 -1.652 0.27000001
1.2920001 5.5910001 -1.655 0.28
1.284 5.5949998 -1.655 0.30000001
1.262 5.579 -1.649 0.28999999
1.247 5.5970001 -1.653 0.27000001
1.232 5.6110001 -1.656 0.28
1.2079999 5.586 -1.648 0.28
1.193 5.6009998 -1.651 0.28999999
1.184 5.6009998 -1.65 0.27000001
1.161 5.5809999 -1.643 0.28999999
1.145 5.5900002 -1.645 0.28999999
1.13 5.6110001 -1.65 0.28999999
1.11 5.6009998 -1.646 0.28
1.091 5.5949998 -1.643 0.28
1.074 5.6020002 -1.6440001 0.28
1.062 5.5869999 -1.6390001 0.28999999
1.045 5.5939999 -1.64 0.28999999
1.029 5.605 -1.642 0.28999999
1.0089999 5.5929999 -1.637 0.28999999
0.991 5.598 -1.638 0.28999999
0.97500002 5.6069999 -1.64 0.28999999
0.95499998 5.5970001 -1.636 0.28999999
0.93599999 5.5900002 -1.633 0.27000001
0.92799997 5.599 -1.635 0.31999999
0.90799999 5.585 -1.63 0.27000001
0.89099997 5.5900002 -1.63 0.28999999
0.875 5.6040001 -1.6339999 0.31
0.85500002 5.5890002 -1.6289999 0.30000001
0.83600003 5.586 -1.627 0.31
0.82200003 5.6100001 -1.633 0.27000001
0.81 5.5869999 -1.626 0.33000001
0.792 5.585 -1.624 0.27000001
0.77499998 5.5970001 -1.627 0.30000001
0.75599998 5.5879998 -1.624 0.28999999
0.73900002 5.5929999 -1.624 0.31999999
0.72100002 5.5910001 -1.623 0.28
0.71200001 5.5900002 -1.623 0.28999999
0.69400001 5.592 -1.623 0.31
0.67799997 5.6040001 -1.626 0.33000001
0.65799999 5.5910001 -1.6210001 0.31
0.64099997 5.5929999 -1.6210001 0.28999999
0.625 5.612 -1.626 0.28999999
0.60600001 5.599 -1.622 0.31
0.59600002 5.5879998 -1.618 0.28999999
0.579 5.5960002 -1.62 0.28
0.56 5.5809999 -1.614 0.27000001
0.54500002 5.6090002 -1.623 0.33000001
0.52600002 5.605 -1.6210001 0.30000001
0.50800002 5.5929999 -1.617 0.30000001
0.491 5.6020002 -1.619 0.31
0.48100001 5.5900002 -1.615 0.25
0.463 5.5929999 -1.6160001 0.31999999
0.44600001 5.5999999 -1.617 0.37
0.428 5.598 -1.6160001 0.28999999
0.41100001 5.599 -1.6160001 0.28999999
0.39399999 5.6079998 -1.619 0.27000001
0.37599999 5.6020002 -1.6160001 0.27000001
0.366 5.5809999 -1.61 0.33000001
0.34799999 5.5879998 -1.6109999 0.28999999
0.331 5.599 -1.614 0.25
0.31400001 5.6110001 -1.618 0.28
0.296 5.5970001 -1.613 0.31
0.27900001 5.5999999 -1.614 0.27000001
0.26100001 5.5929999 -1.6109999 0.31
0.25099999 5.5819998 -1.608 0.28
0.234 5.5900002 -1.61 0.28
0.21699999 5.5970001 -1.612 0.27000001
0.199 5.599 -1.613 0.25
0.182 5.5999999 -1.613 0.27000001
0.164 5.599 -1.612 0.30000001
0.146 5.5910001 -1.61 0.28999999
0.13699999 5.5900002 -1.609 0.28999999
0.12 5.5999999 -1.612 0.27000001
0.103 5.6079998 -1.614 0.28
0.085000001 5.6059999 -1.614 0.28999999
0.067000002 5.6079998 -1.614 0.28999999
0.050000001 5.618 -1.617 0.28999999
0.032000002 5.618 -1.617 0.28999999
0.023 5.6069999 -1.614 0.28999999
0.0060000001 5.6069999 -1.614 0.30000001
-0.012 5.599 -1.6109999 0.28
-0.029999999 5.6030002 -1.613 0.30000001
-0.046999998 5.612 -1.6160001 0.28999999
-0.064999998 5.599 -1.6109999 0.28
-0.082999997 5.612 -1.6160001 0.28999999
-0.090999998 5.6100001 -1.615 0.28999999
-0.109 5.6079998 -1.614 0.28
-0.127 5.6069999 -1.614 0.28
-0.14399999 5.6030002 -1.613 0.31999999
-0.162 5.599 -1.612 0.28999999
-0.17900001 5.6040001 -1.614 0.31
-0.18799999 5.6069999 -1.615 0.25999999
-0.205 5.5949998 -1.6109999 0.28999999
-0.223 5.6059999 -1.615 0.31
-0.241 5.6020002 -1.614 0.30000001
-0.259 5.6079998 -1.6160001 0.28
-0.27599999 5.5960002 -1.613 0.27000001
-0.29300001 5.5949998 -1.613 0.30000001
-0.31 5.585 -1.61 0.25
-0.31999999 5.5939999 -1.613 0.38
-0.33700001 5.5809999 -1.609 0.30000001
-0.35600001 5.6009998 -1.6160001 0.38
-0.373 5.592 -1.613 0.33000001
-0.391 5.6009998 -1.6160001 0.31999999
-0.40900001 5.6009998 -1.617 0.28999999
-0.41800001 5.6030002 -1.617 0.30000001
-0.435 5.5970001 -1.6160001 0.30000001
-0.45300001 5.5960002 -1.6160001 0.25999999
-0.47099999 5.6040001 -1.619 0.28999999
-0.48800001 5.5970001 -1.617 0.30000001
-0.50700003 5.6090002 -1.622 0.31999999
-0.52399999 5.6009998 -1.62 0.30000001
-0.53200001 5.5970001 -1.619 0.30000001
-0.55000001 5.599 -1.62 0.30000001
-0.56800002 5.5970001 -1.62 0.30000001
-0.58600003 5.5970001 -1.62 0.31
-0.60399997 5.6009998 -1.622 0.28999999
-0.62099999 5.5970001 -1.622 0.28999999
-0.63999999 5.6030002 -1.624 0.28999999
-0.648 5.5939999 -1.622 0.28999999
-0.66500002 5.592 -1.622 0.28999999
-0.68300003 5.592 -1.622 0.25
-0.70200002 5.6030002 -1.626 0.31
-0.71799999 5.5890002 -1.623 0.31
-0.736 5.5910001 -1.624 0.31
-0.755 5.598 -1.627 0.30000001
-0.764 5.599 -1.627 0.27000001
-0.78200001 5.5960002 -1.627 0.30000001
-0.79799998 5.586 -1.625 0.31
-0.81599998 5.5840001 -1.625 0.31
-0.83399999 5.585 -1.626 0.27000001
-0.85299999 5.5879998 -1.628 0.31999999
-0.87099999 5.5929999 -1.63 0.30000001
-0.88099998 5.599 -1.633 0.28999999
-0.89700001 5.585 -1.6289999 0.25999999
-0.91600001 5.5900002 -1.632 0.28999999
-0.93199998 5.579 -1.6289999 0.28999999
-0.94999999 5.5760002 -1.6289999 0.31999999
-0.96799999 5.5809999 -1.632 0.30000001
-0.98900002 5.5929999 -1.636 0.34
-0.99599999 5.5840001 -1.6339999 0.28999999
-1.013 5.5780001 -1.633 0.27000001
-1.0319999 5.5809999 -1.635 0.31999999
-1.051 5.585 -1.637 0.31
-1.068 5.5819998 -1.637 0.28999999
-1.086 5.5799999 -1.638 0.28999999
-1.104 5.579 -1.6390001 0.25999999
-1.1160001 5.5939999 -1.6440001 0.31999999
-1.132 5.579 -1.64 0.31
-1.151 5.585 -1.643 0.28
-1.168 5.5770001 -1.642 0.28999999
-1.187 5.5809999 -1.645 0.31
-1.205 5.579 -1.645 0.25999999
-1.223 5.5760002 -1.645 0.31999999
-1.2309999 5.5739999 -1.645 0.31
-1.251 5.5809999 -1.649 0.31
-1.268 5.5749998 -1.648 0.27000001
-1.286 5.5710001 -1.648 0.28999999
-1.307 5.5819998 -1.653 0.31999999
-1.325 5.5809999 -1.654 0.30000001
-1.342 5.5739999 -1.653 0.30000001
-1.352 5.5770001 -1.655 0.30000001
-1.37 5.573 -1.655 0.25
-1.388 5.5700002 -1.655 0.28999999
-1.409 5.5819998 -1.661 0.31
-1.429 5.5869999 -1.663 0.28999999
-1.444 5.5739999 -1.661 0.28
-1.464 5.5760002 -1.663 0.31999999
-1.474 5.5780001 -1.664 0.30000001
-1.493 5.579 -1.666 0.31
-1.5140001 5.5890002 -1.671 0.28999999
-1.531 5.5799999 -1.669 0.28999999
-1.549 5.579 -1.671 0.30000001
-1.5700001 5.5830002 -1.674 0.28999999
-1.587 5.5780001 -1.674 0.27000001
-1.597 5.5809999 -1.675 0.31
-1.619 5.5910001 -1.6799999 0.30000001
-1.632 5.5710001 -1.675 0.30000001
-1.65 5.566 -1.675 0.27000001
-1.6720001 5.5749998 -1.6799999 0.31999999
-1.691 5.5739999 -1.681 0.28999999
-1.7 5.5749998 -1.682 0.30000001
-1.725 5.5929999 -1.6900001 0.30000001
-1.738 5.573 -1.6849999 0.28999999
-1.758 5.5749998 -1.688 0.28999999
-1.78 5.5840001 -1.692 0.28999999
-1.798 5.5780001 -1.692 0.28999999
-1.814 5.5669999 -1.691 0.28999999
-1.839 5.585 -1.698 0.28999999
-1.847 5.5780001 -1.697 0.28
-1.864 5.573 -1.697 0.30000001
-1.887 5.5830002 -1.7029999 0.28999999
-1.901 5.5679998 -1.7 0.30000001
-1.921 5.5669999 -1.701 0.28
-1.949 5.592 -1.711 0.28999999
-1.962 5.5710001 -1.707 0.31
-1.972 5.5739999 -1.7079999 0.30000001
-1.9960001 5.586 -1.714 0.28999999
-2.0090001 5.5669999 -1.71 0.31
-2.03 5.5689998 -1.7130001 0.31
-2.0480001 5.5650001 -1.714 0.25999999
-2.0699999 5.5710001 -1.7180001 0.31
-2.0739999 5.5549998 -1.714 0.28
-2.1010001 5.572 -1.721 0.31
-2.115 5.5560002 -1.7180001 0.28999999
-2.1389999 5.5669999 -1.724 0.31999999
-2.158 5.5640001 -1.726 0.28999999
-2.1760001 5.559 -1.726 0.31999999
-2.1960001 5.559 -1.729 0.30000001
-2.2149999 5.5809999 -1.737 0.27000001
-2.2279999 5.5609999 -1.733 0.30000001
-2.2409999 5.5440001 -1.729 0.28999999
-2.266 5.5560002 -1.7359999 0.30000001
-2.286 5.5539999 -1.737 0.31
-2.302 5.5430002 -1.7359999 0.25999999
-2.3269999 5.5539999 -1.742 0.30000001
-2.3340001 5.546 -1.7410001 0.34999999
-2.3559999 5.5500002 -1.744 0.28999999
-2.382 5.5630002 -1.752 0.31
-2.4000001 5.5560002 -1.752 0.31999999
-2.415 5.5430002 -1.75 0.28
-2.448 5.5700002 -1.762 0.31999999
-2.4579999 5.5450001 -1.756 0.28999999
-2.471 5.5289998 -1.753 0.28999999
-2.4809999 5.5279999 -1.7539999 0.27000001
-2.4909999 5.5050001 -1.749 0.27000001
-2.5120001 5.5040002 -1.751 0.27000001
-2.533 5.5050001 -1.7539999 0.25999999
-2.5469999 5.4879999 -1.751 0.25999999
-2.563 5.4780002 -1.75 0.25
-2.576 5.4850001 -1.7539999 0.25999999
-2.5880001 5.4640002 -1.75 0.22
-2.5810001 5.4060001 -1.733 0.20999999
-2.586 5.3740001 -1.724 0.40000001
-2.6040001 5.368 -1.725 0.28
-2.6240001 5.3660002 -1.727 0.36000001
-2.6370001 5.349 -1.724 0.34
-2.658 5.3709998 -1.733 0.38999999
-2.6900001 5.3930001 -1.744 0.28999999
-2.7130001 5.3969998 -1.748 0.20999999
-2.7179999 5.3639998 -1.74 0.30000001
-2.7360001 5.3579998 -1.74 0.41
-2.76 5.362 -1.745 0.31
-2.7739999 5.349 -1.743 0.33000001
-2.7880001 5.3559999 -1.747 0.38
-2.8210001 5.3779998 -1.758 0.38
-2.832 5.3569999 -1.7539999 0.31
-2.8529999 5.3569999 -1.757 0.2
-2.8670001 5.3429999 -1.755 0.27000001
-2.882 5.3299999 -1.7539999 0.25
-2.8989999 5.3210001 -1.7539999 0.25999999
-2.921 5.322 -1.757 0.25999999
-2.924 5.3070002 -1.7539999 0.25999999
-2.9430001 5.3010001 -1.755 0.18000001
-2.9579999 5.2909999 -1.755 0.27000001
-2.9790001 5.2880001 -1.757 0.23999999
-2.997 5.2820001 -1.758 0.18000001
-3.01 5.2659998 -1.756 0.27000001
-3.013 5.2529998 -1.753 0.23999999
-3.0369999 5.2550001 -1.757 0.18000001
-3.049 5.2389998 -1.755 0.27000001
-3.0699999 5.2360001 -1.757 0.23999999
-3.085 5.224 -1.756 0.19
-3.1010001 5.2150002 -1.756 0.28
-3.118 5.2049999 -1.756 0.23
-3.1289999 5.2049999 -1.758 0.15000001
-3.148 5.1999998 -1.76 0.28
-3.1630001 5.1869998 -1.7589999 0.23
-3.1760001 5.1719999 -1.757 0.18000001
-3.1960001 5.1680002 -1.7589999 0.27000001
-3.2160001 5.165 -1.762 0.23999999
-3.227 5.145 -1.758 0.18000001
-3.234 5.138 -1.757 0.27000001
-3.2449999 5.1199999 -1.755 0.25
-3.263 5.1129999 -1.756 0.16
-3.2809999 5.1059999 -1.757 0.28
-3.2969999 5.0960002 -1.757 0.23999999
-3.316 5.0900002 -1.7589999 0.18000001
-3.336 5.086 -1.761 0.27000001
-3.3440001 5.0809999 -1.761 0.23999999
-3.3540001 5.0609999 -1.757 0.18000001
-3.3770001 5.0609999 -1.762 0.27000001
-3.3940001 5.052 -1.762 0.23999999
-3.4070001 5.0370002 -1.76 0.16
-3.428 5.0339999 -1.763 0.28
-3.447 5.0279999 -1.765 0.23
-3.4530001 5.0190001 -1.7640001 0.17
-3.4679999 5.0079999 -1.7640001 0.27000001
-3.484 4.9970002 -1.7640001 0.22
-3.493 4.9770002 -1.76 0.15000001
-3.5190001 4.98 -1.766 0.28999999
-3.536 4.9710002 -1.766 0.25
-3.549 4.9559999 -1.765 0.19
-3.5650001 4.9619999 -1.7690001 0.28
-3.5710001 4.9380002 -1.765 0.23999999
-3.5940001 4.9380002 -1.7690001 0.2
-3.608 4.9229999 -1.768 0.25
-3.622 4.9099998 -1.767 0.23
-3.6370001 4.8990002 -1.767 0.2
-3.6500001 4.8839998 -1.766 0.25
-3.6589999 4.8800001 -1.766 0.22
-3.6860001 4.8839998 -1.772 0.2
-3.704 4.875 -1.773 0.25
-3.714 4.8579998 -1.771 0.18000001
-3.724 4.8379998 -1.768 0.25
-3.7609999 4.855 -1.779 0.2
-3.7550001 4.816 -1.7690001 0.23
-3.7650001 4.8130002 -1.77 0.18000001
-3.7880001 4.8099999 -1.773 0.23
-3.8110001 4.809 -1.778 0.19
-3.8139999 4.7820001 -1.772 0.12
-3.8510001 4.7969999 -1.7819999 0.18000001
-3.8369999 4.7490001 -1.768 0.22
-3.8659999 4.7550001 -1.775 0.2
-3.881 4.7579999 -1.779 0.12
-3.892 4.7410002 -1.777 0.18000001
-3.8959999 4.7160001 -1.772 0.11
-3.9289999 4.7249999 -1.781 0.2
-3.928 4.6939998 -1.773 0.11
-3.96 4.7020001 -1.781 0.18000001
-3.9630001 4.6750002 -1.775 0.22
-3.964 4.6609998 -1.772 0.1
-3.983 4.6550002 -1.775 0.2
-4 4.645 -1.776 0.1
-4.02 4.638 -1.778 0.18000001
-4.027 4.6170001 -1.775 0.22
-4.0479999 4.6110001 -1.778 0.1
-4.053 4.5890002 -1.773 0.18000001
-4.059 4.5809999 -1.773 0.2
-4.0840001 4.5799999 -1.778 0.1
-4.092 4.5599999 -1.775 0.18000001
-4.1069999 4.5479999 -1.775 0.11
-4.1490002 4.5650001 -1.788 0.17
-4.1269999 4.5120001 -1.771 0.050000001
-4.1570001 4.5159998 -1.778 0.16
-4.1570001 4.5029998 -1.775 0.050000001
-4.1690001 4.487 -1.774 0.16
-4.1760001 4.467 -1.771 0.050000001
-4.2090001 4.473 -1.779 0.17
-4.2080002 4.4450002 -1.773 0.050000001
-4.2340002 4.4439998 -1.778 0.18000001
-4.243 4.4250002 -1.776 0.050000001
-4.2459998 4.414 -1.774 0.17
-4.2589998 4.401 -1.774 0.050000001
-4.2950001 4.4089999 -1.783 0.16
-4.2919998 4.3790002 -1.776 0.2
-4.2989998 4.3590002 -1.773 0.090000004
-4.329 4.362 -1.781 0.18000001
-4.3249998 4.3309999 -1.773 0.19
-4.342 4.3330002 -1.777 0.090000004
-4.3730001 4.3369999 -1.785 0.17
-4.3730001 4.3099999 -1.779 0.20999999
-4.3860002 4.296 -1.779 0.090000004
-4.4180002 4.3000002 -1.786 0.17
-4.4060001 4.2620001 -1.776 0.050000001
-4.4159999 4.2579999 -1.777 0.17
-4.4289999 4.244 -1.777 0.2
-4.4629998 4.2490001 -1.786 0.16
-4.4530001 4.2129998 -1.776 0.050000001
-4.4790001 4.211 -1.781 0.18000001
-4.4819999 4.1880002 -1.777 0.11
-4.5079999 4.1849999 -1.7819999 0.16
-4.506 4.1700001 -1.779 0.050000001
-4.5180001 4.1550002 -1.778 0.17
-4.5310001 4.1409998 -1.778 0.1
-4.5609999 4.1420002 -1.785 0.18000001
-4.5580001 4.1129999 -1.779 0.20999999
-4.5840001 4.1110001 -1.784 0.17
-4.5749998 4.0770001 -1.775 0.050000001
-4.6009998 4.0739999 -1.781 0.18000001
-4.6020002 4.0619998 -1.778 0.11
-4.6170001 4.0500002 -1.779 0.18000001
-4.6240001 4.0300002 -1.777 0.11
-4.6529999 4.0289998 -1.783 0.18000001
-4.652 4.0040002 -1.778 0.20999999
-4.6789999 4.0009999 -1.784 0.18000001
-4.6729999 3.971 -1.776 0.25
-4.697 3.9779999 -1.783 0.18000001
-4.6960001 3.9519999 -1.778 0.23999999
-4.7220001 3.948 -1.783 0.2
-4.7220001 3.924 -1.779 0.23
-4.7519999 3.924 -1.786 0.18000001
-4.7509999 3.898 -1.781 0.25
-4.7709999 3.8889999 -1.783 0.23
-4.77 3.875 -1.781 0.18000001
-4.7849998 3.8629999 -1.7819999 0.25999999
-4.8039999 3.8540001 -1.785 0.22
-4.8150001 3.8369999 -1.784 0.18000001
-4.8249998 3.8210001 -1.783 0.25999999
-4.849 3.8150001 -1.788 0.23
-4.8540001 3.7939999 -1.785 0.17
-4.8540001 3.7820001 -1.783 0.25999999
-4.8790002 3.777 -1.788 0.19
-4.8790002 3.7520001 -1.783 0.25
-4.8969998 3.7420001 -1.786 0.22
-4.9130001 3.73 -1.788 0.18000001
-4.9190001 3.71 -1.785 0.27000001
-4.9380002 3.7 -1.788 0.22
-4.941 3.6900001 -1.7869999 0.17
-4.9450002 3.6689999 -1.784 0.27000001
-4.961 3.6570001 -1.786 0.23
-4.9860001 3.651 -1.791 0.18000001
-4.9840002 3.625 -1.786 0.25999999
-5 3.6129999 -1.788 0.23
-5.02 3.6040001 -1.791 0.2
-5.0120001 3.586 -1.786 0.25
-5.0359998 3.579 -1.791 0.23
-5.0469999 3.563 -1.791 0.18000001
-5.0419998 3.536 -1.785 0.25999999
-5.0609999 3.526 -1.788 0.18000001
-5.0760002 3.5120001 -1.789 0.23999999
-5.0830002 3.5050001 -1.789 0.19
-5.079 3.48 -1.784 0.25
-5.1059999 3.474 -1.79 0.2
-5.1110001 3.454 -1.788 0.25
-5.1360002 3.448 -1.793 0.20999999
-5.1350002 3.424 -1.789 0.12
-5.1430001 3.4059999 -1.788 0.19
-5.1479998 3.398 -1.788 0.16
-5.1700001 3.3889999 -1.7920001 0.25999999
-5.1760001 3.369 -1.79 0.19
-5.1789999 3.348 -1.7869999 0.25
-5.2160001 3.349 -1.7970001 0.18000001
-5.1989999 3.3150001 -1.7869999 0.25
-5.2280002 3.3099999 -1.794 0.2
-5.23 3.3 -1.7920001 0.20999999
-5.237 3.2820001 -1.791 0.18000001
-5.237 3.2590001 -1.788 0.23999999
-5.2639999 3.253 -1.794 0.18000001
-5.2610002 3.2279999 -1.789 0.25
-5.289 3.2219999 -1.795 0.19
-5.2909999 3.201 -1.7920001 0.12
-5.296 3.1930001 -1.7920001 0.2
-5.3010001 3.1730001 -1.791 0.11
-5.3319998 3.1689999 -1.798 0.2
-5.3239999 3.141 -1.7920001 0.11
-5.342 3.1300001 -1.795 0.18000001
-5.3639998 3.119 -1.799 0.11
-5.3670001 3.099 -1.796 0.2
-5.3600001 3.0840001 -1.7920001 0.11
-5.3909998 3.079 -1.8 0.18000001
-5.381 3.0510001 -1.793 0.11
-5.4089999 3.0439999 -1.799 0.17
-5.4070001 3.0209999 -1.795 0.12
-5.421 3.006 -1.7970001 0.18000001
-5.4239998 2.9860001 -1.795 0.2
-5.4439998 2.9849999 -1.8 0.1
-5.4450002 2.964 -1.7970001 0.18000001
-5.4510002 2.9449999 -1.796 0.11
-5.4879999 2.9430001 -1.806 0.17
-5.467 2.9100001 -1.795 0.20999999
-5.4780002 2.8929999 -1.796 0.1
-5.507 2.8870001 -1.803 0.18000001
-5.5 2.872 -1.799 0.11
-5.5190001 2.8599999 -1.802 0.19
-5.5320001 2.8440001 -1.804 0.11
-5.539 2.826 -1.803 0.17
-5.5409999 2.8050001 -1.801 0.20999999
-5.5619998 2.7939999 -1.8049999 0.1
-5.5669999 2.7750001 -1.804 0.18000001
-5.559 2.76 -1.799 0.1
-5.5949998 2.756 -1.809 0.17
-5.5770001 2.7249999 -1.799 0.22
-5.6059999 2.717 -1.807 0.2
-5.6110001 2.698 -1.8049999 0.23
-5.619 2.6800001 -1.8049999 0.18000001
-5.6170001 2.658 -1.802 0.23999999
-5.6399999 2.658 -1.808 0.17
-5.6370001 2.635 -1.804 0.23999999
-5.6550002 2.622 -1.808 0.18000001
-5.6550002 2.5999999 -1.8049999 0.25
-5.6680002 2.5840001 -1.807 0.19
-5.6830001 2.5699999 -1.809 0.25
-5.6950002 2.553 -1.8099999 0.22
-5.7080002 2.5480001 -1.813 0.2
-5.7090001 2.527 -1.811 0.23
-5.7319999 2.516 -1.816 0.18000001
-5.7259998 2.4920001 -1.811 0.23999999
-5.743 2.4779999 -1.814 0.18000001
-5.7329998 2.4519999 -1.808 0.23999999
-5.7509999 2.4389999 -1.812 0.18000001
-5.737 2.4219999 -1.806 0.23999999
-5.7639999 2.4119999 -1.812 0.18000001
-5.7519999 2.3859999 -1.806 0.23999999
-5.7649999 2.3699999 -1.808 0.18000001
-5.7649999 2.349 -1.8049999 0.23999999
-5.7779999 2.3329999 -1.807 0.2
-5.7639999 2.3169999 -1.801 0.12
-5.7750001 2.3010001 -1.802 0.2
-5.7680001 2.277 -1.798 0.11
-5.7820001 2.2609999 -1.8 0.18000001
-5.7930002 2.2449999 -1.801 0.1
-5.789 2.2219999 -1.798 0
-5.7849998 2.2 -1.794 0
-5.7849998 2.1900001 -1.793 0
-5.7880001 2.1700001 -1.7920001 0
-6.0009999 1.5140001 -1.794 0
-6.0469999 1.506 -1.807 0.02
-6.0609999 1.489 -1.8099999 0.12
-6.0599999 1.478 -1.809 0.22
-6.073 1.461 -1.812 0.18000001
-6.0630002 1.439 -1.807 0.23999999
-6.0970001 1.427 -1.817 0.2
-6.0780001 1.402 -1.809 0.22
-6.099 1.387 -1.814 0.19
-6.099 1.377 -1.814 0.22
-6.105 1.358 -1.814 0.17
-6.1020002 1.337 -1.812 0.23999999
-6.1300001 1.323 -1.8200001 0.16
-6.1009998 1.2970001 -1.809 0.050000001
-6.1220002 1.281 -1.814 0.17
-6.1329999 1.263 -1.817 0.11
-6.1300001 1.253 -1.8150001 0.19
-6.132 1.233 -1.814 0.11
-6.1360002 1.214 -1.814 0.2
-6.1360002 1.194 -1.813 0.11
-6.1490002 1.176 -1.816 0.18000001
-6.1599998 1.158 -1.818 0.2
-6.1469998 1.136 -1.813 0.1
-6.158 1.128 -1.816 0.19
-6.1729999 1.1109999 -1.8200001 0.11
-6.1609998 1.089 -1.8150001 0.18000001
-6.1570001 1.068 -1.812 0.050000001
-6.1729999 1.051 -1.817 0.16
-6.1669998 1.03 -1.814 0.050000001
-6.1719999 1.011 -1.814 0.17
-6.1869998 1.003 -1.818 0.050000001
-6.1830001 0.98299998 -1.816 0.15000001
-6.1799998 0.96200001 -1.814 0.050000001
-6.223 0.949 -1.827 0.14
-6.1919999 0.92400002 -1.816 0.050000001
-6.2129998 0.90700001 -1.822 0.17
-6.2090001 0.88700002 -1.8200001 0.19
-6.204 0.87599999 -1.818 0.1
-6.2199998 0.85900003 -1.822 0.18000001
-6.2189999 0.83899999 -1.821 0.19
-6.21 0.81800002 -1.817 0.1
-6.2410002 0.80199999 -1.826 0.16
-6.2270002 0.77999997 -1.821 0.050000001
-6.2270002 0.75999999 -1.8200001 0.17
-6.2249999 0.75 -1.819 0.11
-6.256 0.73400003 -1.8279999 0.18000001
-6.2309999 0.71100003 -1.8200001 0.2
-6.2540002 0.69400001 -1.826 0.16
-6.2449999 0.67299998 -1.822 0.23
-6.257 0.65399998 -1.825 0.2
-6.2360001 0.63200003 -1.818 0.22
-6.2600002 0.625 -1.825 0.17
-6.243 0.60299999 -1.8200001 0.23
-6.2540002 0.58399999 -1.822 0.18000001
-6.2610002 0.565 -1.824 0.23999999
-6.2589998 0.54500002 -1.823 0.18000001
-6.257 0.52499998 -1.822 0.25
-6.289 0.50800002 -1.831 0.2
-6.2519999 0.495 -1.8200001 0.12
-6.2649999 0.47600001 -1.823 0.20999999
-6.276 0.45699999 -1.826 0.19
-6.2659998 0.43700001 -1.822 0.25999999
-6.283 0.41800001 -1.827 0.20999999
-6.276 0.398 -1.825 0.12
-6.2789998 0.37799999 -1.825 0.20999999
-6.2740002 0.368 -1.824 0.17
-6.2849998 0.34900001 -1.827 0.25999999
-6.2820001 0.329 -1.825 0.23
-6.277 0.30899999 -1.824 0.17
-6.2989998 0.28999999 -1.83 0.27000001
-6.2810001 0.27000001 -1.824 0.18000001
-6.2859998 0.25 -1.825 0.25
-6.2940001 0.23999999 -1.8279999 0.23
-6.2909999 0.221 -1.827 0.18000001
-6.2859998 0.20100001 -1.825 0.25999999
-6.3049998 0.18099999 -1.831 0.23
-6.2909999 0.161 -1.826 0.17
-6.2849998 0.141 -1.824 0.25999999
-6.2930002 0.122 -1.827 0.22
-6.3070002 0.112 -1.831 0.2
-6.29 0.092 -1.825 0.23999999
-6.3130002 0.071999997 -1.8329999 0.18000001
-6.2909999 0.052999999 -1.825 0.25
-6.302 0.033 -1.829 0.18000001
-6.2979999 0.013 -1.8279999 0.23999999
-6.3099999 0.003 -1.831 0.17
-6.3000002 -0.017000001 -1.8279999 0.23999999
-6.3119998 -0.037 -1.832 0.16
-6.296 -0.056000002 -1.827 0.25999999
-6.3150001 -0.075999998 -1.8329999 0.2
-6.309 -0.096000001 -1.831 0.12
-6.3150001 -0.116 -1.8329999 0.18000001
-6.3010001 -0.126 -1.829 0.12
-6.322 -0.146 -1.835 0.2
-6.3039999 -0.16500001 -1.83 0.11
