# .PCD v0.7 - Point Cloud Data file format
VERSION 0.7
FIELDS x y z intensity
SIZE 4 4 4 4
TYPE F F F F
COUNT 1 1 1 1
WIDTH 1420
HEIGHT 1
VIEWPOINT 0 0 0 1 0 0 0
POINTS 1420
DATA ascii
15.306 29.742001 -0.26300001 0.20999999
15.22 29.804001 -0.264 0.34
15.094 29.789 -0.26300001 0.25999999
14.964 29.763 -0.26100001 0.38999999
14.861 29.792 -0.26100001 0.31999999
14.663 29.627001 -0.25799999 0.31999999
14.554 29.641001 -0.257 0.20999999
14.355 29.351 -0.252 0.38
14.342 29.559 -0.255 0.28
14.364 29.844 -0.259 0.34
14.221 29.785999 -0.257 0.28
13.908 29.365999 -0.25 0.20999999
13.714 29.191999 -0.24699999 0.36000001
13.709 29.422001 -0.249 0.28999999
13.743 29.615999 -0.252 0.27000001
13.767 29.915001 -0.25600001 0.34
13.608 29.816 -0.25400001 0.34999999
13.432 29.674999 -0.25099999 0.25999999
13.302 29.636999 -0.25 0.28
13.162 29.572001 -0.248 0.28
13.022 29.504999 -0.24699999 0.23999999
12.954 29.478001 -0.24600001 0.31999999
12.829 29.444 -0.245 0.27000001
12.782 29.587999 -0.24600001 0.13
12.56 29.329 -0.242 0.50999999
12.545 29.549999 -0.244 0.22
12.397 29.457001 -0.242 0.25
12.258 29.385 -0.241 0.33000001
12.215 29.412001 -0.241 0.23999999
9.1700001 22.259001 -0.132 0.15000001
9.1090002 22.312 -0.132 0.31999999
9.0190001 22.290001 -0.132 0.44
8.9359999 22.287001 -0.131 0.41999999
8.8629999 22.306 -0.131 0.38
8.776 22.291 -0.13 0.5
8.7320004 22.282 -0.13 0.36000001
8.6520004 22.283001 -0.13 0.47999999
8.573 22.288 -0.12899999 0.38
8.4860001 22.27 -0.12899999 0.5
8.415 22.295 -0.12800001 0.38
8.3280001 22.274 -0.12800001 0.50999999
8.25 22.280001 -0.127 0.38999999
8.2030001 22.261 -0.127 0.51999998
8.1210003 22.252001 -0.126 0.38999999
8.0380001 22.242001 -0.126 0.5
7.967 22.263 -0.126 0.38999999
7.882 22.247 -0.125 0.41
7.8060002 22.253 -0.125 0.41
7.7670002 22.253 -0.125 0.41
7.6849999 22.243999 -0.124 0.41
7.6090002 22.249001 -0.124 0.41
7.5289998 22.242001 -0.124 0.52999997
7.448 22.233999 -0.123 0.38
7.3629999 22.211 -0.122 0.60000002
7.296 22.242001 -0.123 0.25
7.2449999 22.205999 -0.122 0.51999998
7.1680002 22.205999 -0.122 0.34
7.0939999 22.212999 -0.121 0.43000001
7.0149999 22.208 -0.121 0.40000001
6.9369998 22.202 -0.12 0.44
6.8629999 22.212 -0.12 0.40000001
6.7880001 22.214001 -0.12 0.31999999
6.744 22.194 -0.12 0.58999997
6.6700001 22.202 -0.119 0.41
6.6459999 22.378 -0.122 0.47
6.632 22.593 -0.124 0.33000001
6.6209998 22.819 -0.127 0.28
6.6110001 23.055 -0.131 0.25
6.5689998 23.184999 -0.132 0.55000001
9.1709995 32.800999 -0.27200001 0.17
9.1610003 32.966 -0.27399999 0.31999999
9.1199999 33.222 -0.27700001 0.31
9.0760002 33.473999 -0.28099999 0.28
9.052 33.806 -0.285 0.25
9.0059996 34.062 -0.28799999 0.23
7.5669999 28.974001 -0.214 0.20999999
7.5170002 28.968 -0.214 0.38
7.4239998 28.983999 -0.214 0.36000001
7.323 28.969999 -0.213 0.47999999
7.224 28.959999 -0.213 0.31999999
7.1279998 28.962999 -0.213 0.34
7.0279999 28.948 -0.212 0.38999999
6.934 28.957001 -0.212 0.34999999
6.8839998 28.945999 -0.212 0.31999999
6.7880001 28.945999 -0.211 0.34999999
6.691 28.941999 -0.211 0.43000001
6.5960002 28.947001 -0.211 0.23999999
6.5040002 28.962 -0.211 0.54000002
6.454 29.166 -0.213 0.18000001
6.533 29.974001 -0.22400001 0
6.5380001 30.228001 -0.228 0.12
6.5650001 30.82 -0.236 0.23
6.473 30.865999 -0.237 0.31
6.368 30.844999 -0.236 0.28999999
6.323 31.121 -0.23999999 0
6.2280002 31.157 -0.23999999 0
6.23 31.687 -0.24699999 0
7.3829999 37.894001 -0.336 0
7.2659998 37.924999 -0.336 0
7.1440001 37.931999 -0.336 0
7.0240002 37.953999 -0.336 0
6.908 37.993999 -0.336 0
6.79 38.022999 -0.336 0
6.6739998 38.060001 -0.336 0
6.6040001 38.014999 -0.33500001 0
6.4970002 38.106998 -0.336 0
6.382 38.153999 -0.33700001 0
6.2709999 38.23 -0.33700001 0.12
5.335 33.154999 -0.26499999 0.1
6.0320001 38.278 -0.338 0.2
5.0970001 32.992001 -0.26199999 0
5.848 38.284 -0.33700001 0.07
5.7350001 38.352001 -0.338 0
5.6129999 38.360001 -0.338 0
5.4970002 38.407001 -0.338 0.1
4 28.537001 -0.198 0.25
3.9030001 28.497 -0.198 0.28999999
3.8559999 28.49 -0.197 0.31999999
3.7679999 28.511999 -0.198 0.23
3.6900001 28.613001 -0.199 0.43000001
4.1279998 32.848999 -0.259 0.15000001
4.0209999 32.830002 -0.25799999 0.30000001
3.928 32.928001 -0.259 0.2
3.7609999 32.395 -0.252 0.16
3.7130001 32.424999 -0.252 0.44999999
3.619 32.507999 -0.25299999 0.25
3.5020001 32.375999 -0.25099999 0.20999999
3.4070001 32.452999 -0.252 0.28999999
3.2950001 32.369999 -0.25099999 0.27000001
3.2409999 32.868 -0.257 0.34999999
3.138 32.882 -0.257 0.23
3.563 38 -0.329 0.25999999
3.4460001 38.047001 -0.33000001 0.2
3.3199999 37.981998 -0.329 0.17
3.2030001 38.02 -0.329 0.40000001
3.0910001 38.123001 -0.331 0.18000001
2.9719999 38.134998 -0.331 0.36000001
2.862 38.273998 -0.33199999 0.18000001
2.796 38.195999 -0.331 0.36000001
2.6789999 38.252998 -0.33199999 0.18000001
2.5599999 38.278999 -0.33199999 0.37
2.4460001 38.389 -0.33399999 0.23
2.3269999 38.419998 -0.33399999 0.2
2.2090001 38.479 -0.33500001 0.38
2.1040001 38.789001 -0.33899999 0.20999999
2.053 38.973999 -0.34200001 0.13
1.938 39.139999 -0.34400001 0.16
1.827 39.400002 -0.347 0
1.706 39.476002 -0.34799999 0
1.584 39.521 -0.34900001 0
1.4579999 39.48 -0.34799999 0
1.334 39.486 -0.34799999 0
1.27 39.438 -0.34799999 0
1.146 39.425999 -0.347 0
1.022 39.415001 -0.347 0
0.898 39.448002 -0.34799999 0
0.77499998 39.465 -0.34799999 0
0.65100002 39.491001 -0.34799999 0
0.528 39.530998 -0.34900001 0
0.46599999 39.568001 -0.34900001 0
0.34200001 39.618999 -0.34999999 0
0.21799999 39.678001 -0.35100001 0
0.093000002 39.849998 -0.35299999 0.12
-0.032000002 39.832001 -0.35299999 0
-0.15700001 39.905998 -0.354 0.059999999
-0.27399999 38.737999 -0.33700001 0.15000001
-0.27900001 32.824001 -0.255 0.22
-0.38 32.584999 -0.25099999 0.33000001
-0.48100001 32.537998 -0.25099999 0.23999999
-0.583 32.52 -0.25 0.34999999
-0.685 32.521999 -0.25 0.20999999
-0.713 29.542999 -0.20900001 0.14
-0.801 29.382 -0.206 0.28
-0.84399998 29.264999 -0.205 0.41
-0.93400002 29.198999 -0.204 0.31999999
-1.023 29.129 -0.20299999 0.43000001
-1.114 29.096001 -0.20299999 0.36000001
-1.2029999 29.055 -0.20200001 0.46000001
-1.295 29.066999 -0.20200001 0.28999999
-1.385 29.028 -0.20200001 0.52999997
-1.432 29.046 -0.20200001 0.41
-1.523 29.046 -0.20200001 0.31999999
-1.617 29.079 -0.20299999 0.40000001
-1.711 29.121 -0.20299999 0.33000001
-1.806 29.177999 -0.204 0.49000001
-1.902 29.238001 -0.205 0.2
-1.997 29.281 -0.206 0.36000001
-2.256 32.282001 -0.248 0.14
-2.339 32.035999 -0.245 0.34
-2.4449999 32.091999 -0.24600001 0.19
-2.5369999 31.973 -0.244 0.17
-2.6960001 32.672001 -0.25400001 0.14
-2.77 32.334999 -0.249 0.2
-2.8080001 32.176998 -0.24699999 0.27000001
-2.885 31.905001 -0.244 0.25999999
-2.9679999 31.721001 -0.241 0.28999999
-3.053 31.558001 -0.23899999 0.23999999
-3.1240001 31.271999 -0.235 0.31
-3.1900001 30.947001 -0.23100001 0.27000001
-3.257 30.657 -0.227 0.30000001
-3.256 30.198 -0.22 0.31
-3.323 29.941 -0.21699999 0.31999999
-3.404 29.812 -0.215 0.28999999
-3.4909999 29.745001 -0.214 0.28999999
-3.563 29.556999 -0.212 0.33000001
-3.6440001 29.452999 -0.20999999 0.18000001
-3.73 29.393999 -0.20999999 0.50999999
-3.8469999 29.566 -0.212 0.23
-3.8800001 29.459 -0.211 0.25
-3.964 29.382999 -0.20999999 0.27000001
-4.039 29.246 -0.208 0.30000001
-4.1269999 29.209 -0.208 0.34
-4.2189999 29.194 -0.208 0.34999999
-4.3200002 29.247999 -0.20900001 0.33000001
-4.3639998 29.225 -0.20900001 0.31
-4.4710002 29.312 -0.20999999 0.27000001
-4.5560002 29.253 -0.20900001 0.23999999
-4.6350002 29.157 -0.208 0.23
-4.7360001 29.202 -0.20900001 0.49000001
-4.8520002 29.330999 -0.211 0.23
-4.9439998 29.313 -0.211 0.25
-5.0450001 29.629 -0.21600001 0.20999999
-5.0809999 29.288 -0.211 0.2
-5.1479998 29.128 -0.20900001 0.34
-5.2480001 29.157 -0.20999999 0.30000001
-5.3509998 29.202999 -0.211 0.28999999
-5.4619999 29.290001 -0.212 0.31999999
-5.5640001 29.323999 -0.213 0.25
-5.5900002 29.212999 -0.211 0.31
-5.6820002 29.194 -0.211 0.31
-5.777 29.195 -0.212 0.27000001
-5.8530002 29.099001 -0.211 0.28999999
-5.948 29.1 -0.211 0.34
-6.039 29.077 -0.211 0.30000001
-6.1350002 29.079 -0.211 0.36000001
-6.2309999 29.083 -0.211 0.31
-6.2839999 29.107 -0.212 0.33000001
-6.3730001 29.077 -0.212 0.34
-6.4590001 29.034 -0.211 0.28
-6.5630002 29.07 -0.212 0.38
-6.6620002 29.08 -0.213 0.30000001
-6.7690001 29.125 -0.214 0.34
-6.816 29.122 -0.214 0.28
-6.9109998 29.114 -0.214 0.38
-7.026 29.190001 -0.215 0.31
-7.1339998 29.235001 -0.21600001 0.23
-7.2020001 29.118 -0.215 0.34
-7.3070002 29.149 -0.21600001 0.28999999
-7.3940001 29.107 -0.215 0.31
-7.447 29.124001 -0.21600001 0.33000001
-7.5440001 29.122 -0.21600001 0.33000001
-7.6490002 29.148001 -0.21699999 0.34
-7.7719998 29.242001 -0.219 0.34
-7.9229999 29.436001 -0.222 0.31999999
-8.0780001 29.639999 -0.22499999 0.23999999
-8.1680002 29.603001 -0.22499999 0.20999999
-8.2320004 29.653999 -0.226 0.50999999
-6.2750001 22.356001 -0.12 0.25999999
-8.5319996 30 -0.23199999 0.19
-8.6470003 30.048 -0.233 0.20999999
-8.724 29.961 -0.23199999 0.31999999
-8.974 30.112 -0.235 0
-9.9540005 33.201 -0.28 0.1
-9.1459999 30.167 -0.236 0
-9.2519999 30.174999 -0.237 0
-19.513 62.841999 -0.71700001 0
-10.503 33.127998 -0.28200001 0.18000001
-10.592 33.050999 -0.28099999 0.31
-10.668 33.106998 -0.28200001 0
-19.733 60.515999 -0.68699998 0
-11.081 33.307999 -0.287 0.14
-11.146 33.158001 -0.285 0.28
-2.9809999 8.7449999 0.075999998 0.31
-2.9860001 8.7159996 0.075999998 0.28999999
-3.0050001 8.6820002 0.077 0.46000001
-3.0350001 8.6800003 0.077 0.37
-3.0569999 8.6560001 0.077 0.5
-3.086 8.6520004 0.077 0.38
-3.112 8.6379995 0.077 0.47999999
-3.1440001 8.6429996 0.077 0.37
-3.161 8.6459999 0.077 0.5
-3.2809999 8.8870001 0.072999999 0.57999998
-3.2320001 8.6709995 0.075999998 0
-20.493999 54.070999 -0.60500002 0
-12.438 32.234001 -0.27900001 0.14
-11.793 30.284 -0.25 0.23
-11.913 30.450001 -0.25299999 0.12
-10.716 26.898001 -0.2 0.74000001
-10.75 26.74 -0.198 0
-12.825 31.319 -0.26899999 0
-12.863 31.132 -0.26699999 0
-12.912 31.112 -0.26699999 0
-20.261999 45.716 -0.495 0.17
-20.358 45.547001 -0.49399999 0.16
-20.462 45.396999 -0.49200001 0
-24.5 53.890999 -0.62400001 0
-24.634001 53.737 -0.62300003 0
-24.743999 53.532001 -0.62099999 0
-24.912001 53.673 -0.62400001 0
-20.150999 42.723999 -0.45699999 0.11
-20.202 42.485001 -0.454 0.16
-20.223 42.187 -0.44999999 0.30000001
-20.218 41.839001 -0.44600001 0.27000001
-14.113 28.992001 -0.24600001 0.2
-20.141001 41.185001 -0.43700001 0.16
-20.124001 40.825001 -0.43200001 0.090000004
-20.17 40.597 -0.43000001 0.11
-20.025 39.990002 -0.421 0.23999999
-20.114 39.854 -0.41999999 0.16
-20.292 39.894001 -0.42199999 0.090000004
-20.075001 39.165001 -0.41100001 0.15000001
-19.981001 38.831001 -0.40700001 0.20999999
-20.021999 38.612 -0.40400001 0.18000001
-20.040001 38.352001 -0.40099999 0.16
-20.158001 38.283001 -0.40099999 0.33000001
-20.271 38.208 -0.40099999 0.11
-20.363001 38.091 -0.40000001 0.16
-20.525 38.105999 -0.40099999 0.2
-20.627001 38.151001 -0.40200001 0.15000001
-20.775 38.139 -0.403 0.090000004
-20.903999 38.089001 -0.403 0.16
-21.028 38.032001 -0.40400001 0.2
-21.188999 38.039001 -0.405 0
-21.695 38.660999 -0.41600001 0.090000004
-21.518 38.064999 -0.40700001 0.17
-21.610001 38.089001 -0.40799999 0.23
-21.773001 38.097 -0.41 0.2
-19.732 34.278999 -0.34900001 0.28999999
-22.280001 38.421001 -0.417 0.2
-22.32 38.213001 -0.41499999 0.16
-22.368999 38.021999 -0.41299999 0.23
-22.572001 38.091999 -0.41499999 0.14
-22.643 38.076 -0.41499999 0.14
-22.871 38.185001 -0.41800001 0
-23 38.127998 -0.419 0
-23.299999 38.353001 -0.42399999 0
-23.525 38.450001 -0.426 0.16
-23.542999 38.209 -0.42399999 0.23999999
-23.667 38.141998 -0.42399999 0.2
-23.754999 38.148998 -0.42399999 0.13
-23.915001 38.138 -0.42500001 0.13
-24.062 38.106998 -0.426 0.31999999
-24.254 38.144001 -0.428 0.2
-24.405001 38.116001 -0.42899999 0.31
-24.544001 38.07 -0.42899999 0.19
-24.729 38.092999 -0.43099999 0.13
-24.853001 38.153 -0.433 0.16
-25.011 38.132999 -0.43399999 0.22
-25.229 38.202999 -0.43599999 0.17
-25.405001 38.208 -0.43799999 0.34
-25.639999 38.299999 -0.44100001 0.27000001
-25.862 38.369999 -0.44299999 0.27000001
-25.914 38.317001 -0.44299999 0.18000001
-26.08 38.301998 -0.44400001 0.17
-26.271 38.324001 -0.44600001 0.13
-26.532 38.445 -0.449 0
-26.718 38.455002 -0.45100001 0
-21.247 30.385 -0.31400001 0.15000001
-27.040001 38.401001 -0.45300001 0.27000001
-27.183001 38.476002 -0.45500001 0.12
-27.652 38.879002 -0.463 0
-30.177999 42.145 -0.52100003 0
-33.103001 45.921001 -0.588 0
-33.099998 45.615002 -0.58399999 0
-33.208 45.462002 -0.58399999 0
-33.446999 45.487999 -0.58600003 0.07
-29.385 39.838001 -0.48800001 0.2
-25.385 34.195999 -0.391 0.23999999
-25.492001 34.116001 -0.391 0.28999999
-25.631001 34.077 -0.39199999 0
-26.02 34.368999 -0.39899999 0
-25.792 33.627998 -0.389 0.15000001
-25.857 33.493999 -0.38800001 0.23999999
-25.861 33.390999 -0.38600001 0.18000001
-25.952 33.292 -0.38600001 0.49000001
-26.076 33.235001 -0.38699999 0.25
-26.264999 33.259998 -0.389 0
-33.269001 41.848 -0.54400003 0
-33.250999 41.556 -0.54000002 0
-33.287998 41.335999 -0.53799999 0
-21.284 26.358999 -0.26899999 0.12
-31.785 39.091999 -0.50099999 0.090000004
-31.912001 38.999001 -0.50099999 0.079999998
-32.284 39.200001 -0.50599998 0
-32.356998 39.039001 -0.505 0
-32.68 39.175999 -0.50999999 0.11
-32.698002 39.073002 -0.509 0
-33.050999 39.243999 -0.514 0
-33.064999 39.012001 -0.51099998 0.07
-33.316002 39.057999 -0.514 0.16
-33.328999 38.826 -0.51200002 0.16
-33.347 38.599998 -0.509 0.16
-33.362999 38.374001 -0.50700003 0.16
-33.311001 38.194 -0.505 0
-33.339001 37.984001 -0.50300002 0
-33.452 37.873001 -0.50300002 0
-33.514999 37.705002 -0.50199997 0.07
-33.492001 37.441002 -0.49900001 0.16
-33.394001 37.097 -0.49399999 0.25999999
-33.414001 36.884998 -0.49200001 0.25999999
-33.372002 36.723 -0.49000001 0.25999999
-33.382 36.502998 -0.48800001 0.27000001
-33.389 36.282001 -0.486 0.11
-33.403 36.068001 -0.484 0.16
-33.424 35.865002 -0.48199999 0.12
-33.441002 35.658001 -0.47999999 0.16
-33.450001 35.444 -0.47799999 0.11
-33.416 35.297001 -0.47600001 0.16
-33.425999 35.085999 -0.47400001 0.12
-33.443001 34.883999 -0.472 0.16
-33.460999 34.683998 -0.47 0.28
-33.467999 34.473999 -0.46799999 0.19
-33.48 34.27 -0.46599999 0.18000001
-33.377998 33.952 -0.46200001 0.090000004
-33.452999 33.921001 -0.46200001 0.16
-33.476002 33.731998 -0.461 0.12
-33.616001 33.660999 -0.461 0.17
-33.827999 33.660999 -0.463 0.12
-34.043999 33.664001 -0.46599999 0.17
-34.257999 33.662998 -0.46799999 0.12
-34.470001 33.659 -0.47 0.16
-34.637001 33.716 -0.472 0.12
-34.858002 33.717999 -0.47400001 0.16
-35.064999 33.706001 -0.47600001 0.12
-35.283001 33.702999 -0.47799999 0.16
-35.526001 33.721001 -0.48100001 0.28
-35.754002 33.724998 -0.48300001 0.27000001
-35.962002 33.708 -0.48500001 0.27000001
-36.146999 33.775002 -0.48800001 0.27000001
-36.365002 33.764999 -0.49000001 0.25
-36.594002 33.764999 -0.49200001 0.11
-36.839001 33.776001 -0.495 0.16
-26.715 24.35 -0.301 0.23
-26.698 24.181 -0.29899999 0.25999999
-26.709999 24.040001 -0.29800001 0.28
-26.697001 23.952 -0.29699999 0.36000001
-26.728001 23.83 -0.296 0.34
-26.903999 23.834 -0.29800001 0.23
-27.103001 23.858999 -0.301 0.33000001
-33.243999 29.073 -0.414 0.2
-33.449001 29.066999 -0.41600001 0.25
-33.685001 29.087 -0.41800001 0.11
-33.549 28.878 -0.41499999 0.15000001
-33.650002 28.781 -0.41499999 0.16
-33.814999 28.739 -0.417 0.33000001
-34.091999 28.790001 -0.41999999 0.2
-34.257 28.746 -0.421 0.18000001
-34.527 28.788 -0.42500001 0
-34.744999 28.785 -0.42699999 0
-35.219002 29.084 -0.435 0.13
-35.112999 28.811001 -0.43099999 0.28
-35.266998 28.752001 -0.43200001 0.2
-35.550999 28.798 -0.43599999 0.15000001
-35.910999 28.903 -0.44100001 0.31
-36.122002 28.886999 -0.44299999 0.11
-36.646 29.211 -0.45100001 0.14
-36.682999 29.052 -0.44999999 0.17
-37.078999 29.177 -0.456 0
-37.219002 29.098 -0.45699999 0
-37.464001 29.1 -0.45899999 0.11
-37.382 28.849001 -0.456 0
-37.860001 29.028 -0.463 0.07
-37.966 29.014999 -0.46399999 0
-38.709 29.389999 -0.47600001 0.12
-38.873001 29.322001 -0.477 0.1
-38.787998 29.068001 -0.47400001 0.16
-38.936001 28.988001 -0.47499999 0.1
-39.081001 28.906 -0.47600001 0
-39.856998 29.285999 -0.48800001 0
-39.932999 29.148001 -0.48699999 0
-42.949001 31.243999 -0.53899997 0
-40.490002 29.263 -0.495 0
-40.858002 29.334 -0.5 0
-40.709999 29.035 -0.495 0
-40.964001 29.021999 -0.498 0
-41.201 28.996 -0.50099999 0
-41.661999 29.223 -0.50800002 0
-41.894001 29.188999 -0.50999999 0
-42.058998 29.108 -0.51099998 0.12
-43.199001 29.695999 -0.52899998 0
-45.118999 30.806 -0.56 0
-45.125999 30.604 -0.55900002 0
-60.452999 40.710999 -0.81599998 0
-44.617001 29.952999 -0.54799998 0
-44.636002 29.763 -0.546 0
-45.703999 30.267 -0.56300002 0
-44.171001 29.052999 -0.53600001 0
-44.502998 29.072001 -0.54000002 0
-60.453999 39.210999 -0.80500001 0
-60.556999 39.007999 -0.80400002 0
-60.768002 39.008999 -0.80699998 0
-47.006001 29.973 -0.57599998 0
-47.351002 29.985001 -0.57999998 0.059999999
-47.472 29.853001 -0.58099997 0.079999998
-47.159 29.450001 -0.574 0
-46.972 29.129 -0.56900001 0
-47.220001 29.077 -0.57200003 0
-48.84 29.968 -0.59799999 0
-48.505001 29.552999 -0.59100002 0
-48.675999 29.448 -0.59200001 0
-48.408001 29.079 -0.58600003 0
-48.901001 29.166 -0.59299999 0
-48.624001 28.795 -0.58700001 0
-48.59 28.672001 -0.58499998 0
-48.810001 28.594 -0.58700001 0.07
-49.992001 29.076 -0.60500002 0.090000004
-50.158001 28.962 -0.60600001 0.079999998
-50.598999 29.004999 -0.61199999 0
-17.728001 10.034 -0.079999998 0.14
-17.688 9.9750004 -0.079000004 0.28999999
-17.687 9.9020004 -0.079000004 0.38
-17.698999 9.835 -0.078000002 0.41
-17.739 9.7840004 -0.078000002 0.38
-17.761999 9.7250004 -0.078000002 0.61000001
-18.065001 9.8170004 -0.082999997 0
-55.292 29.76 -0.67500001 0
-55.478001 29.747999 -0.67699999 0
-55.563 29.344999 -0.67500001 0
-55.782001 29.238001 -0.67699999 0
-56.348999 29.309 -0.685 0
-57.701 29.782 -0.70499998 0
-57.928001 29.669001 -0.70700002 0
-57.936001 29.558001 -0.70599997 0
-58.080002 29.402 -0.70700002 0
-58.571999 29.42 -0.713 0
-58.905998 29.356001 -0.71700001 0
-59.491001 29.415001 -0.72500002 0
-59.567001 29.219999 -0.72500002 0
-59.875999 29.138 -0.72799999 0
-60.471001 29.309999 -0.736 0
-60.848 29.257 -0.741 0
-61.401001 29.285 -0.74800003 0
-61.723999 29.202 -0.75199997 0
-62.249001 29.211 -0.75800002 0
-62.515999 29.097 -0.76099998 0
-63.074001 29.115 -0.76800001 0
-63.536999 29.208 -0.77499998 0
-64.053001 29.202 -0.78100002 0
-64.926003 29.353001 -0.79299998 0
-65.643997 29.43 -0.80299997 0
-66.012001 29.346001 -0.80699998 0
-66.591003 29.353001 -0.815 0
-70.343002 30.086 -0.86699998 0
-70.515999 29.898001 -0.86799997 0
-70.544998 29.649 -0.86699998 0
-72.653999 30.267 -0.898 0
-72.290001 29.982 -0.89200002 0
-72.580002 29.834999 -0.89399999 0
-73.208 29.825001 -0.903 0
-73.563004 29.700001 -0.90700001 0
-30.18 11.112 -0.245 0.14
-30.179001 11.004 -0.245 0.34
-30.214001 10.909 -0.245 0.43000001
-30.368999 10.858 -0.24699999 0
-62.644001 9.8549995 -0.68300003 0
-62.592999 9.6459999 -0.68199998 0
-74.532997 10.643 -0.85000002 0
-74.598 10.413 -0.85000002 0
-57.214001 1.7410001 -0.597 0
-56.801998 1.55 -0.59100002 0
-57.057999 1.378 -0.59500003 0
-56.698002 1.191 -0.58899999 0
-56.995998 1.107 -0.59399998 0
-57.061001 0.92900002 -0.59399998 0
-57.068001 0.75 -0.59399998 0
-57.049999 0.57099998 -0.59399998 0
-57.078999 0.39199999 -0.59500003 0
-57.077999 0.212 -0.59500003 0
-57.067001 0.123 -0.59399998 0
-57.076 -0.236 -0.59500003 0
-57.220001 -0.59600002 -0.597 0
-51.345001 -1.985 -0.51499999 0.14
-51.145 -2.138 -0.51200002 0.22
-51.07 -2.296 -0.51099998 0.18000001
-51.009998 -2.454 -0.50999999 0.13
-51.02 -2.615 -0.51099998 0.17
-51.082001 -2.779 -0.51200002 0.12
-51.299999 -2.9530001 -0.51499999 0
-50.133999 -2.964 -0.498 0
-48.43 -3.0150001 -0.47499999 0
-47.881001 -3.132 -0.46700001 0
-45.73 -4.3629999 -0.43799999 0
-43.381001 -5.6560001 -0.40799999 0
-41.02 -5.6100001 -0.375 0
-40.868999 -5.6539998 -0.373 0
-38.452 -5.6880002 -0.33899999 0
-55.888 -8.4589996 -0.58700001 0
-35.938999 -5.7189999 -0.30500001 0
-51.331001 -8.677 -0.52399999 0.11
-33.433998 -5.75 -0.27000001 0
-50.278999 -8.8240004 -0.50999999 0
-50.140999 -8.9619999 -0.50800002 0
-50.167999 -9.0480003 -0.509 0
-30.902 -5.7639999 -0.235 0
-50.588001 -9.7819996 -0.51700002 0
-33.5 -6.6880002 -0.273 0.34
-33.054001 -6.652 -0.26699999 0.23
-28.372999 -5.7989998 -0.2 0.15000001
-27.903999 -5.7940001 -0.19400001 0.44
-32.716 -6.9050002 -0.26300001 0.16
-15.468 -3.302 -0.016000001 0.17
-15.409 -3.3399999 -0.015 0.55000001
-15.108 -3.323 -0.011 0.28
-14.893 -3.3010001 -0.0080000004 0.28999999
-14.674 -3.3 -0.0049999999 0.31
-14.485 -3.3050001 -0.003 0.27000001
-14.295 -3.309 -0 0.28999999
-14.117 -3.3139999 0.0020000001 0.27000001
-13.906 -3.3099999 0.0049999999 0.27000001
-13.732 -3.2909999 0.0080000004 0.28999999
-13.558 -3.2939999 0.0099999998 0.31999999
-13.385 -3.296 0.012 0.34
-13.221 -3.3 0.015 0.30000001
-13.029 -3.2950001 0.017000001 0.20999999
-12.904 -3.306 0.018999999 0.36000001
-12.843 -3.3340001 0.02 0.23999999
-14.803 -3.8710001 -0.0089999996 0.54000002
-12.453 -3.2939999 0.025 0.31999999
-12.309 -3.2969999 0.027000001 0.28
-12.187 -3.3050001 0.028999999 0.31999999
-12.047 -3.3080001 0.029999999 0.31
-11.912 -3.3110001 0.032000002 0.30000001
-11.795 -3.3180001 0.034000002 0.25
-11.62 -3.3080001 0.035999998 0.2
-11.514 -3.2969999 0.037999999 0.47
-11.373 -3.2950001 0.039999999 0.28
-11.246 -3.296 0.041000001 0.27000001
-11.121 -3.2969999 0.043000001 0.33000001
-11.013 -3.303 0.044 0.28999999
-10.887 -3.302 0.046 0.30000001
-10.78 -3.306 0.048 0.31999999
-10.677 -3.293 0.048999999 0.31
-10.558 -3.2920001 0.050999999 0.27000001
-10.446 -3.293 0.052000001 0.28999999
-10.339 -3.2950001 0.052999999 0.31999999
-10.226 -3.2939999 0.055 0.28999999
-10.128 -3.2969999 0.056000002 0.31999999
-10.022 -3.28 0.057999998 0.28999999
-9.9320002 -3.2850001 0.059 0.31
-9.8290005 -3.2850001 0.059999999 0.30000001
-9.7390003 -3.289 0.061000001 0.30000001
-9.6450005 -3.2909999 0.063000001 0.31
-9.573 -3.299 0.064000003 0.31999999
-9.4770002 -3.299 0.064999998 0.31
-9.3850002 -3.2839999 0.066 0.28999999
-9.3070002 -3.289 0.067000002 0.28999999
-9.224 -3.2920001 0.068000004 0.28999999
-9.1379995 -3.293 0.068999998 0.31
-9.052 -3.2950001 0.071000002 0.30000001
-8.9689999 -3.296 0.071999997 0.30000001
-8.8870001 -3.2969999 0.072999999 0.30000001
-8.8050003 -3.283 0.074000001 0.28999999
-8.7390003 -3.289 0.075000003 0.28
-8.6599998 -3.29 0.075999998 0.28
-8.5780001 -3.29 0.077 0.28
-8.5120001 -3.2950001 0.078000002 0.28
-8.4399996 -3.2969999 0.079000004 0.28
-8.3570004 -3.2950001 0.079999998 0.31
-8.2910004 -3.2839999 0.081 0.28999999
-8.2229996 -3.286 0.081 0.25
-8.1479998 -3.286 0.082000002 0.17
-8.0749998 -3.286 0.082999997 0.43000001
-8.0010004 -3.2850001 0.083999999 0.25
-7.9450002 -3.2909999 0.085000001 0.23
-7.8870001 -3.296 0.086000003 0.34999999
-7.8429999 -3.2920001 0.086000003 0.22
-7.7290001 -3.2720001 0.088 0.18000001
-7.6820002 -3.2809999 0.088 0.27000001
-7.6350002 -3.289 0.089000002 0.28999999
-7.5830002 -3.2939999 0.090000004 0.2
-7.539 -3.3039999 0.090000004 0.47
-7.4829998 -3.3069999 0.090999998 0.2
-7.4120002 -3.289 0.092 0.13
-7.3330002 -3.2809999 0.093000002 0.18000001
-7.2750001 -3.283 0.093999997 0.28999999
-7.1989999 -3.276 0.094999999 0.2
-7.1290002 -3.27 0.096000001 0.18000001
-7.1030002 -3.2850001 0.096000001 0.44999999
-7.0510001 -3.2880001 0.097000003 0.23
-7 -3.2780001 0.097000003 0.17
-6.9629998 -3.2869999 0.097999997 0.43000001
-6.9089999 -3.2880001 0.097999997 0.25
-6.8649998 -3.293 0.098999999 0.2
-6.8179998 -3.2969999 0.098999999 0.27000001
-6.7589998 -3.2950001 0.1 0.20999999
-6.7270002 -3.2920001 0.101 0.20999999
-6.6849999 -3.2969999 0.101 0.34999999
-6.6259999 -3.2939999 0.102 0.19
-6.5869999 -3.3 0.102 0.34999999
-6.5289998 -3.296 0.103 0.18000001
-6.4829998 -3.299 0.104 0.34999999
-6.4530001 -3.309 0.104 0.2
-6.401 -3.2950001 0.105 0.23999999
-6.3559999 -3.2969999 0.105 0.20999999
-6.3130002 -3.3 0.106 0.22
-6.2529998 -3.293 0.107 0.17
-6.2150002 -3.2980001 0.107 0.23999999
-6.1680002 -3.2969999 0.108 0.2
-6.131 -3.302 0.108 0.20999999
-6.0939999 -3.2950001 0.108 0.17
-6.0640001 -3.303 0.109 0.31999999
-6.007 -3.296 0.11 0.2
-5.9720001 -3.3010001 0.11 0.17
-5.941 -3.3080001 0.11 0.31999999
-5.881 -3.299 0.111 0.2
-5.8379998 -3.299 0.112 0.2
-5.8119998 -3.296 0.112 0.20999999
-5.776 -3.3 0.112 0.17
-5.7270002 -3.296 0.113 0.13
-5.6789999 -3.2909999 0.114 0.17
-5.6459999 -3.296 0.114 0.23
-5.6199999 -3.3050001 0.114 0.18000001
-5.5840001 -3.3069999 0.115 0.31999999
-5.5450001 -3.2950001 0.115 0.14
-5.546 -3.3199999 0.115 0.090000004
-9.1490002 -5.5349998 0.056000002 0.47
-9.1619997 -5.5830002 0.055 0.47999999
-9.1739998 -5.6290002 0.055 0.16
-5.3699999 -3.306 0.117 0.16
-5.3629999 -3.313 0.117 0.22
-5.3740001 -3.3440001 0.117 0.14
-9.2959995 -5.8870001 0.050999999 0.51999998
-9.3039999 -5.934 0.050999999 0.27000001
-9.3479996 -6.0029998 0.050000001 0.34999999
-9.3590002 -6.052 0.048999999 0.56
-9.4060001 -6.1040001 0.048 0.15000001
-9.4119997 -6.1500001 0.048 0.54000002
-9.4239998 -6.1999998 0.046999998 0.27000001
-9.4650002 -6.27 0.046 0.34999999
-9.4820004 -6.3239999 0.046 0.46000001
-9.5080004 -6.3850002 0.045000002 0.27000001
-9.5179996 -6.4349999 0.045000002 0.55000001
-9.559 -6.4850001 0.044 0.2
-9.5699997 -6.5370002 0.043000001 0.56999999
-9.592 -6.5960002 0.041999999 0.15000001
-9.6219997 -6.6620002 0.041999999 0.58999997
-9.6499996 -6.7259998 0.041000001 0.18000001
-9.665 -6.7820001 0.039999999 0.52999997
-9.7019997 -6.8540001 0.039000001 0.20999999
-9.7320004 -6.8979998 0.037999999 0.43000001
-9.7580004 -6.9619999 0.037999999 0.51999998
-9.7679996 -7.0159998 0.037 0.2
-6.5180001 -4.7020001 0.093000002 0.34
-6.526 -4.7389998 0.093000002 0.34999999
-6.5469999 -4.7859998 0.092 0.31999999
-6.5640001 -4.8299999 0.090999998 0.33000001
-6.5869999 -4.8629999 0.090999998 0.28
-6.6240001 -4.9239998 0.090000004 0.41999999
-6.6170001 -4.9499998 0.090000004 0.20999999
-6.6500001 -5.0089998 0.089000002 0.44999999
-6.6900001 -5.072 0.088 0.14
-6.6849999 -5.1009998 0.088 0.44999999
-6.723 -5.164 0.086999997 0.12
-6.7389998 -5.1929998 0.086000003 0.41
-6.7490001 -5.2350001 0.086000003 0.16
-6.7800002 -5.2930002 0.085000001 0.41
-6.79 -5.336 0.085000001 0.18000001
-6.8200002 -5.3940001 0.083999999 0.40000001
-6.848 -5.4520001 0.082999997 0.30000001
-6.8790002 -5.5120001 0.082000002 0.20999999
-6.8600001 -5.5139999 0.082000002 0.36000001
-6.9499998 -5.6230001 0.079999998 0.13
-6.954 -5.6620002 0.079999998 0.25999999
-6.974 -5.7160001 0.079000004 0.28999999
-6.9959998 -5.7709999 0.078000002 0.5
-7.0149999 -5.8239999 0.078000002 0.30000001
-6.9899998 -5.822 0.078000002 0
-7.105 -5.9559999 0.075999998 0.12
-7.1669998 -6.0469999 0.074000001 0.12
-7.0549998 -5.9899998 0.075999998 0
-3.888 -3.3069999 0.134 0
-3.8110001 -3.2920001 0.13500001 0.090000004
-7.2839999 -6.3649998 0.07 0
-3.7850001 -3.312 0.13500001 0
-3.7839999 -3.332 0.13500001 0
-3.7390001 -3.313 0.13600001 0
-3.724 -3.3210001 0.13600001 0
-3.7079999 -3.3269999 0.13600001 0
-3.7290001 -3.3570001 0.13500001 0
-3.6010001 -3.2820001 0.13699999 0
-3.5899999 -3.3139999 0.13699999 0
-3.536 -3.316 0.138 0
-3.5109999 -3.3340001 0.138 0
-3.437 -3.2839999 0.139 0
-7.9219999 -7.7849998 0.050000001 0.36000001
-7.9380002 -7.849 0.048999999 0.49000001
-8.1110001 -8.0719995 0.045000002 0
-3.316 -3.3199999 0.14 0
-7.9679999 -7.98 0.046999998 0
-3.256 -3.3110001 0.14 0
-42.633999 -44.084999 -0.65399998 0
-3.227 -3.345 0.14 0.07
-4.4790001 -4.6859999 0.115 0.20999999
-4.3969998 -4.6279998 0.116 0.18000001
-4.5320001 -4.7870002 0.113 0.12
-4.5029998 -4.7859998 0.113 0.20999999
-4.4650002 -4.776 0.114 0.17
-4.5890002 -4.941 0.111 0.11
-4.5599999 -4.941 0.111 0.19
-4.5339999 -4.9429998 0.112 0.17
-4.6620002 -5.1160002 0.109 0.11
-4.6230001 -5.0890002 0.109 0.22
-4.6069999 -5.1040001 0.109 0.17
-4.6950002 -5.2350001 0.107 0.11
-4.7010002 -5.2750001 0.107 0.22
-4.671 -5.2750001 0.107 0.17
-4.7470002 -5.395 0.105 0.11
-4.7659998 -5.4520001 0.104 0.20999999
-4.8039999 -5.5120001 0.103 0.31
-4.8280001 -5.5760002 0.102 0.16
-4.8610001 -5.6500001 0.101 0.18000001
-4.8769999 -5.7049999 0.1 0.25
-4.9039998 -5.7740002 0.098999999 0.28
-4.9660001 -5.8839998 0.097999997 0.12
-4.9510002 -5.9039998 0.097999997 0.23
-4.9369998 -5.9060001 0.097999997 0.17
-5.027 -6.0539999 0.094999999 0.14
-5.0619998 -6.1350002 0.093999997 0.28999999
-5.085 -6.204 0.093000002 0.27000001
-5.1009998 -6.263 0.092 0
-5.184 -6.4070001 0.090000004 0.11
-5.2119999 -6.4619999 0.089000002 0.19
-5.2670002 -6.5739999 0.088 0.38999999
-5.1620002 -6.4829998 0.089000002 0
-5.2800002 -6.6760001 0.086000003 0
-29.693001 -37.98 -0.47 0
-29.403999 -37.855 -0.46599999 0
-29.722 -38.514999 -0.47600001 0
-29.513 -38.368 -0.47299999 0
-29.566 -38.688 -0.477 0.07
-5.566 -7.2969999 0.077 0.18000001
-5.5640001 -7.3410001 0.075999998 0.11
-5.6999998 -7.6220002 0.071999997 0.28999999
-5.6690001 -7.6300001 0.071999997 0.34999999
-5.7160001 -7.7189999 0.071000002 0.31999999
-5.7610002 -7.8309999 0.068999998 0.38999999
-5.796 -7.9310002 0.068000004 0.37
-5.8590002 -8.0710001 0.066 0.17
-5.888 -8.1660004 0.064000003 0.30000001
-5.9330001 -8.2840004 0.063000001 0.20999999
-5.9580002 -8.3739996 0.061999999 0.36000001
-6.0939999 -8.5939999 0.057999998 0.14
-6.1290002 -8.7019997 0.056000002 0.22
-6.1570001 -8.8009996 0.055 0.40000001
-6.224 -8.9569998 0.052999999 0.30000001
-6.2940001 -9.1199999 0.050000001 0
-2.3039999 -3.3429999 0.149 0
-6.303 -9.1940002 0.048999999 0
-2.2939999 -3.352 0.149 0
-2.253 -3.312 0.149 0
-2.25 -3.3310001 0.149 0
-2.2460001 -3.348 0.149 0
-6.79 -10.358 0.032000002 0.30000001
-2.198 -3.3559999 0.149 0
-6.8249998 -10.447 0.030999999 0
-2.2130001 -3.402 0.149 0
-2.201 -3.4070001 0.149 0
-2.1830001 -3.402 0.149 0
-2.1670001 -3.4000001 0.149 0
-2.1489999 -3.395 0.149 0
-2.158 -3.4219999 0.149 0
-2.1429999 -3.4219999 0.149 0.02
-27.013 -44.02 -0.51800001 0
-26.830999 -44.033001 -0.51700002 0
-26.653999 -44.053001 -0.51599997 0
-26.457001 -44.039001 -0.51499999 0
-26.275 -44.048 -0.51300001 0
-26.171 -44.030998 -0.51200002 0.050000001
-25.972 -44.011002 -0.51099998 0
-25.784 -44.007999 -0.509 0
-25.613001 -44.032001 -0.509 0.07
-25.426001 -44.028999 -0.50700003 0
-25.24 -44.025002 -0.50599998 0.13
-15.686 -27.541 -0.23899999 0.14
-15.571 -27.438999 -0.237 0
-15.529 -27.566 -0.23800001 0.11
-15.418 -27.570999 -0.237 0.12
-15.399 -27.742001 -0.23899999 0.16
-15.411 -28.18 -0.245 0.19
-15.181 -27.966999 -0.241 0
-23.683001 -43.825001 -0.493 0
-23.504 -43.821999 -0.49200001 0
-15.44 -28.987 -0.255 0.13
-15.254 -28.855 -0.252 0.16
-14.684 -27.987 -0.237 0.17
-14.665 -28.166 -0.23999999 0.34
-14.534 -28.021999 -0.237 0.22
-14.456 -28.087 -0.237 0
-15.018 -29.408001 -0.257 0.050000001
-15.148 -29.893999 -0.264 0.2
-15.069 -29.972 -0.26499999 0.14
-14.338 -28.740999 -0.245 0
-2.0369999 -4.1129999 0.141 0
-14.845 -29.995001 -0.264 0
-21.577 -43.797001 -0.479 0
-2.04 -4.1539998 0.141 0
-2.02 -4.1459999 0.141 0
-2.0079999 -4.1539998 0.141 0
-1.978 -4.1240001 0.141 0
-1.974 -4.1500001 0.141 0
-1.974 -4.1659999 0.141 0
-1.9809999 -4.2160001 0.14 0
-1.984 -4.2579999 0.14 0
-12.94 -28.348 -0.23100001 0
-1.9349999 -4.257 0.14 0
-12.828 -28.339001 -0.23 0
-12.991 -29.063999 -0.241 0
-12.982 -29.291 -0.244 0
-12.921 -29.403 -0.245 0
-12.775 -29.319 -0.243 0
-1.955 -4.5079999 0.13699999 0
-12.659 -29.304001 -0.242 0
-1.848 -4.2969999 0.14 0
-1.88 -4.3899999 0.139 0
-1.9630001 -4.6290002 0.13500001 0
-1.916 -4.5549998 0.13600001 0
-1.807 -4.3319998 0.14 0
-18.709999 -46.317001 -0.495 0
-1.876 -4.6430001 0.13500001 0
-18.570999 -46.389999 -0.495 0
-1.931 -4.8709998 0.132 0
-1.89 -4.8569999 0.133 0
-18.726999 -48.317001 -0.52100003 0
-1.6109999 -4.2270002 0.142 0
-18.469 -48.555 -0.523 0
-1.881 -5.0469999 0.13 0
-1.5319999 -4.1760001 0.14300001 0
-18.475 -50.719002 -0.551 0
-1.882 -5.1999998 0.12800001 0
-1.826 -5.118 0.12899999 0
-1.868 -5.2919998 0.127 0
-18.445 -53.498001 -0.588 0
-18.249001 -53.473999 -0.58700001 0.11
-18.070999 -53.500999 -0.58600003 0
-17.892 -53.526001 -0.58600003 0
-17.771 -53.442001 -0.58399999 0
-17.59 -53.457001 -0.583 0
-1.813 -5.553 0.124 0
-17.400999 -53.448002 -0.58200002 0
-1.825 -5.6500001 0.122 0.14
-1.853 -5.803 0.12 0
-1.831 -5.7950001 0.12 0.090000004
-1.813 -5.77 0.121 0.19
-1.8 -5.7919998 0.121 0
-16.218 -53.500999 -0.57800001 0
-16.025 -53.469002 -0.57700002 0
-15.837 -53.452 -0.57599998 0
-15.665 -53.487999 -0.57599998 0
-15.476 -53.464001 -0.57499999 0
-13.988 -48.602001 -0.50300002 0
-1.751 -6.1469998 0.116 0
-13.825 -48.610001 -0.50300002 0
-1.7359999 -6.1680002 0.116 0
-14.658 -53.456001 -0.57099998 0
-14.482 -53.472 -0.57099998 0
-14.302 -53.471001 -0.56999999 0
-14.202 -53.436001 -0.56999999 0
-14.024 -53.438999 -0.56900001 0
-13.843 -53.435001 -0.56800002 0
-13.67 -53.457001 -0.56800002 0
-13.491 -53.457001 -0.56699997 0
-13.309 -53.443001 -0.56599998 0
-13.133 -53.451 -0.56599998 0
-13.037 -53.423 -0.565 0
-1.6569999 -6.881 0.106 0
-12.861 -53.431 -0.565 0
-1.632 -6.973 0.105 0
-12.51 -53.445999 -0.56400001 0
-12.153 -53.431999 -0.56300002 0
-1.622 -7.132 0.103 0.039999999
-1.61 -7.132 0.103 0
-1.596 -7.1739998 0.103 0
-11.535 -53.424 -0.56099999 0
-1.59 -7.3720002 0.1 0.029999999
-1.575 -7.533 0.097999997 0
-1.556 -7.5 0.097999997 0
-1.567 -7.6750002 0.096000001 0.029999999
-1.548 -7.7080002 0.094999999 0.090000004
-1.528 -7.7360001 0.094999999 0
-1.515 -7.8000002 0.093999997 0
-1.515 -7.9320002 0.092 0.059999999
-1.495 -7.9619999 0.092 0
-1.502 -8.073 0.090000004 0.1
-1.501 -8.2150002 0.089000002 0.27000001
-1.482 -8.2559996 0.088 0.19
-1.459 -8.2819996 0.088 0.38999999
-1.448 -8.3710003 0.086000003 0
-8.9180002 -53.379002 -0.55299997 0
-1.425 -8.5600004 0.083999999 0.090000004
-1.423 -8.6330004 0.082999997 0.13
-1.406 -8.7030001 0.082000002 0.13
-1.392 -8.7939997 0.081 0.23
-1.378 -8.8870001 0.079999998 0.1
-1.3660001 -8.9980001 0.078000002 0.15000001
-1.348 -9.0719995 0.077 0
-1.3329999 -9.1709995 0.075999998 0
-1.33 -9.2580004 0.074000001 0
-1.302 -9.4899998 0.071000002 0.25
-1.2819999 -9.5719995 0.07 0.2
-1.267 -9.6890001 0.068999998 0.12
-1.251 -9.9329996 0.064999998 0.28999999
-1.232 -10.038 0.064000003 0.20999999
-1.214 -10.161 0.061999999 0.23
-1.193 -10.262 0.061000001 0.2
-1.176 -10.399 0.059 0.17
-1.174 -10.693 0.055 0.25999999
-1.141 -10.707 0.055 0.50999999
-1.131 -10.772 0.054000001 0.25999999
-1.112 -10.919 0.052000001 0.15000001
-1.09 -11.058 0.050000001 0.44
-1.066 -11.176 0.048 0.23
-1.044 -11.319 0.046 0.23999999
-1.022 -11.478 0.044 0.16
-0.99400002 -11.583 0.043000001 0
-0.354 -4.1570001 0.147 0
-0.98500001 -11.698 0.041000001 0
-0.338 -4.1259999 0.148 0
-0.324 -4.1149998 0.148 0
-0.31200001 -4.1259999 0.148 0.039999999
-0.85900003 -12.584 0.028999999 0.17
-0.84799999 -12.715 0.027000001 0.23
-0.81900001 -12.905 0.024 0.25
-0.79500002 -13.195 0.02 0.27000001
-0.75700003 -13.253 0.018999999 0.36000001
-0.72600001 -13.461 0.017000001 0.18000001
-0.69499999 -13.689 0.013 0.47999999
-0.66299999 -13.933 0.0099999998 0.19
-0.65100002 -14.166 0.0070000002 0.28999999
-0.61799997 -14.432 0.003 0.28
-0.58200002 -14.687 -0 0.28999999
-0.54500002 -14.967 -0.0040000002 0.28
-0.509 -15.31 -0.0089999996 0.25
-0.46900001 -15.612 -0.013 0.31999999
-0.426 -15.837 -0.017000001 0.23999999
-0.40900001 -16.16 -0.021 0.30000001
-0.36500001 -16.517 -0.026000001 0.18000001
-0.31900001 -16.809999 -0.029999999 0.27000001
-0.27000001 -17.143999 -0.035 0.20999999
-0.22 -17.485001 -0.039999999 0.37
-0.171 -18.218 -0.050000001 0.14
-0.116 -18.52 -0.054000001 0
-0.17200001 -44.616001 -0.41999999 0.050000001
-0.030999999 -41.883999 -0.382 0.15000001
0.1 -41.848 -0.38100001 0.12
0.234 -42.273998 -0.38699999 0.16
0.23199999 -20.737 -0.085000001 0.44
0.266 -20.861 -0.086999997 0
0.884 -53.018002 -0.53799999 0
1.045 -52.757 -0.53399998 0
1.219 -53.097 -0.53899997 0
1.2359999 -47.467999 -0.46000001 0
1.551 -53.042 -0.53799999 0
1.714 -52.912998 -0.537 0
1.47 -43.441002 -0.40400001 0
1.607 -43.442001 -0.40400001 0
1.7539999 -43.699001 -0.40799999 0
1.92 -44.34 -0.417 0
2.05 -44.139999 -0.414 0.11
2.151 -43.373001 -0.403 0.22
2.2539999 -42.741001 -0.39399999 0.11
2.3329999 -42.963001 -0.398 0.14
2.474 -43.064999 -0.39899999 0.28
2.5880001 -42.702 -0.39399999 0.11
2.7609999 -43.292 -0.403 0
2.875 -42.962002 -0.398 0.13
2.9809999 -42.548 -0.39199999 0
3.132 -42.765999 -0.396 0.12
3.211 -42.924 -0.398 0.12
3.3640001 -43.139 -0.40099999 0.17
3.497 -43.098 -0.40099999 0
3.641 -43.193001 -0.40200001 0
3.767 -43.07 -0.40000001 0
3.937 -43.433998 -0.40599999 0
4.9109998 -53.195 -0.54299998 0
4.9699998 -52.048 -0.52700001 0
5.2589998 -53.299999 -0.54500002 0
5.414 -53.161999 -0.54400003 0
5.895 -56.119999 -0.58499998 0
5.6739998 -52.445 -0.53399998 0
5.848 -52.506001 -0.53500003 0
6.1939998 -51.910999 -0.52700001 0
6.3629999 -51.938999 -0.528 0
0.55800003 -4.1550002 0.147 0
11.309 -74.663002 -0.85299999 0
11.558 -74.720001 -0.85399997 0
6.4250002 -35.349998 -0.29800001 0
6.4349999 -34.785 -0.28999999 0
6.5089998 -34.577999 -0.28799999 0
6.5 -33.948002 -0.27900001 0
6.303 -32.646 -0.26100001 0
6.3629999 -32.405998 -0.257 0.039999999
6.3010001 -31.572001 -0.24600001 0.15000001
6.355 -31.329 -0.243 0.18000001
6.3629999 -30.872 -0.236 0.17
6.368 -30.416 -0.23 0.40000001
6.277 -29.523001 -0.21799999 0.13
6.2989998 -29.398001 -0.21600001 0.40000001
6.2849998 -28.892 -0.20900001 0.16
6.2820001 -28.448 -0.20299999 0.16
6.336 -28.274 -0.20100001 0
6.4520001 -28.372999 -0.20200001 0
6.6090002 -28.645 -0.207 0
6.671 -28.504999 -0.205 0.059999999
6.6989999 -28.424999 -0.204 0.17
4.0359998 -16.700001 -0.035 0.22
4.0830002 -16.664 -0.035 0.41999999
4.1329999 -16.645 -0.035 0.36000001
4.191 -16.653 -0.035 0.63
4.3260002 -17.075001 -0.041000001 0.20999999
4.408 -17.17 -0.043000001 0.27000001
4.3839998 -16.858 -0.039000001 0.64999998
4.4819999 -17.011999 -0.041000001 0
7.3330002 -27.422001 -0.192 0.050000001
7.401 -27.334999 -0.191 0.079999998
7.4710002 -27.252001 -0.191 0.14
7.4980001 -27.181999 -0.19 0
7.5809999 -27.150999 -0.19 0.090000004
7.6069999 -26.917 -0.18700001 0.090000004
7.6199999 -26.645 -0.183 0.16
7.6859999 -26.559999 -0.182 0
7.8590002 -26.534 -0.182 0.13
7.9060001 -26.539 -0.183 0.16
8.0100002 -26.583 -0.184 0
8.1020002 -26.584 -0.184 0.11
8.1940002 -26.587 -0.184 0.090000004
8.2889996 -26.598 -0.185 0.15000001
8.3780003 -26.589001 -0.185 0
8.4280005 -26.6 -0.186 0
1.098 -3.428 0.155 0
8.5249996 -26.615999 -0.186 0
1.105 -3.414 0.155 0
8.6129999 -26.601999 -0.186 0
1.108 -3.3870001 0.156 0
1.108 -3.3540001 0.156 0
1.1160001 -3.3570001 0.156 0
1.1210001 -3.339 0.156 0.079999998
1.133 -3.3410001 0.156 0
1.137 -3.3180001 0.156 0
1.145 -3.3069999 0.15700001 0.07
1.159 -3.313 0.156 0.15000001
1.161 -3.2869999 0.15700001 0.090000004
1.166 -3.283 0.15700001 0.14
1.174 -3.2739999 0.15700001 0.1
1.1849999 -3.2739999 0.15700001 0.15000001
1.194 -3.266 0.15700001 0.16
1.201 -3.253 0.15700001 0.090000004
1.216 -3.263 0.15700001 0.16
1.224 -3.2509999 0.15700001 0.12
1.237 -3.27 0.15700001 0.14
1.248 -3.2679999 0.15700001 0.33000001
1.2460001 -3.234 0.15700001 0.11
1.27 -3.266 0.156 0.14
1.271 -3.237 0.15700001 0.090000004
1.284 -3.2409999 0.15700001 0.16
1.2920001 -3.244 0.15700001 0.1
1.3 -3.237 0.15700001 0.090000004
1.3150001 -3.244 0.15700001 0.14
1.331 -3.2539999 0.156 0.1
1.341 -3.25 0.156 0.090000004
1.351 -3.244 0.156 0.079999998
1.372 -3.2650001 0.156 0
1.372 -3.25 0.156 0
1.385 -3.253 0.156 0.07
1.403 -3.267 0.156 0
1.41 -3.2539999 0.156 0
1.442 -3.299 0.155 0
1.446 -3.2809999 0.155 0
1.447 -3.2550001 0.156 0
22.412001 -49.304001 -0.55400002 0
22.655001 -49.424 -0.55699998 0
22.778 -49.284 -0.55599999 0
23.013 -49.383999 -0.55800003 0.079999998
23.183001 -49.344002 -0.55900002 0.11
14.523 -30.683001 -0.27000001 0.23
14.732 -30.872 -0.27399999 0
24.172001 -50.412998 -0.57800001 0
24.351999 -50.382 -0.579 0
26.136 -53.639999 -0.63099998 0
24.535999 -49.960999 -0.57499999 0
24.708 -49.911999 -0.57499999 0
24.92 -49.945 -0.57700002 0
25.184999 -50.279999 -0.583 0
25.382 -50.277 -0.58399999 0
25.474001 -50.069 -0.58200002 0
25.650999 -50.026001 -0.583 0
25.899 -50.120998 -0.58499998 0
26.143 -50.206001 -0.588 0
26.231001 -49.991001 -0.58600003 0
26.271 -49.876999 -0.58499998 0
26.355 -49.658001 -0.583 0
26.624001 -49.785 -0.58600003 0
26.733999 -49.617001 -0.58499998 0
2.211 -4.0929999 0.14 0
2.243 -4.1209998 0.14 0
2.234 -4.0890002 0.14 0
2.247 -4.0819998 0.14 0
2.2490001 -4.0560002 0.141 0
2.267 -4.0580001 0.14 0
2.2739999 -4.04 0.141 0
27.983 -48.769001 -0.583 0
28.381001 -49.105 -0.58899999 0
29.011999 -50.013 -0.60500002 0
29.108 -49.818001 -0.60299999 0
30.921 -52.537998 -0.64899999 0
29.363001 -49.537998 -0.602 0
29.533001 -49.470001 -0.602 0
29.715 -49.421001 -0.60299999 0
27.219 -44.952999 -0.53100002 0
27.171 -44.715 -0.528 0
27.233 -44.501999 -0.52600002 0
27.389999 -44.445 -0.52600002 0
27.993999 -45.105999 -0.53899997 0
28.034 -44.855 -0.53600001 0
27.85 -44.250999 -0.52700001 0
27.653 -43.785999 -0.51999998 0
27.709 -43.570999 -0.51800001 0
28.434999 -44.403 -0.53399998 0
28.295 -43.881001 -0.52600002 0
28.454 -43.824001 -0.52700001 0.039999999
27.164 -41.554001 -0.49000001 0
32.417999 -49.243999 -0.62099999 0
32.632 -49.400002 -0.62400001 0
28.237 -42.462002 -0.509 0
28.662001 -42.807999 -0.51700002 0
28.794001 -42.714001 -0.51700002 0
2.7 -3.993 0.138 0
28.927 -42.622002 -0.51700002 0
2.7490001 -3.9979999 0.138 0
30.202 -43.756001 -0.54000002 0
29.733999 -42.505001 -0.52200001 0
2.7820001 -3.9649999 0.138 0.059999999
27.681 -39.310001 -0.46799999 0
27.849001 -39.026001 -0.46700001 0.23999999
27.754 -38.764 -0.463 0
27.664 -38.382999 -0.458 0
27.197001 -37.487 -0.44400001 0.14
27.259001 -37.326 -0.442 0
27.205999 -37.007999 -0.43799999 0.1
27.204 -36.763 -0.43599999 0.17
27.32 -36.679001 -0.43599999 0
27.288 -36.515999 -0.433 0.12
27.333 -36.338001 -0.43200001 0.090000004
27.315001 -36.077999 -0.42899999 0
27.674999 -36.314999 -0.43399999 0
26.903999 -34.848999 -0.412 0.14
27.719999 -35.672001 -0.428 0.14
3.1240001 -4.0180001 0.134 0.12
27.764999 -35.613998 -0.42699999 0
26.660999 -33.759998 -0.39700001 0.16
26.631001 -33.506001 -0.39399999 0.14
26.724001 -33.405998 -0.39399999 0
27.643999 -34.334 -0.412 0.11
27.632999 -34.209999 -0.41100001 0.1
27.086 -33.32 -0.396 0.15000001
27.393 -33.481998 -0.40099999 0.17
27.59 -33.507 -0.403 0.16
27.542 -33.235001 -0.40000001 0
2.7969999 -3.358 0.14399999 0
27.683001 -33.193001 -0.40000001 0
2.7409999 -3.2709999 0.146 0
27.333 -32.564999 -0.38999999 0
2.7149999 -3.22 0.147 0
2.7079999 -3.1919999 0.147 0
2.7 -3.1619999 0.147 0
2.717 -3.161 0.147 0
2.704 -3.1270001 0.148 0
2.714 -3.1289999 0.148 0
2.7079999 -3.102 0.148 0
2.714 -3.089 0.148 0
2.72 -3.076 0.148 0
2.72 -3.0569999 0.148 0
2.7309999 -3.05 0.148 0
2.7320001 -3.0409999 0.148 0
2.7460001 -3.039 0.148 0.12
2.747 -3.02 0.148 0.090000004
2.756 -3.0109999 0.148 0.079999998
2.7639999 -3.0009999 0.148 0.079999998
2.779 -2.9979999 0.148 0.14
2.7980001 -2.9990001 0.148 0.090000004
2.8 -2.9920001 0.148 0.15000001
2.8080001 -2.9820001 0.148 0.20999999
2.8299999 -2.9860001 0.148 0.23999999
2.835 -2.973 0.148 0.1
2.8469999 -2.967 0.148 0.090000004
2.8629999 -2.9649999 0.148 0.13
2.8770001 -2.96 0.148 0.1
2.8829999 -2.957 0.148 0.090000004
2.895 -2.951 0.148 0.079999998
2.9260001 -2.9630001 0.147 0
2.9630001 -2.9820001 0.147 0
2.9749999 -2.9749999 0.147 0
2.9949999 -2.9760001 0.146 0.11
13.237 -12.907 -0.054000001 0.36000001
13.255 -12.844 -0.052999999 0.46000001
13.292 -12.799 -0.052999999 0.31999999
13.347 -12.771 -0.052999999 0.47
13.407 -12.748 -0.054000001 0.25
13.665 -12.912 -0.057999998 0
25.764999 -24.236 -0.28999999 0.050000001
4.2509999 -3.9779999 0.124 0
25.899 -24.209999 -0.29100001 0
4.2859998 -3.961 0.124 0
24.959999 -23.041 -0.271 0
25.091999 -22.872999 -0.27000001 0
25.028999 -22.672001 -0.26800001 0
25.412001 -22.945999 -0.27399999 0
25.375999 -22.768999 -0.27200001 0
4.4359999 -3.9590001 0.122 0
24.917 -22.216999 -0.26199999 0
4.5029998 -3.9679999 0.121 0
24.395 -21.479 -0.25 0
4.52 -3.9579999 0.121 0
4.546 -3.9679999 0.121 0
4.5840001 -3.9749999 0.121 0
4.6009998 -3.9649999 0.12 0
4.6300001 -3.9649999 0.12 0
4.6529999 -3.9590001 0.12 0
4.6690001 -3.947 0.12 0
4.7150002 -3.96 0.119 0
4.7550001 -3.9809999 0.119 0
4.7579999 -3.9590001 0.119 0
4.7969999 -3.9649999 0.118 0.07
4.823 -3.961 0.118 0
4.8390002 -3.9489999 0.118 0
4.9029999 -3.9749999 0.117 0
4.9359999 -3.9879999 0.117 0.079999998
4.9260001 -3.9549999 0.117 0.090000004
5.0120001 -3.973 0.116 0
25.263 -20.018999 -0.24600001 0
27.212 -21.284 -0.27900001 0.059999999
24.868999 -19.327999 -0.236 0.15000001
24.822001 -19.167 -0.234 0.12
5.138 -3.9549999 0.115 0.07
24.889 -19.156 -0.235 0.37
23.815001 -18.094 -0.214 0.17
23.858999 -18.01 -0.213 0.17
5.2259998 -3.9449999 0.114 0.1
25.044001 -18.657 -0.23199999 0.18000001
25.159 -18.620001 -0.233 0.16
25.177999 -18.573 -0.233 0.28
26.423 -19.361 -0.25400001 0
26.034 -18.952 -0.24600001 0.12
25.993 -18.797001 -0.244 0.2
26.087 -18.740999 -0.245 0.30000001
26.117001 -18.638 -0.244 0.2
26.205 -18.639 -0.245 0.23
26.225 -18.530001 -0.245 0.19
5.5749998 -3.938 0.11 0
26.663 -18.589001 -0.25 0.090000004
24.591 -17.032 -0.214 0.15000001
7.1420002 -4.9359999 0.083999999 0.30000001
7.1409998 -4.902 0.083999999 0.20999999
7.125 -4.875 0.085000001 0.34
7.1409998 -4.8530002 0.085000001 0.50999999
7.1490002 -4.8260002 0.085000001 0.15000001
7.131 -4.7810001 0.085000001 0.28
7.1440001 -4.7579999 0.085000001 0.52999997
7.138 -4.7210002 0.086000003 0.22
7.1360002 -4.6869998 0.086000003 0.23
7.1279998 -4.6659999 0.086000003 0.34
7.1370001 -4.6409998 0.086000003 0.51999998
7.0780001 -4.5710001 0.086999997 0.19
7.131 -4.573 0.086999997 0.25999999
7.1420002 -4.5489998 0.086999997 0.30000001
7.0430002 -4.4549999 0.089000002 0.55000001
6.9770002 -4.3829999 0.090000004 0.19
7.1209998 -4.4580002 0.088 0.2
7.118 -4.4250002 0.088 0.31999999
7.1290002 -4.4000001 0.088 0.31999999
7.132 -4.3720002 0.088 0.5
7.0710001 -4.3039999 0.090000004 0.23999999
7.1149998 -4.3000002 0.089000002 0.2
7.1409998 -4.3000002 0.089000002 0.27000001
7.1420002 -4.27 0.089000002 0.52999997
7.1469998 -4.243 0.089000002 0.23999999
7.1479998 -4.2129998 0.089000002 0.31999999
7.1269999 -4.171 0.090000004 0.20999999
7.2519999 -4.2129998 0.088 0.22
7.3189998 -4.2210002 0.086999997 0.28999999
7.375 -4.2379999 0.086000003 0.33000001
7.4180002 -4.2309999 0.086000003 0.30000001
7.4850001 -4.2379999 0.085000001 0.36000001
7.5229998 -4.2280002 0.085000001 0.34999999
7.5359998 -4.2049999 0.085000001 0.2
7.5159998 -4.1630001 0.085000001 0.46000001
7.5780001 -4.1659999 0.083999999 0.25
7.6760001 -4.204 0.082999997 0.28999999
7.7360001 -4.2049999 0.082000002 0.25999999
7.3179998 -3.9489999 0.089000002 0.18000001
7.3340001 -3.928 0.089000002 0.31999999
7.3639998 -3.915 0.089000002 0.2
7.362 -3.8840001 0.089000002 0.17
8.0430002 -4.2080002 0.078000002 0.31999999
8.0690002 -4.2059999 0.078000002 0.41
8.1120005 -4.1960001 0.078000002 0.20999999
24.184 -12.355 -0.175 0.31999999
24.153 -12.244 -0.17399999 0.31
24.472 -12.309 -0.178 0.23
24.378 -12.166 -0.176 0.14
24.193001 -12.027 -0.17299999 0.50999999
24.294001 -11.981 -0.17399999 0.25
7.9790001 -3.892 0.081 0.19
7.9889998 -3.8659999 0.081 0.16
8.0900002 -3.8829999 0.079999998 0.20999999
8.1429996 -3.878 0.079000004 0.20999999
25.671 -12.113 -0.192 0.11
25.409 -11.891 -0.18799999 0.17
25.604 -11.885 -0.19 0.16
8.5229998 -3.9100001 0.074000001 0.19
22.188999 -10.009 -0.13600001 0.37
22.278999 -9.9650002 -0.13699999 0.28999999
22.316999 -9.8979998 -0.13699999 0.38
24.475 -10.669 -0.169 0.5
22.867001 -9.8839998 -0.14399999 0.16
22.648001 -9.7060003 -0.14 0.30000001
22.903 -9.6870003 -0.14300001 0.57999998
22.888 -9.5959997 -0.142 0.23999999
23.153999 -9.6219997 -0.146 0.23
9.4429998 -3.8710001 0.063000001 0.57999998
22.789 -9.2200003 -0.139 0.2
