# .PCD v0.7 - Point Cloud Data file format
VERSION 0.7
FIELDS x y z intensity
SIZE 4 4 4 4
TYPE F F F F
COUNT 1 1 1 1
WIDTH 1370
HEIGHT 1
VIEWPOINT 0 0 0 1 0 0 0
POINTS 1370
DATA ascii
-4.382 4.164 -1.813 0.19
-4.402 4.1700001 -1.819 0.30000001
-4.4089999 4.1500001 -1.816 0.23999999
-4.4330001 4.1469998 -1.821 0.25999999
-4.4390001 4.1259999 -1.818 0.27000001
-4.4419999 4.1030002 -1.813 0.19
-4.474 4.1069999 -1.822 0.28
-4.4710002 4.0780001 -1.8150001 0.23999999
-4.4829998 4.0760002 -1.817 0.25999999
-4.4899998 4.0570002 -1.8150001 0.19
-4.5120001 4.0510001 -1.819 0.25999999
-4.5190001 4.0320001 -1.816 0.25
-4.5500002 4.0339999 -1.824 0.23999999
-4.5300002 3.9909999 -1.8099999 0.18000001
-4.5630002 3.994 -1.819 0.28999999
-4.5630002 3.9820001 -1.816 0.23999999
-4.5619998 3.9549999 -1.8099999 0.2
-4.5999999 3.9630001 -1.821 0.25999999
-4.6020002 3.9400001 -1.817 0.23
-4.6149998 3.9260001 -1.817 0.23999999
-4.612 3.8989999 -1.811 0.18000001
-4.6479998 3.904 -1.821 0.28
-4.6409998 3.8729999 -1.813 0.22
-4.6469998 3.8659999 -1.813 0.22
-4.677 3.8659999 -1.8200001 0.25
-4.671 3.8369999 -1.813 0.23999999
-4.6849999 3.823 -1.813 0.27000001
-4.6999998 3.8110001 -1.8150001 0.25
-4.6939998 3.7820001 -1.807 0.19
-4.7309999 3.7869999 -1.818 0.27000001
-4.7340002 3.7780001 -1.816 0.23
-4.7280002 3.7479999 -1.809 0.25999999
-4.737 3.7309999 -1.808 0.2
-4.777 3.7390001 -1.819 0.27000001
-4.7659998 3.7060001 -1.8099999 0.25
-4.7849998 3.697 -1.813 0.23999999
-4.789 3.6760001 -1.8099999 0.18000001
-4.8039999 3.6760001 -1.814 0.30000001
-4.816 3.6600001 -1.814 0.25
-4.829 3.6459999 -1.8150001 0.25999999
-4.823 3.619 -1.808 0.25999999
-4.842 3.609 -1.811 0.25999999
-4.855 3.595 -1.812 0.27000001
-4.8759999 3.5869999 -1.8150001 0.25999999
-4.8600001 3.563 -1.807 0.19
-4.8920002 3.5639999 -1.8150001 0.28999999
-4.8930001 3.54 -1.811 0.25
-4.9039998 3.5250001 -1.811 0.25
-4.9180002 3.5120001 -1.812 0.28999999
-4.921 3.4909999 -1.809 0.28999999
-4.9460001 3.4849999 -1.8150001 0.25999999
-4.9590001 3.471 -1.8150001 0.27000001
-4.9380002 3.444 -1.8049999 0.18000001
-4.974 3.4460001 -1.8150001 0.30000001
-4.973 3.4230001 -1.8099999 0.25
-4.987 3.4100001 -1.812 0.25
-5.0040002 3.398 -1.814 0.28
-5.0159998 3.3829999 -1.8150001 0.30000001
-5.0159998 3.3599999 -1.8099999 0.28999999
-5.0229998 3.3529999 -1.811 0.25999999
-5.0440001 3.345 -1.8150001 0.28
-5.0409999 3.3199999 -1.8099999 0.31999999
-5.0560002 3.3069999 -1.812 0.28
-5.0710001 3.2939999 -1.813 0.28999999
-5.0780001 3.276 -1.812 0.25
-5.092 3.2620001 -1.813 0.28999999
-5.0949998 3.253 -1.813 0.30000001
-5.105 3.237 -1.813 0.28999999
-5.1149998 3.221 -1.813 0.28
-5.1300001 3.2079999 -1.8150001 0.30000001
-5.1230001 3.181 -1.808 0.27000001
-5.1409998 3.1700001 -1.811 0.31999999
-5.1490002 3.1530001 -1.8099999 0.28
-5.1539998 3.145 -1.8099999 0.28
-5.1620002 3.1270001 -1.8099999 0.28
-5.1739998 3.112 -1.8099999 0.28999999
-5.1830001 3.096 -1.8099999 0.28999999
-5.1950002 3.0799999 -1.811 0.27000001
-5.204 3.0639999 -1.811 0.27000001
-5.2059999 3.043 -1.808 0.28999999
-5.217 3.039 -1.8099999 0.28
-5.223 3.02 -1.809 0.30000001
-5.2309999 3.003 -1.809 0.28999999
-5.2410002 2.9860001 -1.809 0.28
-5.257 2.974 -1.811 0.28999999
-5.2670002 2.9579999 -1.812 0.31
-5.2670002 2.9360001 -1.808 0.31999999
-5.276 2.931 -1.8099999 0.25999999
-5.2690001 2.905 -1.804 0.31
-5.2810001 2.8900001 -1.8049999 0.28
-5.3049998 2.882 -1.8099999 0.27000001
-5.3140001 2.865 -1.8099999 0.30000001
-5.3080001 2.8399999 -1.8049999 0.28999999
-5.3260002 2.8280001 -1.808 0.27000001
-5.329 2.8080001 -1.806 0.27000001
-5.3439999 2.8050001 -1.8099999 0.28
-5.3410001 2.7820001 -1.8049999 0.28999999
-5.3460002 2.7639999 -1.804 0.28999999
-5.3649998 2.7520001 -1.808 0.25
-5.3530002 2.7249999 -1.801 0.19
-5.382 2.7190001 -1.808 0.30000001
-5.3759999 2.694 -1.802 0.23999999
-5.3850002 2.688 -1.804 0.28
-5.4029999 2.6760001 -1.808 0.25
-5.408 2.6570001 -1.807 0.28
-5.408 2.6359999 -1.804 0.28999999
-5.4229999 2.6229999 -1.806 0.25999999
-5.421 2.6010001 -1.802 0.20999999
-5.4569998 2.5969999 -1.812 0.27000001
-5.447 2.582 -1.807 0.22
-5.4239998 2.55 -1.796 0.18000001
-5.4720001 2.5510001 -1.8099999 0.28999999
-5.4559999 2.523 -1.802 0.25
-5.4759998 2.5109999 -1.806 0.23999999
-5.4850001 2.4949999 -1.807 0.25
-5.4809999 2.4719999 -1.802 0.23
-5.4759998 2.46 -1.799 0.2
-5.5120001 2.4549999 -1.809 0.28
-5.4970002 2.427 -1.801 0.23999999
-5.5029998 2.4089999 -1.801 0.19
-5.533 2.402 -1.809 0.28
-5.5190001 2.3759999 -1.801 0.23
-5.5250001 2.3570001 -1.801 0.2
-5.553 2.359 -1.809 0.27000001
-5.552 2.3380001 -1.806 0
-5.586 2.332 -1.8150001 0
-5.7740002 1.705 -1.8049999 0.07
-5.763 1.682 -1.799 0.13
-5.7880001 1.669 -1.806 0.25999999
-5.7820001 1.648 -1.802 0.23
-5.7870002 1.6390001 -1.803 0.25
-5.79 1.6210001 -1.802 0.28
-5.7930002 1.602 -1.802 0.28
-5.7930002 1.582 -1.8 0.28999999
-5.8070002 1.567 -1.803 0.28999999
-5.8099999 1.548 -1.802 0.30000001
-5.8169999 1.53 -1.803 0.30000001
-5.8189998 1.521 -1.803 0.28999999
-5.8280001 1.5039999 -1.804 0.28999999
-5.823 1.483 -1.801 0.28
-5.8200002 1.4630001 -1.799 0.28
-5.836 1.447 -1.802 0.28999999
-5.835 1.427 -1.801 0.28999999
-5.8340001 1.408 -1.799 0.30000001
-5.8340001 1.398 -1.798 0.30000001
-5.8400002 1.38 -1.799 0.28999999
-5.8579998 1.365 -1.803 0.31999999
-5.8600001 1.346 -1.802 0.28999999
-5.8400002 1.322 -1.795 0.27000001
-5.868 1.309 -1.802 0.15000001
-5.8670001 1.29 -1.801 0.15000001
-5.869 1.271 -1.8 0.27000001
-5.875 1.262 -1.801 0.31
-5.8769999 1.243 -1.801 0.30000001
-5.8699999 1.223 -1.7970001 0.25
-5.8829999 1.206 -1.8 0.34999999
-5.8860002 1.188 -1.8 0.30000001
-5.8860002 1.168 -1.799 0.28999999
-5.8899999 1.15 -1.799 0.28999999
-5.9050002 1.143 -1.803 0.28999999
-5.9050002 1.124 -1.802 0.27000001
-5.9050002 1.105 -1.801 0.28999999
-5.8990002 1.084 -1.798 0.28
-5.9099998 1.067 -1.8 0.31999999
-5.9169998 1.049 -1.801 0.27000001
-5.9200001 1.031 -1.801 0.30000001
-5.9120002 1.02 -1.798 0.25999999
-5.9250002 1.003 -1.801 0.27000001
-5.9299998 0.98500001 -1.802 0.30000001
-5.9310002 0.96600002 -1.801 0.28999999
-5.9359999 0.94700003 -1.802 0.28999999
-5.948 0.93000001 -1.8049999 0.27000001
-5.9419999 0.91000003 -1.802 0.25
-5.9580002 0.903 -1.807 0.27000001
-5.9629998 0.88499999 -1.807 0.28
-5.9349999 0.861 -1.798 0.20999999
-5.9549999 0.84500003 -1.803 0.28
-5.9520001 0.82599998 -1.801 0.25
-5.9530001 0.80699998 -1.801 0.27000001
-5.9530001 0.78799999 -1.8 0.25999999
-5.9559999 0.76899999 -1.8 0.28
-5.9510002 0.759 -1.798 0.28999999
-5.9689999 0.74199998 -1.803 0.25999999
-5.9860001 0.72500002 -1.808 0.27000001
-5.9850001 0.70599997 -1.807 0.25999999
-5.9489999 0.68300003 -1.795 0.2
-5.9790001 0.667 -1.804 0.28999999
-5.9699998 0.64700001 -1.8 0.25
-5.9840002 0.639 -1.804 0.25
-5.9749999 0.61900002 -1.801 0.2
-5.9959998 0.602 -1.807 0.30000001
-5.9790001 0.58200002 -1.801 0.23999999
-6.0089998 0.56599998 -1.8099999 0.25
-5.9790001 0.54400003 -1.799 0.22
-6.0009999 0.52700001 -1.806 0.27000001
-6.0040002 0.51800001 -1.807 0.25
-5.9829998 0.49700001 -1.799 0.25999999
-5.9819999 0.47799999 -1.799 0.25999999
-5.9970002 0.46000001 -1.803 0.28
-5.9889998 0.44100001 -1.8 0.25999999
-6.0019999 0.42300001 -1.804 0.27000001
-6.0050001 0.40400001 -1.804 0.27000001
-5.987 0.39300001 -1.798 0.27000001
-5.993 0.375 -1.8 0.28999999
-6.0079999 0.35699999 -1.804 0.27000001
-6.0149999 0.338 -1.806 0.25999999
-5.987 0.31799999 -1.7970001 0.22
-6.0190001 0.30000001 -1.807 0.27000001
-5.9970002 0.28 -1.799 0.25
-6.007 0.271 -1.802 0.27000001
-6.0040002 0.252 -1.801 0.25
-5.993 0.233 -1.798 0.28999999
-6.013 0.215 -1.804 0.27000001
-6.013 0.19599999 -1.804 0.25
-5.993 0.176 -1.7970001 0.22
-6.0110002 0.15800001 -1.802 0.30000001
-6.0209999 0.14 -1.8049999 0.25
-6.0019999 0.13 -1.799 0.25999999
-6.0229998 0.111 -1.806 0.25999999
-6.033 0.092 -1.809 0.30000001
-6.0050001 0.072999999 -1.8 0.28999999
-6.0159998 0.054000001 -1.804 0.27000001
-6.0300002 0.035999998 -1.808 0.25
-6.0219998 0.017000001 -1.8049999 0.27000001
-6.026 0.0070000002 -1.807 0.28
-6.0320001 -0.012 -1.809 0.27000001
-6.0149999 -0.030999999 -1.803 0.30000001
-6.0159998 -0.050000001 -1.804 0.31
-6.0159998 -0.068999998 -1.804 0.28
-6.0079999 -0.086999997 -1.801 0.28
-6.0139999 -0.106 -1.803 0.28999999
-6.0139999 -0.116 -1.803 0.27000001
-6.007 -0.13500001 -1.801 0.28
-6.013 -0.154 -1.803 0.27000001
-6.0219998 -0.17299999 -1.806 0.23999999
-6.006 -0.191 -1.801 0.31
-6.0279999 -0.211 -1.809 0.27000001
-6.0289998 -0.23 -1.809 0.27000001
-6.0139999 -0.23899999 -1.804 0.30000001
-6.0149999 -0.25799999 -1.8049999 0.27000001
-6.0139999 -0.27700001 -1.8049999 0.27000001
-6.0209999 -0.296 -1.807 0.27000001
-6.0250001 -0.315 -1.809 0.23999999
-6.0190001 -0.33399999 -1.807 0.28
-6.0120001 -0.352 -1.8049999 0.27000001
-6.0250001 -0.36199999 -1.8099999 0.27000001
-5.993 -0.37900001 -1.8 0.18000001
-6.02 -0.40000001 -1.809 0.28999999
-6.013 -0.419 -1.807 0.25
-6.0120001 -0.43799999 -1.807 0.25999999
-5.9990001 -0.456 -1.804 0.25999999
-6.0050001 -0.47499999 -1.806 0.27000001
-6.027 -0.49599999 -1.813 0.20999999
-6.0500002 -0.51700002 -1.821 0.28
-6.0549998 -0.52700001 -1.823 0.22
-6.0359998 -0.54400003 -1.818 0.17
-6.0510001 -0.565 -1.823 0.28999999
-6.0440001 -0.583 -1.821 0.22
-6.0339999 -0.60100001 -1.819 0.18000001
-6.053 -0.62199998 -1.826 0.28
-6.04 -0.63999999 -1.822 0.23
-6.04 -0.65899998 -1.823 0.25999999
-6.0370002 -0.66900003 -1.822 0.25
-6.0539999 -0.69 -1.8279999 0.25
-6.0250001 -0.70599997 -1.819 0.22
-6.0339999 -0.72600001 -1.823 0.25999999
-6.0320001 -0.745 -1.823 0.25
-6.0139999 -0.76200002 -1.818 0.2
-6.033 -0.78299999 -1.825 0.27000001
-6.0279999 -0.792 -1.824 0.23
-6.0359998 -0.81300002 -1.827 0.25
-6.0089998 -0.829 -1.819 0.18000001
-6.0349998 -0.85100001 -1.829 0.28
-6.013 -0.86799997 -1.823 0.23
-6.0180001 -0.88800001 -1.825 0.27000001
-6.0250001 -0.90799999 -1.8279999 0.27000001
-6.02 -0.917 -1.827 0.25
-6.0050001 -0.93400002 -1.823 0.18000001
-6.0250001 -0.95599997 -1.83 0.30000001
-6.007 -0.97299999 -1.826 0.25
-6.013 -0.99299997 -1.829 0.27000001
-6.0100002 -1.012 -1.829 0.27000001
-6.0009999 -1.03 -1.827 0.20999999
-6.013 -1.0420001 -1.831 0.27000001
-6.006 -1.0599999 -1.83 0.25
-6.0120001 -1.08 -1.8329999 0.23999999
-5.9759998 -1.094 -1.823 0.17
-6.0009999 -1.118 -1.832 0.28999999
-5.9899998 -1.135 -1.829 0.23
-5.9959998 -1.156 -1.832 0.25
-5.9850001 -1.163 -1.829 0.30000001
-5.9790001 -1.182 -1.829 0.28
-5.9879999 -1.2029999 -1.8329999 0.27000001
-5.9860001 -1.222 -1.834 0.27000001
-5.9770002 -1.24 -1.832 0.31
-5.973 -1.2589999 -1.832 0.25999999
-5.973 -1.278 -1.8329999 0.30000001
-5.974 -1.298 -1.835 0.23
-5.9780002 -1.309 -1.837 0.28999999
-5.9640002 -1.325 -1.834 0.28999999
-5.96 -1.344 -1.834 0.30000001
-5.9489999 -1.3609999 -1.831 0.25999999
-5.9530001 -1.382 -1.834 0.25999999
-5.9530001 -1.402 -1.835 0.31
-5.9499998 -1.421 -1.836 0.25
-5.954 -1.431 -1.8380001 0.28999999
-5.9359999 -1.447 -1.834 0.25999999
-5.9260001 -1.464 -1.832 0.33000001
-5.934 -1.4859999 -1.836 0.30000001
-5.9499998 -1.51 -1.8430001 0.31999999
-5.9320002 -1.525 -1.8380001 0.30000001
-5.9159999 -1.541 -1.835 0.30000001
-5.927 -1.554 -1.839 0.28999999
-5.9029999 -1.567 -1.8329999 0.28999999
-5.902 -1.587 -1.834 0.28
-5.8920002 -1.604 -1.832 0.25999999
-5.888 -1.623 -1.8329999 0.14
-5.9050002 -1.647 -1.84 0
-5.9089999 -1.669 -1.8430001 0
-5.4860001 -2.155 -1.765 0.0099999998
-5.487 -2.175 -1.767 0.11
-5.4899998 -2.197 -1.771 0.20999999
-5.4780002 -2.2019999 -1.768 0.22
-5.4689999 -2.2179999 -1.767 0.25
-5.4569998 -2.233 -1.765 0.30000001
-5.4499998 -2.2509999 -1.765 0.28999999
-5.4310002 -2.263 -1.761 0.23
-5.4130001 -2.2750001 -1.757 0.30000001
-5.3920002 -2.286 -1.752 0.34
-5.3930001 -2.2969999 -1.7539999 0.43000001
-5.3629999 -2.3039999 -1.7460001 0.28999999
-5.3559999 -2.3210001 -1.7460001 0.36000001
-5.3470001 -2.3369999 -1.7460001 0.30000001
-5.348 -2.358 -1.749 0.31999999
-5.3319998 -2.3710001 -1.7460001 0.31
-5.3249998 -2.388 -1.7460001 0.34
-5.237 -2.368 -1.7180001 0.30000001
-5.2870002 -2.401 -1.737 0.30000001
-5.2940001 -2.424 -1.742 0.28999999
-5.2930002 -2.444 -1.744 0.30000001
-5.2820001 -2.4590001 -1.743 0.34
-5.2690001 -2.473 -1.7410001 0.28999999
-5.263 -2.49 -1.742 0.31
-5.25 -2.5039999 -1.74 0.30000001
-5.2529998 -2.516 -1.742 0.34
-5.2379999 -2.529 -1.74 0.30000001
-5.2199998 -2.54 -1.7359999 0.30000001
-5.2080002 -2.5550001 -1.735 0.31999999
-5.2049999 -2.5739999 -1.737 0.34999999
-5.204 -2.5940001 -1.739 0.31999999
-5.177 -2.6010001 -1.732 0.30000001
-5.178 -2.6110001 -1.734 0.33000001
-5.1630001 -2.6240001 -1.732 0.28999999
-5.1599998 -2.6429999 -1.734 0.34
-5.1469998 -2.6570001 -1.732 0.31999999
-5.1279998 -2.668 -1.728 0.28999999
-5.1230001 -2.6849999 -1.729 0.33000001
-5.1129999 -2.701 -1.729 0.28999999
-5.1069999 -2.7079999 -1.728 0.31999999
-5.0999999 -2.7249999 -1.729 0.33000001
-5.0799999 -2.734 -1.724 0.30000001
-5.0710001 -2.75 -1.724 0.30000001
-5.072 -2.7720001 -1.728 0.36000001
-5.0570002 -2.7839999 -1.726 0.31999999
-5.053 -2.803 -1.728 0.31
-5.0419998 -2.8069999 -1.725 0.30000001
-5.027 -2.819 -1.723 0.31
-5.0159998 -2.8340001 -1.722 0.31
-5.007 -2.8499999 -1.722 0.34
-5 -2.8659999 -1.723 0.30000001
-4.9809999 -2.8759999 -1.719 0.25999999
-4.9780002 -2.8959999 -1.721 0.36000001
-4.9619999 -2.8970001 -1.717 0.31
-4.948 -2.9100001 -1.715 0.31
-4.9390001 -2.925 -1.715 0.31999999
-4.9320002 -2.9419999 -1.716 0.34999999
-4.9219999 -2.957 -1.716 0.33000001
-4.9109998 -2.971 -1.715 0.34
-4.902 -2.987 -1.715 0.31999999
-4.8959999 -3.0039999 -1.717 0.34
-4.881 -3.006 -1.7130001 0.33000001
-4.882 -3.027 -1.717 0.31
-4.8639998 -3.0380001 -1.714 0.28999999
-4.8639998 -3.059 -1.717 0.38
-4.8299999 -3.059 -1.7079999 0.25999999
-4.8369999 -3.0840001 -1.714 0.34999999
-4.8169999 -3.0929999 -1.71 0.34
-4.8080001 -3.098 -1.709 0.31999999
-4.8010001 -3.115 -1.71 0.31999999
-4.7930002 -3.131 -1.71 0.27000001
-4.7880001 -3.1489999 -1.712 0.41999999
-4.7800002 -3.165 -1.7130001 0.33000001
-4.7680001 -3.1789999 -1.712 0.31999999
-4.7470002 -3.187 -1.7079999 0.34999999
-4.7420001 -3.194 -1.7079999 0.31999999
-4.737 -3.2119999 -1.71 0.31999999
-4.723 -3.2249999 -1.709 0.31
-4.71 -3.2379999 -1.707 0.31999999
-4.6919999 -3.247 -1.704 0.31999999
-4.677 -3.2590001 -1.7029999 0.33000001
-4.665 -3.2720001 -1.702 0.37
-4.6659999 -3.2839999 -1.704 0.31999999
-4.6420002 -3.289 -1.699 0.28999999
-4.6240001 -3.2980001 -1.696 0.31
-4.618 -3.316 -1.698 0.34
-4.6079998 -3.3299999 -1.698 0.31999999
-4.586 -3.3369999 -1.693 0.31999999
-4.5679998 -3.346 -1.6900001 0.30000001
-4.5580001 -3.349 -1.689 0.28999999
-4.5349998 -3.355 -1.684 0.30000001
-4.4829998 -3.3380001 -1.6670001 0.34999999
-3.8900001 -2.9200001 -1.4349999 0.28999999
-3.5969999 -2.72 -1.322 0.23
-3.4649999 -2.6389999 -1.273 0.28
-3.4449999 -2.6400001 -1.268 0.33000001
-3.425 -2.6340001 -1.262 0.34
-3.4000001 -2.632 -1.255 0.28999999
-3.3759999 -2.6300001 -1.248 0.36000001
-3.345 -2.6229999 -1.239 0.28999999
-3.332 -2.6300001 -1.237 0.36000001
-3.306 -2.6259999 -1.23 0.30000001
-3.2909999 -2.632 -1.227 0.37
-3.2679999 -2.622 -1.22 0.31999999
-3.2520001 -2.6259999 -1.217 0.36000001
-3.2160001 -2.6140001 -1.205 0.31
-3.204 -2.6210001 -1.204 0.31999999
-3.184 -2.622 -1.199 0.33000001
-3.158 -2.6170001 -1.192 0.34
-3.1429999 -2.6210001 -1.188 0.31999999
-3.1240001 -2.6229999 -1.184 0.34999999
-3.1140001 -2.6229999 -1.182 0.36000001
-3.0899999 -2.619 -1.175 0.38
-3.075 -2.6229999 -1.1720001 0.36000001
-3.062 -2.628 -1.17 0.38
-3.0510001 -2.6359999 -1.169 0.34999999
-3.04 -2.6429999 -1.168 0.31999999
-3.0309999 -2.652 -1.168 0.30000001
-3.0239999 -2.654 -1.1670001 0.31999999
-3.0139999 -2.6630001 -1.166 0.34
-2.997 -2.665 -1.1619999 0.33000001
-2.9920001 -2.677 -1.164 0.33000001
-2.9849999 -2.687 -1.164 0.31
-2.964 -2.6849999 -1.159 0.30000001
-2.9449999 -2.6860001 -1.154 0.28
-2.9400001 -2.6889999 -1.154 0.28999999
-2.9260001 -2.6930001 -1.151 0.30000001
-2.904 -2.691 -1.146 0.28
-2.8929999 -2.697 -1.145 0.30000001
-2.8659999 -2.6889999 -1.137 0.31999999
-2.8499999 -2.691 -1.133 0.28999999
-2.8329999 -2.6919999 -1.1289999 0.34999999
-2.813 -2.6819999 -1.123 0.30000001
-2.799 -2.6849999 -1.12 0.36000001
-2.777 -2.681 -1.114 0.34999999
-2.7149999 -2.638 -1.09 0.28999999
-2.675 -2.6159999 -1.076 0.27000001
-2.651 -2.609 -1.069 0.31999999
-2.622 -2.5969999 -1.0599999 0.33000001
-2.608 -2.592 -1.056 0.33000001
-2.599 -2.599 -1.0549999 0.37
-2.5840001 -2.5999999 -1.052 0.33000001
-2.566 -2.599 -1.048 0.34
-2.5539999 -2.6029999 -1.046 0.34
-2.5280001 -2.5929999 -1.038 0.36000001
-2.5220001 -2.6029999 -1.039 0.44
-2.5120001 -2.6010001 -1.036 0.31
-2.48 -2.5840001 -1.025 0.28
-2.4719999 -2.592 -1.025 0.31999999
-2.4649999 -2.6010001 -1.026 0.36000001
-2.441 -2.5929999 -1.0190001 0.36000001
-2.4319999 -2.599 -1.018 0.31999999
-2.4200001 -2.602 -1.016 0.31999999
-2.3989999 -2.5880001 -1.008 0.34999999
-2.3859999 -2.5910001 -1.006 0.34999999
-2.3800001 -2.5999999 -1.007 0.34999999
-2.3510001 -2.585 -0.99699998 0.34999999
-2.335 -2.5840001 -0.99400002 0.33000001
-2.332 -2.5969999 -0.99599999 0.38
-2.3069999 -2.586 -0.98799998 0.30000001
-2.303 -2.598 -0.99000001 0.34999999
-2.29 -2.5910001 -0.986 0.34
-2.266 -2.582 -0.97799999 0.31999999
-2.256 -2.586 -0.977 0.31999999
-2.25 -2.596 -0.97799999 0.31
-2.2360001 -2.596 -0.97500002 0.34999999
-2.2190001 -2.5929999 -0.97100002 0.30000001
-2.2119999 -2.6010001 -0.972 0.31
-2.1989999 -2.5940001 -0.96700001 0.33000001
-2.184 -2.5929999 -0.96399999 0.28999999
-2.1900001 -2.6170001 -0.97100002 0.37
-2.21 -2.6570001 -0.98500001 0.31
-2.3610001 -2.8540001 -1.064 0.27000001
-2.4749999 -3.0090001 -1.126 0.28999999
-2.506 -3.0650001 -1.146 0.27000001
-2.5120001 -3.082 -1.151 0.37
-2.5039999 -3.092 -1.152 0.34999999
-2.484 -3.0880001 -1.147 0.37
-2.471 -3.0910001 -1.145 0.36000001
-2.46 -3.0969999 -1.145 0.36000001
-2.438 -3.0899999 -1.1390001 0.36000001
-2.4219999 -3.089 -1.135 0.40000001
-2.4130001 -3.0880001 -1.133 0.34
-2.3989999 -3.0899999 -1.131 0.38999999
-2.381 -3.0869999 -1.126 0.38
-2.3659999 -3.0880001 -1.124 0.36000001
-2.349 -3.085 -1.12 0.34
-2.336 -3.089 -1.118 0.38
-2.3210001 -3.089 -1.115 0.36000001
-2.313 -3.0880001 -1.114 0.34999999
-2.2969999 -3.0880001 -1.1109999 0.34
-2.2809999 -3.086 -1.107 0.30000001
-2.26 -3.0780001 -1.101 0.31999999
-2.2420001 -3.0739999 -1.097 0.30000001
-2.2349999 -3.0840001 -1.098 0.36000001
-2.214 -3.076 -1.092 0.36000001
-2.21 -3.0810001 -1.092 0.37
-2.2 -3.0880001 -1.092 0.38
-2.1789999 -3.079 -1.086 0.34
-2.1689999 -3.085 -1.086 0.34999999
-2.1570001 -3.0880001 -1.084 0.34999999
-2.135 -3.0780001 -1.0779999 0.36000001
-2.1259999 -3.086 -1.0779999 0.36000001
-2.1140001 -3.0780001 -1.074 0.36000001
-2.102 -3.082 -1.073 0.36000001
-2.085 -3.0780001 -1.069 0.36000001
-2.0739999 -3.0829999 -1.068 0.36000001
-2.056 -3.076 -1.063 0.38
-2.0480001 -3.086 -1.064 0.37
-2.0350001 -3.0880001 -1.062 0.38
-2.0150001 -3.0780001 -1.056 0.38
-2.0039999 -3.072 -1.053 0.37
-1.9910001 -3.073 -1.051 0.36000001
-1.978 -3.075 -1.049 0.38999999
-1.962 -3.0710001 -1.045 0.40000001
-1.954 -3.079 -1.046 0.36000001
-1.937 -3.0739999 -1.0420001 0.34999999
-1.923 -3.0739999 -1.039 0.31999999
-1.921 -3.082 -1.041 0.36000001
-1.9 -3.0680001 -1.034 0.31
-1.896 -3.0840001 -1.0369999 0.34
-1.883 -3.085 -1.036 0.30000001
-1.8710001 -3.086 -1.034 0.34
-1.859 -3.089 -1.033 0.33000001
-1.857 -3.096 -1.034 0.33000001
-1.836 -3.0840001 -1.028 0.31999999
-1.831 -3.0969999 -1.03 0.31999999
-1.821 -3.102 -1.03 0.28999999
-1.799 -3.0869999 -1.022 0.27000001
-1.786 -3.0869999 -1.02 0.30000001
-1.778 -3.096 -1.022 0.31999999
-1.761 -3.0780001 -1.0140001 0.28999999
-1.75 -3.082 -1.013 0.31
-1.738 -3.082 -1.011 0.31999999
-1.723 -3.079 -1.008 0.31999999
-1.7079999 -3.075 -1.005 0.31999999
-1.691 -3.0669999 -1 0.34
-1.677 -3.0650001 -0.99699998 0.30000001
-1.661 -3.059 -0.99299997 0.33000001
-1.658 -3.0650001 -0.99400002 0.33000001
-1.6390001 -3.052 -0.98699999 0.33000001
-1.623 -3.0450001 -0.98299998 0.34
-1.619 -3.0599999 -0.98699999 0.36000001
-1.601 -3.05 -0.98100001 0.36000001
-1.594 -3.0599999 -0.98299998 0.34
-1.587 -3.0699999 -0.98500001 0.40000001
-1.582 -3.073 -0.98500001 0.36000001
-1.573 -3.079 -0.986 0.34
-1.558 -3.0739999 -0.98199999 0.28999999
-2.3380001 -4.618 -1.535 0.19
-2.329 -4.638 -1.539 0.34
-2.3180001 -4.652 -1.5420001 0.34999999
-2.3039999 -4.6609998 -1.5420001 0.33000001
-2.293 -4.6560001 -1.539 0.44999999
-2.2850001 -4.677 -1.544 0.28999999
-2.2609999 -4.665 -1.5369999 0.50999999
-2.2550001 -4.6890001 -1.544 0.34
-2.2409999 -4.698 -1.544 0.54000002
-2.221 -4.6950002 -1.541 0.38
-2.2079999 -4.7049999 -1.5420001 0.47999999
-2.2060001 -4.7210002 -1.546 0.5
-2.1860001 -4.7150002 -1.5420001 0.57999998
-2.1719999 -4.724 -1.5420001 0.55000001
-2.161 -4.7389998 -1.545 0.57999998
-2.1400001 -4.7340002 -1.541 0.56999999
-2.1259999 -4.743 -1.5420001 0.63999999
-2.115 -4.7579999 -1.545 0.58999997
-2.0969999 -4.737 -1.536 0.47999999
-2.086 -4.7519999 -1.539 0.5
-2.0739999 -4.7659998 -1.5420001 0.46000001
-2.056 -4.7649999 -1.539 0.5
-2.04 -4.77 -1.539 0.46000001
-2.023 -4.7709999 -1.5369999 0.51999998
-2.0079999 -4.777 -1.5369999 0.38
-1.998 -4.7750001 -1.535 0.44999999
-1.983 -4.7810001 -1.535 0.38999999
-1.96 -4.7680001 -1.528 0.44999999
-1.947 -4.7779999 -1.53 0.40000001
-1.934 -4.789 -1.531 0.41
-1.9119999 -4.7800002 -1.526 0.38999999
-1.896 -4.7839999 -1.525 0.38
-1.893 -4.7969999 -1.529 0.36000001
-1.876 -4.7979999 -1.527 0.38999999
-1.862 -4.8060002 -1.528 0.31999999
-1.849 -4.8169999 -1.53 0.33000001
-1.829 -4.8099999 -1.525 0.33000001
-1.816 -4.823 -1.528 0.31999999
-1.804 -4.836 -1.53 0.34
-1.7869999 -4.8379998 -1.529 0.36000001
-1.777 -4.8330002 -1.527 0.33000001
-1.763 -4.8429999 -1.528 0.34
-1.7460001 -4.8429999 -1.526 0.34
-1.729 -4.8449998 -1.525 0.33000001
-1.7180001 -4.8610001 -1.528 0.34
-1.701 -4.8610001 -1.527 0.33000001
-1.691 -4.8579998 -1.525 0.31999999
-1.679 -4.8720002 -1.528 0.38
-1.6569999 -4.8579998 -1.521 0.31
-1.643 -4.8670001 -1.522 0.30000001
-1.633 -4.888 -1.528 0.40000001
-1.612 -4.8769999 -1.522 0.31
-1.599 -4.8870001 -1.524 0.33000001
-1.591 -4.888 -1.523 0.31999999
-1.572 -4.882 -1.52 0.31999999
-1.5599999 -4.8979998 -1.523 0.38
-1.545 -4.9050002 -1.524 0.31
-1.528 -4.9060001 -1.523 0.31999999
-1.512 -4.9070001 -1.522 0.31999999
-1.499 -4.9190001 -1.524 0.37
-1.4859999 -4.9050002 -1.5190001 0.31999999
-1.474 -4.9219999 -1.523 0.36000001
-1.459 -4.9289999 -1.523 0.31
-1.441 -4.9219999 -1.52 0.31999999
-1.426 -4.9299998 -1.521 0.33000001
-1.413 -4.9419999 -1.523 0.38
-1.392 -4.927 -1.517 0.30000001
-1.378 -4.9380002 -1.5190001 0.31999999
-1.37 -4.9400001 -1.5190001 0.33000001
-1.355 -4.9450002 -1.5190001 0.31999999
-1.34 -4.9530001 -1.52 0.37
-1.323 -4.9489999 -1.518 0.31999999
-1.309 -4.9590001 -1.52 0.37
-1.29 -4.9499998 -1.516 0.28999999
-1.278 -4.967 -1.52 0.37
-1.267 -4.9580002 -1.516 0.31
-1.255 -4.9749999 -1.52 0.36000001
-1.239 -4.9790001 -1.52 0.31
-1.219 -4.9640002 -1.5140001 0.31999999
-1.206 -4.9809999 -1.5190001 0.36000001
-1.1900001 -4.9809999 -1.517 0.31
-1.174 -4.9850001 -1.517 0.36000001
-1.165 -4.9790001 -1.515 0.30000001
-1.15 -4.9879999 -1.517 0.34
-1.135 -4.9920001 -1.517 0.34999999
-1.12 -4.9990001 -1.518 0.31999999
-1.1059999 -5.0120001 -1.521 0.31999999
-1.091 -5.0170002 -1.522 0.31999999
-1.073 -5.0110002 -1.5190001 0.31
-1.067 -5.0219998 -1.522 0.46000001
-1.0470001 -5.0050001 -1.515 0.31999999
-1.031 -5.007 -1.5140001 0.38999999
-1.015 -5.0100002 -1.5140001 0.30000001
-1 -5.0149999 -1.515 0.36000001
-0.98299998 -5.0139999 -1.5140001 0.34999999
-0.96700001 -5.0139999 -1.513 0.28999999
-0.95999998 -5.0190001 -1.5140001 0.36000001
-0.94199997 -5.0139999 -1.511 0.30000001
-0.92799997 -5.0250001 -1.5140001 0.36000001
-0.91000003 -5.0180001 -1.511 0.30000001
-0.89600003 -5.027 -1.513 0.37
-0.87900001 -5.0219998 -1.51 0.31999999
-0.86500001 -5.0359998 -1.5140001 0.36000001
-0.85500002 -5.0279999 -1.511 0.28999999
-0.83999997 -5.033 -1.511 0.36000001
-0.82200003 -5.026 -1.508 0.31999999
-0.80800003 -5.04 -1.512 0.38
-0.792 -5.04 -1.511 0.31999999
-0.77600002 -5.0370002 -1.5089999 0.31999999
-0.76099998 -5.0469999 -1.512 0.37
-0.75199997 -5.0440001 -1.511 0.31999999
-0.736 -5.0430002 -1.5089999 0.31999999
-0.72100002 -5.053 -1.512 0.38999999
-0.70499998 -5.0510001 -1.511 0.31999999
-0.68699998 -5.0419998 -1.507 0.31999999
-0.67199999 -5.046 -1.508 0.38
-0.65600002 -5.0500002 -1.508 0.31999999
-0.64899999 -5.0549998 -1.5089999 0.33000001
-0.63200003 -5.0510001 -1.508 0.31999999
-0.61799997 -5.0669999 -1.512 0.37
-0.60100001 -5.059 -1.5089999 0.31
-0.58499998 -5.059 -1.508 0.36000001
-0.56900001 -5.059 -1.508 0.30000001
-0.55299997 -5.0609999 -1.508 0.38
-0.54500002 -5.0669999 -1.5089999 0.31999999
-0.52899998 -5.0669999 -1.5089999 0.31999999
-0.51300001 -5.0669999 -1.508 0.31999999
-0.49700001 -5.0679998 -1.508 0.37
-0.48199999 -5.0770001 -1.511 0.30000001
-0.465 -5.0710001 -1.508 0.36000001
-0.449 -5.073 -1.508 0.31
-0.442 -5.0770001 -1.5089999 0.31999999
-0.42500001 -5.0669999 -1.506 0.31999999
-0.40900001 -5.0689998 -1.506 0.33000001
-0.39399999 -5.079 -1.5089999 0.33000001
-0.37599999 -5.0630002 -1.503 0.31999999
-0.361 -5.072 -1.506 0.31999999
-0.34599999 -5.0879998 -1.511 0.33000001
-0.329 -5.0689998 -1.5039999 0.31999999
-0.322 -5.0840001 -1.5089999 0.38
-0.30599999 -5.0819998 -1.508 0.31
-0.289 -5.0669999 -1.503 0.31999999
-0.273 -5.0700002 -1.503 0.31999999
-0.25799999 -5.0819998 -1.507 0.31999999
-0.241 -5.066 -1.502 0.31999999
-0.233 -5.072 -1.503 0.38
-0.21699999 -5.073 -1.503 0.31
-0.20100001 -5.0640001 -1.5 0.31999999
-0.185 -5.0640001 -1.5 0.31999999
-0.169 -5.0760002 -1.5039999 0.31999999
-0.153 -5.066 -1.5 0.33000001
-0.13699999 -5.0619998 -1.499 0.31999999
-0.12899999 -5.066 -1.5 0.31999999
-0.113 -5.053 -1.4960001 0.33000001
-0.097000003 -5.0689998 -1.501 0.38
-0.082000002 -5.0710001 -1.502 0.31999999
-0.066 -5.073 -1.502 0.33000001
-0.050000001 -5.0700002 -1.501 0.31999999
-0.034000002 -5.073 -1.502 0.33000001
-0.026000001 -5.0619998 -1.499 0.33000001
-0.0099999998 -5.0700002 -1.501 0.33000001
0.0060000001 -5.0869999 -1.506 0.34
0.022 -5.0580001 -1.497 0.34
0.037999999 -5.0700002 -1.501 0.34999999
0.054000001 -5.0689998 -1.501 0.34
0.07 -5.0619998 -1.499 0.34
0.086000003 -5.0630002 -1.499 0.34
0.093999997 -5.0689998 -1.501 0.33000001
0.11 -5.0630002 -1.499 0.38
0.125 -5.0640001 -1.5 0.31
0.141 -5.066 -1.5 0.33000001
0.15700001 -5.0539999 -1.497 0.31999999
0.17299999 -5.0570002 -1.498 0.33000001
0.18099999 -5.059 -1.499 0.33000001
0.197 -5.053 -1.497 0.34
0.213 -5.0599999 -1.499 0.31999999
0.229 -5.059 -1.499 0.31999999
0.244 -5.0510001 -1.497 0.33000001
0.25999999 -5.0479999 -1.4960001 0.33000001
0.27599999 -5.053 -1.498 0.33000001
0.28400001 -5.052 -1.498 0.31999999
0.30000001 -5.0510001 -1.498 0.31999999
0.31600001 -5.0479999 -1.497 0.31999999
0.33199999 -5.0549998 -1.5 0.33000001
0.34799999 -5.0479999 -1.498 0.34
0.36399999 -5.0549998 -1.5 0.31999999
0.37900001 -5.0440001 -1.497 0.31999999
0.38800001 -5.0510001 -1.5 0.38
0.403 -5.046 -1.499 0.31999999
0.419 -5.0469999 -1.499 0.33000001
0.435 -5.0489998 -1.5 0.34
0.45100001 -5.0500002 -1.501 0.33000001
0.46700001 -5.0419998 -1.499 0.34
0.48300001 -5.0430002 -1.5 0.33000001
0.49900001 -5.0450001 -1.501 0.31999999
0.50700003 -5.0409999 -1.5 0.34
0.52200001 -5.033 -1.498 0.34999999
0.53799999 -5.033 -1.499 0.34999999
0.55400002 -5.0359998 -1.5 0.36000001
0.56900001 -5.0279999 -1.498 0.34
0.58499998 -5.0229998 -1.497 0.33000001
0.59299999 -5.027 -1.499 0.34
0.60799998 -5.0180001 -1.4960001 0.34999999
0.625 -5.0250001 -1.499 0.38
0.64099997 -5.0250001 -1.5 0.37
0.65899998 -5.0380001 -1.505 0.34999999
0.67199999 -5.0190001 -1.499 0.23
0.69099998 -5.0419998 -1.507 0.25999999
0.70300001 -5.0689998 -1.516 0
0.71399999 -5.0310001 -1.505 0
0.727 -5.006 -1.497 0
0.745 -5.0240002 -1.5039999 0
0.76300001 -5.0370002 -1.5089999 0
0.77899998 -5.033 -1.508 0
0.79699999 -5.0450001 -1.513 0
1.675 -3.0899999 -1.0039999 0
1.683 -3.082 -1.003 0
1.692 -3.075 -1.002 0
1.707 -3.0799999 -1.006 0.059999999
1.705 -3.052 -0.99800003 0.18000001
1.7029999 -3.0380001 -0.99400002 0.25
1.7 -3.0090001 -0.98500001 0.28999999
1.704 -2.9960001 -0.98199999 0.30000001
1.7079999 -2.98 -0.97799999 0.28
1.715 -2.97 -0.977 0.27000001
1.722 -2.961 -0.97500002 0.27000001
1.73 -2.964 -0.977 0.27000001
1.735 -2.9519999 -0.97500002 0.28
1.753 -2.961 -0.98000002 0.27000001
1.7589999 -2.95 -0.97799999 0.31999999
1.766 -2.9400001 -0.977 0.28
1.774 -2.9330001 -0.97600001 0.25999999
1.788 -2.9349999 -0.97899997 0.2
1.8380001 -3.0079999 -1.007 0.23999999
1.878 -3.052 -1.026 0.30000001
1.899 -3.066 -1.033 0.38
1.911 -3.063 -1.034 0.38
1.926 -3.0650001 -1.0369999 0.37
1.938 -3.0639999 -1.039 0.38
1.947 -3.056 -1.039 0.37
1.9579999 -3.063 -1.0420001 0.36000001
1.975 -3.0680001 -1.0470001 0.36000001
1.983 -3.0599999 -1.046 0.38999999
1.998 -3.062 -1.049 0.36000001
2.0150001 -3.0669999 -1.053 0.36000001
2.0220001 -3.0569999 -1.052 0.38
2.033 -3.053 -1.053 0.36000001
2.053 -3.062 -1.059 0.34999999
2.0580001 -3.059 -1.059 0.36000001
2.0699999 -3.056 -1.0599999 0.34
2.0899999 -3.0650001 -1.066 0.36000001
2.095 -3.052 -1.064 0.38
2.1099999 -3.053 -1.067 0.36000001
2.128 -3.059 -1.072 0.38
2.1389999 -3.0539999 -1.072 0.33000001
2.1570001 -3.0699999 -1.079 0.34
2.1730001 -3.072 -1.0829999 0.28999999
2.1789999 -3.0610001 -1.081 0.28
2.1949999 -3.063 -1.085 0.31999999
2.2149999 -3.0699999 -1.09 0.31999999
2.221 -3.059 -1.089 0.34999999
2.233 -3.0639999 -1.092 0.37
2.2550001 -3.0739999 -1.099 0.36000001
2.2620001 -3.0639999 -1.098 0.38
2.2809999 -3.069 -1.103 0.34
2.2969999 -3.0710001 -1.1059999 0.36000001
2.306 -3.063 -1.1059999 0.36000001
2.3210001 -3.063 -1.109 0.36000001
2.336 -3.073 -1.114 0.36000001
2.3410001 -3.0599999 -1.112 0.38999999
2.3529999 -3.0550001 -1.113 0.38
2.3710001 -3.0580001 -1.117 0.38999999
2.336 -2.994 -1.094 0.41
2.2449999 -2.8570001 -1.0420001 0.31999999
2.1459999 -2.711 -0.986 0.27000001
2.053 -2.5739999 -0.93300003 0.27000001
2.066 -2.5829999 -0.93800002 0.34
2.085 -2.5899999 -0.94300002 0.31999999
2.0799999 -2.5669999 -0.93599999 0.30000001
2.095 -2.569 -0.94 0.30000001
2.1099999 -2.572 -0.94400001 0.30000001
2.115 -2.5610001 -0.94199997 0.30000001
2.1300001 -2.563 -0.94499999 0.31
2.145 -2.573 -0.95099998 0.31
2.155 -2.569 -0.95200002 0.31999999
2.1659999 -2.5650001 -0.95300001 0.34
2.1789999 -2.5639999 -0.95599997 0.28999999
2.1819999 -2.5510001 -0.95300001 0.36000001
2.201 -2.5580001 -0.95899999 0.30000001
2.2260001 -2.5710001 -0.96700001 0.31999999
2.23 -2.5669999 -0.96700001 0.34999999
2.24 -2.562 -0.96799999 0.34
2.2550001 -2.563 -0.972 0.34999999
2.266 -2.559 -0.97299999 0.33000001
2.2850001 -2.5650001 -0.97799999 0.34999999
2.302 -2.5680001 -0.98299998 0.34
2.3069999 -2.566 -0.98299998 0.34999999
2.323 -2.5669999 -0.98699999 0.34999999
2.3399999 -2.569 -0.991 0.34999999
2.348 -2.562 -0.991 0.36000001
2.3640001 -2.563 -0.995 0.34999999
2.381 -2.566 -0.99900001 0.34999999
2.4000001 -2.5710001 -1.005 0.34
2.404 -2.5669999 -1.005 0.34
2.4260001 -2.573 -1.011 0.34
2.437 -2.5699999 -1.012 0.38
2.4489999 -2.566 -1.0140001 0.33000001
2.471 -2.572 -1.02 0.34
2.4790001 -2.5650001 -1.02 0.34
2.497 -2.5680001 -1.025 0.38
2.5239999 -2.579 -1.034 0.34999999
2.527 -2.5739999 -1.033 0.37
2.572 -2.6040001 -1.05 0.37
2.605 -2.622 -1.062 0.30000001
2.6500001 -2.6500001 -1.0779999 0.31999999
2.6689999 -2.6530001 -1.0829999 0.30000001
2.6860001 -2.654 -1.087 0.36000001
2.707 -2.658 -1.0930001 0.34
2.714 -2.6559999 -1.094 0.34999999
2.7360001 -2.661 -1.1 0.31
2.7479999 -2.6559999 -1.102 0.34
2.7620001 -2.6530001 -1.104 0.33000001
2.7809999 -2.655 -1.109 0.31
2.7939999 -2.6500001 -1.1109999 0.28999999
2.812 -2.6500001 -1.115 0.28999999
2.8169999 -2.6470001 -1.1160001 0.30000001
2.8269999 -2.6400001 -1.117 0.31
2.835 -2.631 -1.117 0.28999999
2.852 -2.6300001 -1.12 0.30000001
2.8610001 -2.622 -1.1210001 0.31
2.872 -2.6159999 -1.122 0.31
2.8900001 -2.6159999 -1.126 0.31
2.8900001 -2.6070001 -1.125 0.34
2.9059999 -2.605 -1.128 0.34999999
2.921 -2.602 -1.131 0.30000001
2.9260001 -2.5899999 -1.1289999 0.33000001
2.938 -2.585 -1.131 0.34999999
2.961 -2.5880001 -1.137 0.33000001
2.9749999 -2.5840001 -1.14 0.37
2.984 -2.5840001 -1.142 0.34999999
3.003 -2.5829999 -1.146 0.34999999
3.016 -2.579 -1.149 0.34999999
3.039 -2.582 -1.155 0.33000001
3.063 -2.586 -1.1619999 0.31999999
3.0769999 -2.5810001 -1.164 0.31999999
3.0969999 -2.5810001 -1.169 0.31999999
3.115 -2.589 -1.175 0.34999999
3.1259999 -2.5810001 -1.176 0.31
3.1589999 -2.592 -1.187 0.34999999
3.1719999 -2.586 -1.188 0.30000001
3.1919999 -2.586 -1.193 0.36000001
3.2149999 -2.5880001 -1.199 0.34999999
3.2360001 -2.5880001 -1.205 0.31999999
3.253 -2.5940001 -1.21 0.31
3.26 -2.5829999 -1.21 0.23
3.3080001 -2.605 -1.226 0.31999999
3.3429999 -2.615 -1.237 0.2
4.178 -3.2550001 -1.573 0.22
4.2080002 -3.257 -1.581 0.30000001
4.2210002 -3.2460001 -1.5829999 0.33000001
4.2280002 -3.2409999 -1.5829999 0.34
4.2449999 -3.234 -1.586 0.31999999
4.2459998 -3.2130001 -1.5829999 0.31
4.2639999 -3.2060001 -1.586 0.31999999
4.2820001 -3.198 -1.589 0.33000001
4.2789998 -3.175 -1.584 0.34
4.2870002 -3.171 -1.585 0.34999999
4.3039999 -3.1619999 -1.587 0.25999999
4.309 -3.145 -1.586 0.38
4.316 -3.1289999 -1.584 0.31999999
4.3379998 -3.125 -1.589 0.30000001
4.3379998 -3.1040001 -1.586 0.31
4.3600001 -3.0999999 -1.59 0.34
4.3610001 -3.089 -1.589 0.30000001
4.3610001 -3.069 -1.585 0.30000001
4.3800001 -3.062 -1.589 0.36000001
4.3909998 -3.049 -1.589 0.31999999
4.3850002 -3.0239999 -1.5829999 0.30000001
4.395 -3.0109999 -1.5829999 0.31
4.4169998 -3.006 -1.5880001 0.31999999
4.421 -2.9879999 -1.586 0.31999999
4.4180002 -2.9760001 -1.5829999 0.31
4.4289999 -2.9630001 -1.584 0.31
4.4239998 -2.9400001 -1.5779999 0.27000001
4.447 -2.9349999 -1.584 0.44
4.4549999 -2.9200001 -1.5829999 0.30000001
4.4749999 -2.914 -1.587 0.38999999
4.4970002 -2.908 -1.592 0.33000001
4.5050001 -2.9030001 -1.594 0.27000001
4.5219998 -2.8940001 -1.597 0.33000001
4.5279999 -2.878 -1.595 0.23999999
4.5469999 -2.8699999 -1.599 0.30000001
4.5409999 -2.846 -1.594 0.28999999
4.5469999 -2.8299999 -1.592 0.31999999
4.5669999 -2.823 -1.597 0.34
4.5549998 -2.8050001 -1.59 0.28999999
4.5640001 -2.7909999 -1.59 0.34999999
4.5809999 -2.7820001 -1.594 0.31
4.573 -2.757 -1.587 0.31999999
4.5999999 -2.7539999 -1.594 0.37
4.6090002 -2.7390001 -1.594 0.31
4.6020002 -2.7160001 -1.589 0.33000001
4.6079998 -2.71 -1.589 0.33000001
4.6300001 -2.7030001 -1.594 0.31999999
4.6240001 -2.6800001 -1.589 0.34
4.6479998 -2.675 -1.595 0.34
4.6700001 -2.668 -1.6 0.34
4.6669998 -2.6470001 -1.595 0.34
4.6820002 -2.6359999 -1.598 0.34
4.6890001 -2.6300001 -1.599 0.34
4.6919999 -2.6129999 -1.597 0.33000001
4.7090001 -2.602 -1.6 0.33000001
4.7189999 -2.589 -1.601 0.38
4.717 -2.5680001 -1.597 0.31
4.7329998 -2.5580001 -1.6 0.33000001
4.7449999 -2.5450001 -1.601 0.34
4.7420001 -2.5339999 -1.599 0.31999999
4.7670002 -2.5280001 -1.605 0.37
4.7750001 -2.513 -1.605 0.30000001
4.7789998 -2.4960001 -1.604 0.31999999
4.7849998 -2.48 -1.603 0.34
4.79 -2.4630001 -1.602 0.31999999
4.8070002 -2.454 -1.6059999 0.34
4.8179998 -2.45 -1.608 0.34
4.822 -2.4330001 -1.607 0.34
4.8280001 -2.4170001 -1.6059999 0.33000001
4.8410001 -2.404 -1.608 0.34
4.855 -2.392 -1.6109999 0.33000001
4.8629999 -2.3770001 -1.6109999 0.33000001
4.8720002 -2.3629999 -1.6109999 0.38999999
4.8740001 -2.3540001 -1.6109999 0.31999999
4.881 -2.339 -1.6109999 0.31999999
4.8990002 -2.3280001 -1.614 0.36000001
4.8959999 -2.3080001 -1.6109999 0.31
4.915 -2.2980001 -1.615 0.31999999
4.9260001 -2.2839999 -1.6160001 0.31999999
4.9400001 -2.2720001 -1.618 0.33000001
4.9380002 -2.2620001 -1.617 0.38
4.9419999 -2.2449999 -1.615 0.31
4.9510002 -2.23 -1.6160001 0.31999999
4.9580002 -2.2149999 -1.6160001 0.31999999
4.98 -2.2060001 -1.622 0.38
4.9819999 -2.188 -1.62 0.31
4.9819999 -2.1689999 -1.617 0.31999999
4.9959998 -2.1659999 -1.6210001 0.33000001
4.9949999 -2.1470001 -1.618 0.33000001
5.006 -2.1329999 -1.62 0.31999999
5.0190001 -2.1199999 -1.622 0.34
5.026 -2.105 -1.622 0.34
5.0430002 -2.0929999 -1.626 0.34
5.0510001 -2.0780001 -1.626 0.34
5.0510001 -2.069 -1.625 0.33000001
5.072 -2.059 -1.63 0.33000001
5.0960002 -2.05 -1.636 0.36000001
5.118 -2.04 -1.642 0.34
5.1490002 -2.0339999 -1.65 0.34999999
5.1890001 -2.0309999 -1.6619999 0.34
5.2399998 -2.0320001 -1.677 0.25
5.2610002 -2.0309999 -1.683 0.25
5.2989998 -2.027 -1.694 0.25999999
5.3449998 -2.0250001 -1.707 0.38
5.3330002 -2.0020001 -1.701 0.27000001
5.3470001 -1.988 -1.704 0.28
5.369 -1.977 -1.709 0.31999999
5.3769999 -1.961 -1.71 0.31999999
5.3779998 -1.952 -1.709 0.30000001
5.3860002 -1.9349999 -1.71 0.31999999
5.408 -1.924 -1.715 0.34
5.402 -1.903 -1.711 0.30000001
5.4169998 -1.8890001 -1.714 0.34
5.4190001 -1.8710001 -1.7130001 0.31999999
5.4229999 -1.853 -1.712 0.28999999
5.4239998 -1.844 -1.712 0.33000001
5.4299998 -1.827 -1.712 0.28999999
5.4390001 -1.811 -1.7130001 0.30000001
5.4520001 -1.796 -1.715 0.31999999
5.4580002 -1.779 -1.715 0.34
5.454 -1.7589999 -1.712 0.27000001
5.4689999 -1.745 -1.715 0.28999999
5.4699998 -1.7359999 -1.715 0.30000001
5.4840002 -1.721 -1.7180001 0.31999999
5.493 -1.705 -1.719 0.28999999
5.4980001 -1.688 -1.719 0.27000001
5.4949999 -1.668 -1.716 0.27000001
5.5159998 -1.656 -1.721 0.30000001
5.507 -1.6339999 -1.717 0.33000001
5.513 -1.626 -1.7180001 0.30000001
5.5180001 -1.609 -1.7180001 0.25
5.527 -1.5930001 -1.719 0.31999999
5.5240002 -1.573 -1.717 0.30000001
5.5440001 -1.5599999 -1.721 0.28999999
5.5310001 -1.5369999 -1.715 0.31999999
5.546 -1.523 -1.719 0.28999999
5.5560002 -1.516 -1.721 0.33000001
5.5479999 -1.495 -1.717 0.31999999
5.5510001 -1.478 -1.717 0.27000001
5.5609999 -1.462 -1.7180001 0.34
5.573 -1.446 -1.721 0.25999999
5.579 -1.429 -1.721 0.28999999
5.5910001 -1.413 -1.724 0.28999999
5.579 -1.401 -1.719 0.28
5.592 -1.386 -1.722 0.30000001
5.6059999 -1.37 -1.725 0.28999999
5.586 -1.347 -1.717 0.25999999
5.599 -1.331 -1.72 0.33000001
5.6020002 -1.313 -1.72 0.25
5.6020002 -1.295 -1.7180001 0.28
5.599 -1.285 -1.717 0.28999999
5.6230001 -1.272 -1.723 0.25
5.612 -1.251 -1.7180001 0.28
5.6090002 -1.232 -1.716 0.19
5.6350002 -1.219 -1.723 0.28999999
5.6220002 -1.198 -1.7180001 0.25
5.6259999 -1.1799999 -1.7180001 0.27000001
5.6370001 -1.173 -1.721 0.18000001
5.6399999 -1.155 -1.721 0.27000001
5.6360002 -1.136 -1.7180001 0.23
5.6529999 -1.1210001 -1.723 0.30000001
5.6440001 -1.101 -1.7180001 0.25999999
5.6300001 -1.08 -1.7130001 0.16
5.6669998 -1.068 -1.724 0.28999999
5.6409998 -1.054 -1.715 0.25
5.6479998 -1.0369999 -1.716 0.17
5.6789999 -1.025 -1.725 0.27000001
5.665 -1.0039999 -1.72 0.23999999
5.6609998 -0.98500001 -1.717 0.2
5.6739998 -0.96799999 -1.72 0.27000001
5.6669998 -0.949 -1.717 0.23
5.6820002 -0.94199997 -1.721 0.20999999
5.6880002 -0.92500001 -1.723 0.23
5.6760001 -0.90499997 -1.7180001 0.22
5.6729999 -0.88599998 -1.716 0.15000001
5.6929998 -0.87099999 -1.721 0.28999999
5.6750002 -0.85000002 -1.715 0.23999999
5.691 -0.83399999 -1.719 0.23
5.6890001 -0.824 -1.7180001 0.19
5.691 -0.80599999 -1.7180001 0.30000001
5.6939998 -0.78899997 -1.7180001 0.23
5.7020001 -0.77200001 -1.72 0.18000001
5.7080002 -0.75400001 -1.721 0.25999999
5.71 -0.736 -1.721 0.19
5.7140002 -0.71799999 -1.721 0.25
5.6939998 -0.69800001 -1.714 0.23
5.7010002 -0.68900001 -1.716 0.17
5.7140002 -0.67299998 -1.72 0.25999999
5.7090001 -0.65399998 -1.717 0.19
5.7259998 -0.63800001 -1.722 0.14
5.7259998 -0.62 -1.721 0.20999999
5.7179999 -0.60100001 -1.7180001 0.2
5.7319999 -0.58399999 -1.722 0.23999999
5.7309999 -0.57499999 -1.721 0.2
5.7059999 -0.55400002 -1.7130001 0.20999999
5.7360001 -0.53899997 -1.722 0.28
5.723 -0.51899999 -1.717 0.25
5.7259998 -0.50199997 -1.7180001 0.25
5.7280002 -0.484 -1.7180001 0.19
5.7449999 -0.47600001 -1.723 0.27000001
5.7350001 -0.45699999 -1.72 0.23
5.737 -0.43900001 -1.72 0.25999999
5.7399998 -0.421 -1.72 0.23
5.7220001 -0.40200001 -1.714 0.2
5.7459998 -0.38499999 -1.721 0.30000001
5.7420001 -0.36700001 -1.72 0.25
5.7459998 -0.35800001 -1.721 0.27000001
5.7459998 -0.34 -1.72 0.27000001
5.7449999 -0.322 -1.72 0.28999999
5.7420001 -0.30399999 -1.7180001 0.25999999
5.7579999 -0.28600001 -1.723 0.25
5.7490001 -0.26800001 -1.72 0.25999999
5.7519999 -0.25 -1.721 0.27000001
5.7519999 -0.241 -1.721 0.28
5.7529998 -0.223 -1.721 0.27000001
5.75 -0.204 -1.72 0.28999999
5.7529998 -0.186 -1.72 0.28
5.7680001 -0.169 -1.725 0.27000001
5.7610002 -0.15000001 -1.723 0.27000001
5.7579999 -0.132 -1.721 0.30000001
5.7470002 -0.123 -1.7180001 0.28999999
5.757 -0.105 -1.721 0.28999999
5.757 -0.086999997 -1.721 0.28999999
5.7680001 -0.068999998 -1.724 0.25999999
5.7649999 -0.050999999 -1.723 0.28
5.7610002 -0.033 -1.722 0.28999999
5.7649999 -0.015 -1.723 0.27000001
5.7690001 -0.0060000001 -1.724 0.28
5.5229998 0.0020000001 -1.709 0.33000001
5.5300002 0.018999999 -1.712 0.34999999
5.5240002 0.037 -1.71 0.28999999
5.5279999 0.054000001 -1.711 0.30000001
5.5300002 0.071999997 -1.712 0.33000001
5.5219998 0.079999998 -1.709 0.27000001
5.5370002 0.097999997 -1.714 0.33000001
5.5250001 0.115 -1.711 0.27000001
5.5250001 0.132 -1.711 0.34
5.5380001 0.15000001 -1.715 0.34
5.5159998 0.167 -1.7079999 0.28999999
5.5349998 0.185 -1.714 0.33000001
5.5359998 0.20200001 -1.715 0.25999999
5.5380001 0.211 -1.716 0.34
5.5349998 0.228 -1.715 0.31
5.527 0.245 -1.712 0.28999999
5.5320001 0.26300001 -1.714 0.33000001
5.533 0.28 -1.715 0.31
5.5190001 0.29699999 -1.711 0.25999999
5.527 0.315 -1.714 0.34
5.5279999 0.324 -1.714 0.31
5.527 0.34099999 -1.714 0.31
5.5240002 0.35800001 -1.714 0.28999999
5.5289998 0.37599999 -1.716 0.28999999
5.5409999 0.39500001 -1.72 0.34
5.5229998 0.41100001 -1.714 0.25999999
5.5289998 0.42899999 -1.717 0.30000001
5.5229998 0.43700001 -1.715 0.31
5.5170002 0.454 -1.714 0.28999999
5.5079999 0.47 -1.711 0.27000001
5.5300002 0.49000001 -1.719 0.33000001
5.5219998 0.50700003 -1.717 0.30000001
5.5339999 0.52499998 -1.721 0.34999999
5.527 0.542 -1.719 0.31
5.5139999 0.55000001 -1.716 0.28
5.5219998 0.56800002 -1.719 0.34999999
5.5300002 0.58600003 -1.722 0.27000001
5.5159998 0.602 -1.7180001 0.28999999
5.526 0.62099999 -1.722 0.34
5.5240002 0.63800001 -1.722 0.28999999
5.5120001 0.65499997 -1.719 0.28
5.5110002 0.66299999 -1.719 0.28999999
5.526 0.68300003 -1.724 0.34
5.5149999 0.699 -1.721 0.30000001
5.5089998 0.71600002 -1.72 0.27000001
5.5100002 0.73400003 -1.721 0.30000001
5.4970002 0.74900001 -1.7180001 0.31999999
5.5089998 0.76899999 -1.723 0.30000001
5.5 0.77600002 -1.72 0.31
5.5019999 0.79400003 -1.721 0.31
5.494 0.81 -1.719 0.31999999
5.4889998 0.82700002 -1.719 0.30000001
5.4920001 0.84600002 -1.721 0.33000001
5.4910002 0.86299998 -1.721 0.30000001
5.5 0.88200003 -1.725 0.28999999
5.4780002 0.88700002 -1.7180001 0.31999999
5.4860001 0.90700001 -1.722 0.33000001
5.4780002 0.92299998 -1.72 0.28999999
5.4790001 0.94099998 -1.721 0.34
5.4829998 0.95899999 -1.724 0.30000001
5.4689999 0.97399998 -1.72 0.28999999
5.4749999 0.99299997 -1.723 0.31
5.4770002 1.003 -1.724 0.37
5.474 1.02 -1.724 0.28
5.4520001 1.033 -1.7180001 0.28
5.4640002 1.053 -1.723 0.34
5.461 1.071 -1.723 0.27000001
5.448 1.086 -1.72 0.34
5.4439998 1.103 -1.72 0.28999999
5.4520001 1.113 -1.723 0.34999999
5.428 1.126 -1.716 0.30000001
5.4499998 1.149 -1.725 0.34999999
5.441 1.165 -1.723 0.30000001
5.4250002 1.179 -1.719 0.31
5.4299998 1.198 -1.722 0.31999999
5.428 1.216 -1.723 0.28999999
5.4299998 1.225 -1.724 0.34999999
5.4169998 1.24 -1.721 0.30000001
5.428 1.26 -1.726 0.34
5.4000001 1.272 -1.7180001 0.28999999
5.3969998 1.289 -1.7180001 0.28
5.4039998 1.309 -1.722 0.36000001
5.3889999 1.323 -1.7180001 0.23
5.4089999 1.337 -1.726 0.34
5.4000001 1.353 -1.724 0.1
5.4060001 1.372 -1.728 0.17
5.3730001 1.382 -1.7180001 0.20999999
5.3759999 1.4 -1.72 0.34999999
5.375 1.418 -1.721 0.31
5.3649998 1.434 -1.719 0.31999999
5.3600001 1.451 -1.719 0.33000001
5.3540001 1.4579999 -1.7180001 0.31
5.3629999 1.478 -1.723 0.31999999
5.3540001 1.494 -1.721 0.31999999
5.3439999 1.5089999 -1.719 0.31999999
5.3429999 1.527 -1.721 0.34
5.3400002 1.545 -1.721 0.28999999
5.3470001 1.556 -1.724 0.38999999
5.336 1.571 -1.723 0.27000001
5.3260002 1.586 -1.721 0.25
5.3280001 1.605 -1.723 0.38
5.316 1.619 -1.721 0.30000001
5.323 1.64 -1.725 0.34
5.3039999 1.652 -1.72 0.30000001
5.3140001 1.665 -1.724 0.34
5.3049998 1.6799999 -1.723 0.30000001
5.2989998 1.697 -1.723 0.36000001
5.2919998 1.7130001 -1.723 0.28
5.2979999 1.733 -1.726 0.30000001
5.2919998 1.75 -1.726 0.36000001
5.2709999 1.761 -1.721 0.30000001
5.2930002 1.778 -1.729 0.36000001
5.2709999 1.789 -1.724 0.25999999
5.2729998 1.808 -1.726 0.38999999
5.2649999 1.824 -1.726 0.30000001
5.2610002 1.841 -1.726 0.37
5.2410002 1.852 -1.721 0.25
5.2529998 1.875 -1.728 0.31999999
5.2280002 1.8839999 -1.721 0.30000001
5.2410002 1.898 -1.726 0.31999999
5.2399998 1.9170001 -1.728 0.34
5.223 1.929 -1.724 0.31999999
5.2069998 1.942 -1.721 0.25
5.2270002 1.9680001 -1.73 0.38999999
5.2030001 1.978 -1.724 0.28999999
5.2090001 1.999 -1.728 0.37
5.2030001 2.006 -1.727 0.25
5.1929998 2.0209999 -1.726 0.33000001
5.1929998 2.04 -1.728 0.30000001
5.1869998 2.056 -1.728 0.31
5.1810002 2.072 -1.728 0.28999999
5.1690001 2.0869999 -1.726 0.31999999
5.1830001 2.1110001 -1.734 0.34
5.1609998 2.112 -1.727 0.28
5.1539998 2.128 -1.727 0.28999999
5.1560001 2.148 -1.73 0.28999999
5.1529999 2.165 -1.7309999 0.31999999
5.1459999 2.1819999 -1.7309999 0.30000001
5.1490002 2.2019999 -1.735 0.28
5.1220002 2.2 -1.726 0.33000001
5.1290002 2.2219999 -1.7309999 0.34
5.118 2.2360001 -1.73 0.28
5.1040001 2.2490001 -1.728 0.30000001
5.1139998 2.273 -1.734 0.33000001
5.1090002 2.29 -1.734 0.28
5.0900002 2.3010001 -1.73 0.28
5.0840001 2.3169999 -1.7309999 0.31999999
5.0910001 2.3299999 -1.734 0.28999999
5.0679998 2.339 -1.729 0.28999999
5.0619998 2.3559999 -1.729 0.30000001
5.053 2.3710001 -1.729 0.25999999
5.0489998 2.388 -1.73 0.33000001
5.0450001 2.4059999 -1.7309999 0.30000001
5.0440001 2.425 -1.734 0.34
5.0349998 2.4300001 -1.732 0.30000001
5.0359998 2.45 -1.735 0.27000001
5.039 2.471 -1.739 0.31999999
5.027 2.4849999 -1.738 0.31
5.0159998 2.4990001 -1.7359999 0.27000001
5.013 2.5179999 -1.738 0.31999999
5.0050001 2.533 -1.738 0.28
4.993 2.5369999 -1.735 0.31
4.9920001 2.556 -1.738 0.31999999
4.9819999 2.5710001 -1.737 0.28999999
4.974 2.586 -1.737 0.31
4.9720001 2.6059999 -1.74 0.31
4.9580002 2.618 -1.737 0.28999999
4.954 2.6359999 -1.739 0.27000001
4.9450002 2.641 -1.737 0.28999999
4.9439998 2.6600001 -1.74 0.30000001
4.9349999 2.6760001 -1.74 0.28999999
4.9229999 2.6889999 -1.738 0.30000001
4.9169998 2.7060001 -1.739 0.31999999
4.9130001 2.724 -1.7410001 0.33000001
4.8979998 2.7360001 -1.738 0.28
4.8940001 2.743 -1.738 0.31
4.8870001 2.76 -1.739 0.30000001
4.8889999 2.7820001 -1.743 0.31999999
4.8629999 2.786 -1.7359999 0.28
4.8569999 2.8039999 -1.738 0.27000001
4.8509998 2.8210001 -1.739 0.34
4.8520002 2.8310001 -1.7410001 0.31
4.8410001 2.846 -1.74 0.34
4.8309999 2.8599999 -1.74 0.31999999
4.822 2.875 -1.74 0.34
4.809 2.888 -1.738 0.30000001
4.796 2.9000001 -1.7359999 0.31999999
4.803 2.925 -1.743 0.33000001
4.7919998 2.9389999 -1.742 0.28999999
4.7789998 2.9419999 -1.739 0.30000001
4.7750001 2.96 -1.7410001 0.30000001
4.7639999 2.974 -1.74 0.31
4.7579999 2.9909999 -1.7410001 0.34
4.7470002 3.0050001 -1.7410001 0.33000001
4.7470002 3.026 -1.745 0.33000001
4.7319999 3.0380001 -1.743 0.30000001
4.7259998 3.0439999 -1.742 0.31999999
4.7199998 3.0610001 -1.743 0.31999999
4.7080002 3.075 -1.743 0.31
4.71 3.0969999 -1.747 0.31
4.6950002 3.108 -1.745 0.31
4.6929998 3.128 -1.748 0.37
4.671 3.135 -1.743 0.28999999
4.671 3.145 -1.745 0.34
4.6539998 3.1559999 -1.743 0.31
4.6490002 3.1730001 -1.745 0.31
4.6440001 3.191 -1.7460001 0.33000001
4.6279998 3.201 -1.744 0.30000001
4.625 3.221 -1.747 0.30000001
4.6199999 3.2390001 -1.749 0.30000001
4.6020002 3.2379999 -1.744 0.30000001
4.5910001 3.2509999 -1.743 0.31
4.5960002 3.277 -1.75 0.31
4.5749998 3.283 -1.745 0.34999999
4.5710001 3.302 -1.748 0.28999999
4.5749998 3.3280001 -1.7539999 0.34
4.5469999 3.3280001 -1.7460001 0.28999999
