# .PCD v0.7 - Point Cloud Data file format
VERSION 0.7
FIELDS x y z intensity
SIZE 4 4 4 4
TYPE F F F F
COUNT 1 1 1 1
WIDTH 1376
HEIGHT 1
VIEWPOINT 0 0 0 1 0 0 0
POINTS 1376
DATA ascii
3.855 4.7270002 -1.534 0.34
3.8 4.6890001 -1.517 0.43000001
3.7780001 4.6919999 -1.5140001 0.34999999
3.7179999 4.6459999 -1.494 0.34999999
3.7 4.6550002 -1.493 0.36000001
3.733 4.711 -1.51 0.37
3.744 4.756 -1.522 0.38
3.7160001 4.7509999 -1.516 0.38
3.6819999 4.7379999 -1.508 0.31999999
3.6429999 4.7179999 -1.497 0.27000001
3.6270001 4.7280002 -1.4960001 0.43000001
3.6199999 4.75 -1.5 0.36000001
3.589 4.7249999 -1.489 0.38
3.622 4.7989998 -1.511 0.41
3.5840001 4.7800002 -1.5 0.34
3.572 4.7950001 -1.502 0.27000001
3.585 4.8460002 -1.515 0.44
3.5420001 4.8179998 -1.502 0.37
3.507 4.802 -1.493 0.37
3.595 4.9390001 -1.5369999 0.38999999
3.4879999 4.823 -1.494 0.34999999
3.506 4.882 -1.51 0.31999999
3.3989999 4.7620001 -1.467 0.38
3.411 4.8119998 -1.48 0.31999999
3.3599999 4.77 -1.4630001 0.36000001
3.3410001 4.776 -1.461 0.34999999
3.4960001 5.0159998 -1.538 0.34
3.398 4.9060001 -1.499 0.28999999
3.5 5.0890002 -1.5549999 0.27000001
3.484 5.0999999 -1.5549999 0.46000001
3.4660001 5.1100001 -1.5549999 0.25999999
3.345 4.9629998 -1.503 0.37
3.3989999 5.0780001 -1.5369999 0.31999999
3.3299999 4.9920001 -1.508 0.40000001
3.02 4.5539999 -1.362 0.25
3.339 5.0739999 -1.527 0.37
3.3369999 5.1059999 -1.534 0.40000001
3.2650001 5.0300002 -1.507 0.25999999
3.3169999 5.1459999 -1.541 0.43000001
3.1440001 4.9089999 -1.461 0.28999999
3.267 5.1389999 -1.5319999 0.28
3.375 5.329 -1.591 0.38
3.29 5.23 -1.556 0.31
3.2390001 5.184 -1.538 0.23999999
3.3710001 5.4359999 -1.615 0.38
3.2880001 5.3379998 -1.58 0.36000001
3.25 5.3130002 -1.569 0.36000001
3.02 4.9699998 -1.457 0.31999999
3.1329999 5.1760001 -1.521 0.20999999
3.0580001 5.0869999 -1.49 0.20999999
3.029 5.0749998 -1.483 0.54000002
3.2130001 5.4239998 -1.59 0.28999999
3.2190001 5.474 -1.602 0.28
3.233 5.539 -1.62 0.34
3.1530001 5.4390001 -1.585 0.25999999
3.164 5.4790001 -1.596 0.34999999
2.973 5.1830001 -1.501 0.16
3.194 5.6129999 -1.632 0.41999999
3.154 5.5830002 -1.619 0.28999999
3.152 5.6209998 -1.628 0.30000001
3.1329999 5.6279998 -1.627 0.23999999
3.1040001 5.6170001 -1.6210001 0.5
3.089 5.632 -1.622 0.31999999
3.0739999 5.625 -1.619 0.31999999
3.052 5.6279998 -1.617 0.31999999
3.0309999 5.6300001 -1.614 0.34999999
3.007 5.6279998 -1.6109999 0.31999999
2.9809999 5.6220002 -1.6059999 0.27000001
2.961 5.6259999 -1.605 0.23999999
2.9430001 5.6360002 -1.605 0.46000001
2.931 5.6329999 -1.602 0.34
2.9100001 5.6370001 -1.601 0.36000001
2.8870001 5.6339998 -1.597 0.31999999
2.862 5.6300001 -1.5930001 0.25
2.839 5.6279998 -1.59 0.37
2.8180001 5.6300001 -1.5880001 0.30000001
2.7969999 5.632 -1.586 0.30000001
2.7869999 5.6350002 -1.585 0.31
2.7679999 5.6399999 -1.584 0.30000001
2.743 5.6350002 -1.58 0.34
2.7249999 5.6420002 -1.579 0.31
2.7030001 5.6409998 -1.577 0.31
2.684 5.6459999 -1.576 0.31999999
2.661 5.6440001 -1.573 0.31999999
2.6470001 5.6609998 -1.575 0.30000001
2.632 5.652 -1.571 0.30000001
2.612 5.6560001 -1.5700001 0.28999999
2.595 5.664 -1.5700001 0.30000001
2.576 5.671 -1.569 0.28999999
2.5610001 5.684 -1.571 0.27000001
2.5380001 5.6820002 -1.568 0.28999999
2.516 5.6810002 -1.5650001 0.30000001
2.51 5.6900001 -1.567 0.28999999
2.4979999 5.7119999 -1.571 0.27000001
2.5610001 5.908 -1.627 0.11
2.6400001 6.1469998 -1.6950001 0.2
2.6860001 6.3099999 -1.74 0.23
2.687 6.368 -1.755 0.23
2.675 6.3959999 -1.761 0.36000001
2.664 6.3969998 -1.76 0.33000001
2.6289999 6.369 -1.749 0.20999999
2.595 6.3439999 -1.739 0.31999999
2.598 6.4089999 -1.756 0.27000001
2.575 6.4099998 -1.7539999 0.25999999
2.5539999 6.414 -1.753 0.33000001
2.5179999 6.3829999 -1.7410001 0.2
1.816 4.6040001 -1.222 0.18000001
1.773 4.5359998 -1.201 0.41
2.48 6.4330001 -1.75 0.27000001
2.4419999 6.3940001 -1.737 0.28999999
2.4170001 6.3889999 -1.733 0.28
2.3970001 6.3979998 -1.733 0.25999999
2.3670001 6.3790002 -1.726 0.18000001
2.3329999 6.348 -1.715 0.28999999
2.3380001 6.3909998 -1.726 0.23999999
2.3 6.3499999 -1.712 0.25999999
2.276 6.3439999 -1.7079999 0.28999999
2.2579999 6.3569999 -1.71 0.2
2.2479999 6.3930001 -1.7180001 0.28
1.659 4.7459998 -1.243 0.25
2.2130001 6.4229999 -1.723 0.25999999
2.204 6.4289999 -1.723 0.28
2.187 6.447 -1.727 0.28
2.1630001 6.441 -1.723 0.28999999
2.1389999 6.4359999 -1.72 0.31
2.119 6.4450002 -1.72 0.30000001
2.096 6.4419999 -1.7180001 0.30000001
2.073 6.4419999 -1.716 0.28999999
2.063 6.4429998 -1.715 0.30000001
2.04 6.4419999 -1.7130001 0.30000001
2.02 6.448 -1.7130001 0.28
1.997 6.4460001 -1.71 0.28999999
1.978 6.4549999 -1.711 0.28
1.952 6.4429998 -1.706 0.30000001
1.932 6.4489999 -1.706 0.27000001
1.908 6.4439998 -1.7029999 0.30000001
1.89 6.421 -1.696 0.20999999
1.873 6.4359999 -1.698 0.15000001
1.847 6.4239998 -1.693 0.20999999
1.829 6.4369998 -1.6950001 0.28
1.811 6.448 -1.697 0.28999999
1.79 6.4520001 -1.696 0.25999999
1.768 6.4499998 -1.694 0.27000001
1.755 6.4450002 -1.692 0.30000001
1.7309999 6.434 -1.687 0.28
1.7079999 6.428 -1.684 0.28999999
1.693 6.4559999 -1.6900001 0.25999999
1.67 6.448 -1.687 0.28
1.649 6.4530001 -1.687 0.28
1.628 6.4549999 -1.686 0.28
1.607 6.4580002 -1.6849999 0.27000001
1.5930001 6.4460001 -1.681 0.28
1.573 6.4489999 -1.6799999 0.28
1.552 6.4520001 -1.6799999 0.28
1.527 6.4380002 -1.675 0.31
1.5089999 6.4499998 -1.677 0.27000001
1.168 5.039 -1.283 0.28999999
1.464 6.441 -1.6720001 0.28999999
1.457 6.454 -1.675 0.30000001
1.431 6.434 -1.668 0.30000001
1.4119999 6.4460001 -1.67 0.25999999
1.3940001 6.4619999 -1.673 0.28999999
1.369 6.4439998 -1.6670001 0.28
1.35 6.4520001 -1.668 0.30000001
1.329 6.454 -1.6670001 0.28
1.316 6.441 -1.663 0.31
1.2970001 6.4510002 -1.665 0.31
1.274 6.4400001 -1.661 0.28
1.2539999 6.447 -1.6619999 0.31999999
1.233 6.447 -1.661 0.30000001
1.2130001 6.4489999 -1.66 0.28999999
1.189 6.4359999 -1.655 0.28
1.169 6.4400001 -1.655 0.31
1.155 6.4190001 -1.649 0.30000001
1.138 6.4400001 -1.654 0.28999999
1.117 6.4390001 -1.653 0.28999999
1.095 6.4330001 -1.65 0.30000001
1.075 6.4390001 -1.651 0.30000001
1.054 6.434 -1.649 0.28999999
1.033 6.4380002 -1.649 0.28999999
1.021 6.4239998 -1.6440001 0.28999999
0.99900001 6.4180002 -1.642 0.28999999
0.97899997 6.421 -1.642 0.28999999
0.958 6.4180002 -1.64 0.28999999
0.93800002 6.4190001 -1.64 0.28999999
0.92000002 6.4369998 -1.6440001 0.33000001
0.89700001 6.421 -1.6390001 0.28
0.88599998 6.4169998 -1.637 0.31
0.86500001 6.4159999 -1.636 0.28999999
0.84500003 6.414 -1.635 0.28999999
0.824 6.4130001 -1.6339999 0.20999999
0.80299997 6.4060001 -1.631 0.31999999
0.64999998 5.2870002 -1.325 0.22
0.764 6.4250002 -1.635 0.30000001
0.74400002 6.427 -1.635 0.28999999
0.73299998 6.4200001 -1.633 0.28999999
0.713 6.4260001 -1.6339999 0.28999999
0.69400001 6.434 -1.635 0.30000001
0.67299998 6.4349999 -1.635 0.28999999
0.65100002 6.4190001 -1.63 0.30000001
0.63200003 6.4289999 -1.632 0.28999999
0.61199999 6.4349999 -1.633 0.30000001
0.602 6.434 -1.633 0.28999999
0.57999998 6.4200001 -1.6289999 0.28999999
0.56 6.4260001 -1.63 0.28
0.53899997 6.4200001 -1.628 0.28999999
0.51899999 6.4239998 -1.628 0.28
0.498 6.4120002 -1.624 0.30000001
0.479 6.427 -1.628 0.27000001
0.46900001 6.4299998 -1.6289999 0.28
0.449 6.4289999 -1.628 0.27000001
0.428 6.4130001 -1.623 0.30000001
0.40799999 6.4200001 -1.625 0.28999999
0.38800001 6.4250002 -1.626 0.25
0.36700001 6.4190001 -1.624 0.18000001
0.347 6.4120002 -1.622 0.28999999
0.33700001 6.4180002 -1.623 0.25
0.317 6.421 -1.624 0.2
0.296 6.4169998 -1.622 0.25999999
0.27599999 6.4099998 -1.62 0.23999999
0.25600001 6.4260001 -1.624 0.20999999
0.236 6.415 -1.6210001 0.25
0.215 6.414 -1.6210001 0.20999999
0.19499999 6.4190001 -1.622 0.11
0.185 6.4109998 -1.62 0.20999999
0.16500001 6.414 -1.62 0.11
0.145 6.414 -1.62 0.18000001
0.125 6.415 -1.62 0.2
0.105 6.4250002 -1.623 0.1
0.085000001 6.4250002 -1.623 0.090000004
0.064000003 6.4250002 -1.623 0.090000004
0.054000001 6.4190001 -1.6210001 0.090000004
0.034000002 6.4289999 -1.624 0.079999998
0.014 6.4120002 -1.619 0.039999999
-0.0060000001 6.4099998 -1.619 0
-0.026000001 6.414 -1.62 0
-0.046999998 6.4169998 -1.6210001 0
-0.067000002 6.4169998 -1.6210001 0
-0.086999997 6.4190001 -1.6210001 0
-0.097999997 6.4460001 -1.6289999 0
-0.117 6.428 -1.624 0
-0.11 5.3299999 -1.326 0
-0.15700001 6.4000001 -1.617 0
-0.178 6.4169998 -1.6210001 0
-0.198 6.4200001 -1.622 0
-0.21699999 6.395 -1.6160001 0
-0.229 6.4390001 -1.628 0
-0.249 6.428 -1.625 0
-0.26499999 6.3390002 -1.601 0
-0.289 6.427 -1.625 0
-0.31 6.441 -1.6289999 0
-0.331 6.4520001 -1.632 0
-0.352 6.4580002 -1.6339999 0
-0.373 6.4650002 -1.636 0
-0.382 6.4510002 -1.633 0
-0.40200001 6.4530001 -1.6339999 0
-0.42199999 6.4499998 -1.633 0
-0.44299999 6.4510002 -1.6339999 0
-0.463 6.4489999 -1.6339999 0
-0.484 6.4499998 -1.6339999 0
-0.50099999 6.4169998 -1.626 0
-0.51200002 6.4200001 -1.627 0.029999999
-0.53200001 6.421 -1.628 0.029999999
-0.55199999 6.4130001 -1.626 0.029999999
-0.57099998 6.4000001 -1.623 0.029999999
-0.59100002 6.402 -1.624 0.039999999
-0.61199999 6.4099998 -1.627 0.039999999
-0.63200003 6.4000001 -1.624 0.039999999
-0.64300001 6.414 -1.6289999 0.07
-0.66399997 6.4159999 -1.63 0.15000001
-0.68400002 6.414 -1.63 0.039999999
-0.704 6.408 -1.6289999 0.16
-0.72299999 6.3979998 -1.627 0.050000001
-0.74400002 6.4050002 -1.6289999 0.17
-0.76499999 6.4109998 -1.631 0.20999999
-0.78500003 6.408 -1.631 0.1
-0.79699999 6.4219999 -1.635 0.18000001
-0.81599998 6.4060001 -1.632 0.22
-0.83600003 6.408 -1.633 0.19
-0.85699999 6.4070001 -1.633 0.23999999
-0.87900001 6.421 -1.638 0.18000001
-0.898 6.4070001 -1.635 0.25
-0.917 6.4000001 -1.6339999 0.23
-0.92799997 6.4050002 -1.635 0.19
-0.94999999 6.4089999 -1.638 0.28
-0.97000003 6.4050002 -1.637 0.25
-0.991 6.4070001 -1.6390001 0.25999999
-1.01 6.402 -1.638 0.27000001
-1.031 6.4050002 -1.64 0.27000001
-1.052 6.4029999 -1.64 0.27000001
-1.074 6.4109998 -1.643 0.28
-1.086 6.4190001 -1.646 0.25999999
-1.107 6.4229999 -1.648 0.28999999
-1.128 6.4260001 -1.65 0.28
-1.147 6.414 -1.647 0.30000001
-1.166 6.4050002 -1.646 0.27000001
-1.1900001 6.4200001 -1.651 0.28
-1.21 6.4180002 -1.652 0.30000001
-1.221 6.4180002 -1.652 0.28999999
-1.242 6.4180002 -1.653 0.28999999
-1.265 6.428 -1.6569999 0.28999999
-1.2819999 6.4099998 -1.653 0.28999999
-1.306 6.4250002 -1.658 0.28999999
-1.326 6.4169998 -1.6569999 0.28999999
-1.346 6.4169998 -1.658 0.31
-1.359 6.4239998 -1.661 0.30000001
-1.377 6.4120002 -1.659 0.30000001
-1.398 6.4120002 -1.66 0.30000001
-1.4220001 6.4239998 -1.665 0.31
-1.4400001 6.4099998 -1.6619999 0.28
-1.461 6.408 -1.663 0.28999999
-1.483 6.414 -1.666 0.28999999
-1.503 6.408 -1.665 0.30000001
-1.5140001 6.4070001 -1.666 0.28999999
-1.536 6.4099998 -1.668 0.28999999
-1.556 6.4070001 -1.668 0.30000001
-1.5779999 6.408 -1.67 0.30000001
-1.602 6.4200001 -1.675 0.28999999
-1.6210001 6.4109998 -1.674 0.28999999
-1.642 6.4089999 -1.675 0.31999999
-1.656 6.4200001 -1.678 0.30000001
-1.676 6.415 -1.678 0.30000001
-1.7 6.4219999 -1.682 0.28999999
-1.721 6.4229999 -1.684 0.30000001
-1.743 6.4229999 -1.6849999 0.28999999
-1.765 6.4229999 -1.687 0.28999999
-1.789 6.4299998 -1.6900001 0.28999999
-1.798 6.4239998 -1.689 0.28
-1.822 6.4310002 -1.693 0.28
-1.845 6.4349999 -1.696 0.27000001
-1.864 6.427 -1.6950001 0.28999999
-1.887 6.428 -1.697 0.28999999
-1.908 6.428 -1.699 0.28999999
-1.931 6.4289999 -1.701 0.30000001
-1.952 6.4250002 -1.701 0.30000001
-1.967 6.4400001 -1.707 0.28999999
-1.984 6.421 -1.7029999 0.28
-2.01 6.4330001 -1.7079999 0.30000001
-2.029 6.4250002 -1.7079999 0.25999999
-2.0539999 6.4320002 -1.711 0.31999999
-2.0780001 6.4380002 -1.715 0.30000001
-2.099 6.4330001 -1.716 0.30000001
-2.1059999 6.4229999 -1.714 0.25999999
-2.128 6.4219999 -1.715 0.31999999
-2.154 6.4310002 -1.72 0.28999999
-2.174 6.4229999 -1.719 0.30000001
-2.2 6.4320002 -1.724 0.30000001
-2.2219999 6.4330001 -1.726 0.28
-2.2460001 6.4349999 -1.729 0.31
-2.253 6.4219999 -1.726 0.28
-2.28 6.4349999 -1.732 0.28999999
-2.3010001 6.4299998 -1.732 0.30000001
-2.322 6.4239998 -1.733 0.27000001
-2.3469999 6.4310002 -1.737 0.27000001
-2.369 6.4289999 -1.739 0.28999999
-2.3889999 6.4200001 -1.738 0.27000001
-2.415 6.4289999 -1.743 0.28
-2.4260001 6.427 -1.743 0.28999999
-2.451 6.4320002 -1.747 0.28999999
-2.473 6.427 -1.748 0.28999999
-2.4960001 6.427 -1.75 0.30000001
-2.516 6.4190001 -1.75 0.30000001
-2.5420001 6.427 -1.755 0.30000001
-2.5650001 6.4250002 -1.756 0.30000001
-2.5769999 6.4260001 -1.758 0.28999999
-2.602 6.428 -1.761 0.28999999
-2.6259999 6.4310002 -1.7640001 0.28999999
-2.6489999 6.428 -1.766 0.28999999
-2.6719999 6.427 -1.768 0.30000001
-2.687 6.408 -1.765 0.28999999
-2.717 6.4219999 -1.772 0.31999999
-2.737 6.4120002 -1.771 0.28
-2.75 6.415 -1.773 0.28999999
-2.7609999 6.3850002 -1.767 0.2
-2.796 6.4099998 -1.777 0.31
-2.793 6.3499999 -1.762 0.2
-2.8410001 6.4029999 -1.78 0.30000001
-2.8429999 6.355 -1.7690001 0.23999999
-2.846 6.309 -1.758 0.30000001
-2.8840001 6.3660002 -1.776 0.27000001
-2.914 6.3779998 -1.7819999 0.27000001
-2.931 6.362 -1.78 0.27000001
-2.9649999 6.382 -1.789 0.27000001
-2.9909999 6.3850002 -1.793 0.27000001
-3.0050001 6.3629999 -1.789 0.27000001
-3.0309999 6.368 -1.793 0.27000001
-3.049 6.3790002 -1.798 0.25999999
-3.0739999 6.3800001 -1.801 0.28
-3.102 6.3860002 -1.806 0.28999999
-3.1259999 6.3839998 -1.808 0.28
-3.1559999 6.395 -1.8150001 0.25999999
-3.1830001 6.3969998 -1.818 0.30000001
-3.201 6.3839998 -1.817 0.37
-3.2309999 6.3930001 -1.823 0.31
-3.2539999 6.4130001 -1.831 0.27000001
-3.283 6.4200001 -1.836 0.36000001
-3.2869999 6.3790002 -1.827 0.22
-3.313 6.381 -1.83 0.38999999
-3.339 6.381 -1.834 0.36000001
-3.3529999 6.3600001 -1.83 0.23999999
-3.391 6.3829999 -1.841 0.16
-3.3399999 6.2399998 -1.8 0.16
-3.2809999 6.1079998 -1.761 0.22
-3.1819999 5.8800001 -1.694 0.19
-3.1129999 5.7129998 -1.645 0.28
-3.1229999 5.6880002 -1.64 0.28999999
-3.141 5.678 -1.64 0.28999999
-3.155 5.6620002 -1.638 0.28
-3.1689999 5.645 -1.636 0.30000001
-3.1789999 5.6420002 -1.636 0.30000001
-3.2030001 5.6430001 -1.64 0.28999999
-3.22 5.632 -1.64 0.31999999
-3.243 5.632 -1.643 0.31999999
-3.26 5.6199999 -1.642 0.28
-3.289 5.6290002 -1.649 0.36000001
-3.3050001 5.6160002 -1.647 0.30000001
-3.3239999 5.6269999 -1.653 0.31999999
-3.3440001 5.6220002 -1.654 0.31
-3.3670001 5.619 -1.6569999 0.31
-3.388 5.6139998 -1.658 0.31999999
-3.4130001 5.6160002 -1.663 0.31999999
-3.4330001 5.6090002 -1.664 0.31
-3.461 5.6139998 -1.669 0.30000001
-3.4849999 5.6129999 -1.6720001 0.33000001
-3.4979999 5.6139998 -1.674 0.28
-3.5250001 5.618 -1.679 0.34999999
-3.5439999 5.6100001 -1.6799999 0.34999999
-3.569 5.6100001 -1.684 0.31999999
-3.595 5.612 -1.688 0.31999999
-3.619 5.6100001 -1.691 0.31999999
-3.6440001 5.6100001 -1.6950001 0.34
-3.641 5.5869999 -1.689 0.31999999
-3.668 5.5900002 -1.694 0.17
-3.704 5.6059999 -1.7029999 0.51999998
-3.727 5.6020002 -1.705 0.33000001
-3.7539999 5.605 -1.71 0.38999999
-3.78 5.6040001 -1.714 0.31
-3.8050001 5.6030002 -1.717 0.33000001
-3.8299999 5.6020002 -1.721 0.31999999
-3.842 5.6009998 -1.722 0.34
-3.852 5.5780001 -1.719 0.30000001
-3.869 5.566 -1.719 0.33000001
-3.915 5.5929999 -1.732 0.37
-3.891 5.5219998 -1.712 0.31999999
-3.974 5.6030002 -1.743 0.34
-3.9990001 5.5999999 -1.747 0.37
-4.0040002 5.5890002 -1.745 0.38
-4.0170002 5.5700002 -1.743 0.36000001
-4.013 5.5279999 -1.733 0.31
-4.0560002 5.5489998 -1.744 0.30000001
-4.0760002 5.5409999 -1.7460001 0.41999999
-4.1040001 5.5419998 -1.751 0.36000001
-4.1220002 5.5289998 -1.751 0.38999999
-4.0669999 5.421 -1.7180001 0.28999999
-4.1199999 5.473 -1.738 0.31999999
-4.119 5.4369998 -1.73 0.41999999
-4.1479998 5.4390001 -1.7359999 0.23999999
-4.1900001 5.4580002 -1.747 0.34
-4.1900001 5.4239998 -1.739 0.31999999
-4.2030001 5.4039998 -1.737 0.47999999
-4.0809999 5.2150002 -1.676 0.25
-4.223 5.3779998 -1.735 0.38999999
-4.1729999 5.2810001 -1.706 0.31999999
-4.2670002 5.3639998 -1.739 0.36000001
-4.3099999 5.3829999 -1.751 0.37
-4.3369999 5.382 -1.755 0.30000001
-4.3369999 5.3470001 -1.748 0.46000001
-4.2849998 5.25 -1.7180001 0.36000001
-4.2490001 5.1900001 -1.699 0.31999999
-4.2379999 5.1440001 -1.688 0.41999999
-4.3130002 5.2020001 -1.7130001 0.36000001
-4.2449999 5.0879998 -1.677 0.34
-4.3169999 5.1399999 -1.701 0.31
-4.3940001 5.197 -1.726 0.41999999
-4.3610001 5.1259999 -1.706 0.38
-4.3449998 5.092 -1.696 0.34999999
-4.3340001 5.0469999 -1.6849999 0.31
-4.3720002 5.059 -1.694 0.33000001
-4.3649998 5.0190001 -1.684 0.34
-4.4650002 5.0999999 -1.719 0.41
-4.4169998 5.0139999 -1.693 0.34
-4.4219999 4.9889998 -1.688 0.38
-4.4840002 5.027 -1.707 0.43000001
-4.5359998 5.0679998 -1.725 0.28
-4.5180001 5.0170002 -1.711 0.41999999
-4.5289998 4.9970002 -1.709 0.34
-4.5430002 4.9809999 -1.709 0.37
-4.5609999 4.9699998 -1.71 0.36000001
-4.5510001 4.927 -1.699 0.28
-4.572 4.9180002 -1.701 0.5
-4.5819998 4.914 -1.7029999 0.37
-4.6329999 4.9380002 -1.717 0.31
-4.658 4.9330001 -1.72 0.47999999
-4.6009998 4.8429999 -1.692 0.34
-4.6100001 4.8210001 -1.689 0.20999999
-4.677 4.8610001 -1.71 0.44999999
-4.507 4.6560001 -1.638 0.34
-4.4450002 4.5640001 -1.608 0.25
-4.4920001 4.5970001 -1.623 0.36000001
-4.4720001 4.5489998 -1.61 0.25999999
-4.3839998 4.4320002 -1.571 0.28
-4.3979998 4.4180002 -1.571 0.47
-4.625 4.6149998 -1.652 0.25999999
-4.7880001 4.7470002 -1.709 0.43000001
-4.7750001 4.7049999 -1.698 0.33000001
-4.6999998 4.6160002 -1.6670001 0.30000001
-4.7670002 4.6529999 -1.687 0.37
-4.7270002 4.585 -1.666 0.27000001
-4.789 4.6160002 -1.684 0.38
-4.8309999 4.6269999 -1.6950001 0.38999999
-4.8600001 4.625 -1.7 0.23
-4.848 4.585 -1.6900001 0.55000001
-4.8530002 4.5760002 -1.689 0.43000001
-4.8390002 4.5349998 -1.679 0.28
-4.8270001 4.494 -1.669 0.44
-4.8579998 4.4949999 -1.675 0.37
-4.849 4.4590001 -1.6670001 0.41999999
-4.8000002 4.3860002 -1.6440001 0.31999999
-4.8299999 4.3860002 -1.65 0.41999999
-4.8319998 4.3600001 -1.645 0.31
-4.8140001 4.3309999 -1.636 0.38999999
-4.8400002 4.3260002 -1.641 0.38
-4.842 4.3000002 -1.636 0.31
-4.8699999 4.2979999 -1.642 0.49000001
-4.8959999 4.2940001 -1.646 0.33000001
-4.8860002 4.2579999 -1.638 0.37
-4.9229999 4.263 -1.646 0.37
-4.9159999 4.244 -1.642 0.31
-4.9369998 4.2350001 -1.6440001 0.38999999
-4.973 4.2379999 -1.652 0.38
-4.9679999 4.2069998 -1.646 0.31999999
-5.0349998 4.2360001 -1.665 0.38999999
-5.0580001 4.2290001 -1.668 0.38999999
-5.112 4.2459998 -1.683 0.30000001
-5.112 4.2329998 -1.6799999 0.38999999
-5.1259999 4.217 -1.6799999 0.44
-5.1370001 4.1999998 -1.6799999 0.40000001
-5.164 4.1950002 -1.6849999 0.34999999
-5.1939998 4.1919999 -1.6900001 0.38
-5.2119999 4.1789999 -1.692 0.41
-5.2410002 4.1760001 -1.698 0.47999999
-5.256 4.1599998 -1.698 0.28999999
-5.276 4.1630001 -1.7029999 0.38999999
-5.303 4.1570001 -1.7079999 0.34
-5.316 4.1399999 -1.7079999 0.28999999
-5.335 4.1279998 -1.71 0.30000001
-5.3400002 4.1059999 -1.707 0.28999999
-5.3460002 4.0830002 -1.705 0.30000001
-5.3720002 4.0770001 -1.709 0.28999999
-5.3769999 4.0669999 -1.709 0.28
-5.3839998 4.046 -1.707 0.28999999
-5.4120002 4.04 -1.712 0.31999999
-5.428 4.0250001 -1.7130001 0.31999999
-5.4710002 4.0310001 -1.723 0.30000001
-5.5009999 4.026 -1.729 0.33000001
-5.526 4.0180001 -1.733 0.34
-5.5510001 4.0100002 -1.738 0.23
-5.5640001 4.0050001 -1.74 0.43000001
-5.592 3.9990001 -1.745 0.31999999
-5.5949998 3.9749999 -1.742 0.43000001
-5.6789999 4.007 -1.765 0.25
-5.6500001 3.961 -1.752 0.31999999
-5.7340002 3.9920001 -1.775 0.38
-5.8039999 4.013 -1.794 0.36000001
-5.8249998 4.0139999 -1.799 0.25999999
-5.8400002 3.9979999 -1.8 0.36000001
-5.9060001 4.0149999 -1.817 0.34
-5.947 4.0159998 -1.827 0.31999999
-5.9819999 4.0120001 -1.834 0.33000001
-6.0209999 4.0100002 -1.842 0.34
-6.0409999 3.997 -1.845 0.30000001
-6.0799999 4.0079999 -1.8559999 0.37
-6.1170001 4.0050001 -1.863 0.30000001
-6.1570001 4.0040002 -1.872 0.31999999
-6.197 4.0019999 -1.881 0.34999999
-6.2259998 3.993 -1.886 0.31999999
-6.2350001 3.971 -1.885 0.34
-6.2360001 3.944 -1.882 0.40000001
-6.2080002 3.9130001 -1.8710001 0.28999999
-6.2020001 3.882 -1.865 0.25
-6.2080002 3.859 -1.863 0.30000001
-6.2179999 3.8380001 -1.862 0.30000001
-6.2340002 3.8210001 -1.863 0.28999999
-6.2389998 3.7969999 -1.8609999 0.36000001
-6.2540002 3.78 -1.862 0.28
-6.2610002 3.757 -1.8609999 0.31999999
-6.2779999 3.7539999 -1.864 0.28999999
-6.2800002 3.7279999 -1.8609999 0.30000001
-6.3000002 3.7130001 -1.864 0.31999999
-6.3070002 3.691 -1.862 0.30000001
-6.322 3.6730001 -1.863 0.30000001
-6.3299999 3.651 -1.862 0.30000001
-6.3449998 3.6329999 -1.863 0.30000001
-6.3439999 3.619 -1.8609999 0.28
-6.3530002 3.598 -1.8609999 0.31999999
-6.3649998 3.5780001 -1.8609999 0.31
-6.3790002 3.5599999 -1.862 0.31
-6.3940001 3.5420001 -1.863 0.28
-6.4130001 3.527 -1.865 0.28999999
-6.4060001 3.4960001 -1.86 0.28999999
-6.4219999 3.4790001 -1.8609999 0.25999999
-6.4359999 3.473 -1.864 0.28999999
-6.46 3.46 -1.868 0.27000001
-6.4520001 3.4300001 -1.862 0.25999999
-6.4699998 3.4130001 -1.864 0.31
-6.4790001 3.392 -1.864 0.27000001
-6.4809999 3.3670001 -1.8609999 0.30000001
-6.5 3.3510001 -1.864 0.25999999
-6.5089998 3.3429999 -1.865 0.27000001
-6.5040002 3.3150001 -1.86 0.31
-6.533 3.3039999 -1.8660001 0.27000001
-6.5489998 3.286 -1.868 0.31
-6.552 3.2620001 -1.865 0.19
-6.5619998 3.2409999 -1.865 0.28
-6.5780001 3.223 -1.867 0.25
-6.5900002 3.2160001 -1.869 0.25
-6.5929999 3.1919999 -1.867 0.22
-6.6110001 3.175 -1.87 0.27000001
-6.6129999 3.151 -1.867 0.25
-6.6259999 3.131 -1.868 0.2
-6.6409998 3.1129999 -1.87 0.27000001
-6.658 3.095 -1.872 0.22
-6.6469998 3.0780001 -1.867 0.22
-6.6599998 3.0580001 -1.868 0.25999999
-6.6729999 3.039 -1.869 0.23
-6.677 3.016 -1.868 0.11
-6.6799998 2.9920001 -1.865 0.2
-6.7119999 2.9809999 -1.872 0
-6.698 2.95 -1.865 0
-6.7319999 2.9389999 -1.873 0
-7.0679998 1.745 -1.855 0
-7.105 1.742 -1.864 0.090000004
-7.0710001 1.71 -1.853 0.2
-7.0549998 1.683 -1.848 0.19
-7.066 1.6619999 -1.849 0.28999999
-7.0770001 1.641 -1.851 0.30000001
-7.079 1.618 -1.85 0.31
-7.0739999 1.594 -1.847 0.28999999
-7.092 1.575 -1.851 0.31999999
-7.0869999 1.562 -1.849 0.28
-7.0960002 1.54 -1.85 0.28
-7.1100001 1.52 -1.852 0.28
-7.1020002 1.495 -1.849 0.28999999
-7.112 1.474 -1.85 0.28999999
-7.118 1.452 -1.851 0.28999999
-7.125 1.4299999 -1.851 0.28999999
-7.1199999 1.4170001 -1.849 0.30000001
-7.132 1.396 -1.851 0.28
-7.1279998 1.372 -1.849 0.28999999
-7.1290002 1.349 -1.848 0.27000001
-7.1329999 1.327 -1.848 0.20999999
-7.105 1.299 -1.839 0.36000001
-7.132 1.28 -1.846 0.38999999
-7.1279998 1.268 -1.844 0.28999999
-7.1339998 1.2460001 -1.845 0.38999999
-7.1420002 1.224 -1.846 0.25
-7.1430001 1.202 -1.845 0.54000002
-7.1719999 1.183 -1.852 0.36000001
-7.1739998 1.16 -1.851 0.31
-7.1810002 1.138 -1.852 0.30000001
-7.1789999 1.115 -1.851 0.28999999
-7.1849999 1.104 -1.852 0.28999999
-7.1820002 1.081 -1.85 0.31999999
-7.1859999 1.058 -1.85 0.28999999
-7.1929998 1.036 -1.851 0.25
-7.1919999 1.013 -1.85 0.28999999
-7.1950002 0.99000001 -1.85 0.28
-7.1939998 0.96700001 -1.849 0.27000001
-7.1999998 0.95599997 -1.85 0.28
-7.1989999 0.93300003 -1.849 0.28
-7.1849999 0.90899998 -1.845 0.27000001
-7.2030001 0.88800001 -1.849 0.27000001
-7.2059999 0.86500001 -1.849 0.27000001
-7.2080002 0.84299999 -1.849 0.28
-7.2220001 0.82099998 -1.852 0.25
-7.2129998 0.79699999 -1.849 0.17
-7.211 0.78600001 -1.848 0.28
-7.2129998 0.76300001 -1.848 0.25
-7.2160001 0.74000001 -1.848 0.27000001
-7.2059999 0.71600002 -1.845 0.25999999
-7.2199998 0.69499999 -1.848 0.25
-7.2049999 0.671 -1.8430001 0.16
-7.2049999 0.648 -1.842 0.28999999
-7.2119999 0.63700002 -1.844 0.25
-7.2080002 0.61400002 -1.842 0.27000001
-7.223 0.59200001 -1.846 0.27000001
-7.2210002 0.56900001 -1.845 0.25
-7.21 0.546 -1.841 0.30000001
-7.2189999 0.52399999 -1.8430001 0.27000001
-7.2280002 0.50099999 -1.846 0.30000001
-7.21 0.48899999 -1.84 0.27000001
-7.2150002 0.46599999 -1.841 0.31
-7.2049999 0.44299999 -1.8380001 0.28
-7.2059999 0.41999999 -1.8380001 0.28999999
-7.2020001 0.39700001 -1.837 0.30000001
-7.2049999 0.375 -1.837 0.28999999
-7.2059999 0.352 -1.837 0.31
-7.2189999 0.33000001 -1.84 0.34
-7.223 0.31900001 -1.841 0.28999999
-7.2129998 0.296 -1.8380001 0.28999999
-7.2119999 0.273 -1.8380001 0.31999999
-7.2199998 0.25099999 -1.84 0.33000001
-7.2210002 0.228 -1.84 0.31999999
-7.2179999 0.205 -1.839 0.28
-7.2259998 0.183 -1.841 0.34
-7.2210002 0.171 -1.839 0.31
-7.223 0.149 -1.84 0.31
-7.2199998 0.126 -1.839 0.27000001
-7.2220001 0.103 -1.839 0.34
-7.2280002 0.081 -1.841 0.31999999
-7.2220001 0.057999998 -1.839 0.31
-7.2189999 0.035 -1.8380001 0.31999999
-7.2220001 0.024 -1.839 0.31999999
-7.2280002 0.001 -1.841 0.31999999
-7.224 -0.022 -1.84 0.31
-7.2199998 -0.044 -1.839 0.33000001
-7.2280002 -0.067000002 -1.841 0.33000001
-7.2199998 -0.090000004 -1.839 0.31999999
-7.2160001 -0.112 -1.8380001 0.31
-7.2210002 -0.124 -1.839 0.28999999
-7.2150002 -0.146 -1.8380001 0.33000001
-7.2210002 -0.169 -1.839 0.33000001
-7.2319999 -0.192 -1.842 0.31999999
-7.2290001 -0.215 -1.842 0.31999999
-7.2210002 -0.237 -1.84 0.28999999
-7.27 -0.26199999 -1.853 0.28999999
-7.263 -0.28400001 -1.852 0.28999999
-7.2680001 -0.308 -1.853 0.28999999
-7.2589998 -0.33000001 -1.851 0.31
-7.2649999 -0.34200001 -1.853 0.30000001
-7.2600002 -0.36399999 -1.852 0.34
-7.257 -0.38699999 -1.851 0.30000001
-7.2610002 -0.41 -1.853 0.28
-7.25 -0.43200001 -1.85 0.34
-7.2550001 -0.456 -1.852 0.28999999
-7.257 -0.479 -1.853 0.28999999
-7.25 -0.50099999 -1.851 0.28999999
-7.2470002 -0.51200002 -1.851 0.28999999
-7.2550001 -0.53600001 -1.853 0.28999999
-7.2670002 -0.56 -1.857 0.25999999
-7.2490001 -0.58099997 -1.853 0.31
-7.25 -0.60399997 -1.853 0.27000001
-7.2480001 -0.62699997 -1.853 0.25999999
-7.2550001 -0.65100002 -1.8559999 0.27000001
-7.2639999 -0.66299999 -1.859 0.27000001
-7.2540002 -0.685 -1.857 0.27000001
-7.2379999 -0.70599997 -1.853 0.30000001
-7.2340002 -0.72899997 -1.852 0.27000001
-7.2360001 -0.75199997 -1.853 0.25999999
-7.2259998 -0.77399999 -1.851 0.28
-7.2329998 -0.79799998 -1.854 0.27000001
-7.237 -0.81 -1.8559999 0.25999999
-7.2379999 -0.833 -1.857 0.28999999
-7.2490001 -0.85699999 -1.86 0.27000001
-7.2249999 -0.87699997 -1.854 0.28
-7.2210002 -0.89999998 -1.854 0.31
-7.2160001 -0.92199999 -1.853 0.25
-7.223 -0.94599998 -1.8559999 0.31999999
-7.2119999 -0.95599997 -1.853 0.28999999
-7.2160001 -0.98000002 -1.8559999 0.28999999
-7.2069998 -1.002 -1.854 0.27000001
-7.2020001 -1.024 -1.853 0.30000001
-7.1989999 -1.0470001 -1.853 0.28
-7.1989999 -1.0700001 -1.854 0.30000001
-7.2020001 -1.0930001 -1.8559999 0.28
-7.1849999 -1.114 -1.852 0.30000001
-7.1789999 -1.125 -1.851 0.28
-7.1869998 -1.149 -1.854 0.31999999
-7.1849999 -1.1720001 -1.855 0.28999999
-7.1719999 -1.193 -1.852 0.25999999
-7.1799998 -1.217 -1.8559999 0.28999999
-7.1799998 -1.2410001 -1.857 0.31999999
-7.1830001 -1.265 -1.859 0.28999999
-7.1869998 -1.277 -1.86 0.27000001
-7.1830001 -1.299 -1.86 0.19
-7.1830001 -1.323 -1.8609999 0.30000001
-7.1820002 -1.346 -1.862 0.5
-7.2220001 -1.377 -1.874 0.34
-7.2119999 -1.399 -1.873 0.31999999
-7.2319999 -1.426 -1.88 0.33000001
-7.2179999 -1.447 -1.877 0.31
-7.2080002 -1.457 -1.875 0.28
-7.1900001 -1.477 -1.8710001 0.31999999
-7.118 -1.485 -1.852 0.31999999
-7.0089998 -1.485 -1.824 0.28999999
-6.927 -1.49 -1.802 0.28999999
-6.8449998 -1.494 -1.781 0.31999999
-6.763 -1.498 -1.7589999 0.27000001
-6.6950002 -1.494 -1.7410001 0.28999999
-6.5999999 -1.494 -1.716 0.27000001
-6.552 -1.505 -1.704 0.31
-6.5450001 -1.525 -1.7029999 0.30000001
-6.5370002 -1.545 -1.702 0.28999999
-6.506 -1.559 -1.6950001 0.25
-6.4590001 -1.569 -1.683 0.25
-6.4530001 -1.5779999 -1.682 0.41
-6.4330001 -1.595 -1.678 0.25
-6.4390001 -1.618 -1.681 0.41999999
-6.395 -1.628 -1.67 0.41
-6.336 -1.6339999 -1.655 0.33000001
-6.3460002 -1.658 -1.659 0.28999999
-6.3070002 -1.669 -1.65 0.44999999
-6.3639998 -1.6950001 -1.666 0.28999999
-6.2410002 -1.683 -1.633 0.41
-6.3439999 -1.732 -1.664 0.27000001
-6.3099999 -1.744 -1.656 0.31999999
-6.381 -1.786 -1.677 0.30000001
-6.381 -1.807 -1.679 0.34
-6.3639998 -1.824 -1.676 0.33000001
-6.3600001 -1.845 -1.676 0.30000001
-6.348 -1.852 -1.674 0.34
-6.3439999 -1.872 -1.674 0.33000001
-6.3460002 -1.8940001 -1.676 0.30000001
-6.323 -1.909 -1.6720001 0.25
-6.3099999 -1.927 -1.669 0.14
-6.2940001 -1.944 -1.6670001 0
-6.2789998 -1.961 -1.664 0
-5.7319999 -2.928 -1.626 0.0099999998
-5.7550001 -2.951 -1.6339999 0.12
-5.7199998 -2.9560001 -1.627 0.17
-5.697 -2.967 -1.622 0.2
-5.6900001 -2.9849999 -1.623 0.27000001
-5.6789999 -3.0020001 -1.622 0.30000001
-5.6620002 -3.017 -1.62 0.30000001
-5.6560001 -3.036 -1.6210001 0.28999999
-5.6399999 -3.05 -1.619 0.31
-5.6329999 -3.0580001 -1.619 0.28999999
-5.6290002 -3.079 -1.62 0.30000001
-5.6090002 -3.0910001 -1.617 0.28999999
-5.598 -3.1070001 -1.617 0.30000001
-5.5879998 -3.125 -1.617 0.30000001
-5.5799999 -3.1429999 -1.617 0.30000001
-5.5679998 -3.1600001 -1.617 0.28
-5.5609999 -3.168 -1.6160001 0.30000001
-5.5450001 -3.181 -1.614 0.28999999
-5.5310001 -3.197 -1.613 0.28999999
-5.5209999 -3.214 -1.613 0.30000001
-5.506 -3.2279999 -1.6109999 0.30000001
-5.5009999 -3.2490001 -1.613 0.28999999
-5.4790001 -3.2590001 -1.609 0.28
-5.474 -3.2679999 -1.609 0.27000001
-5.4559999 -3.28 -1.607 0.28
-5.4580002 -3.3050001 -1.6109999 0.30000001
-5.4219999 -3.306 -1.602 0.22
-5.4159999 -3.326 -1.604 0.36000001
-5.3990002 -3.339 -1.602 0.33000001
-5.3979998 -3.362 -1.605 0.31999999
-5.3759999 -3.372 -1.601 0.23999999
-5.3649998 -3.3759999 -1.599 0.37
-5.3410001 -3.385 -1.595 0.28999999
-5.3249998 -3.398 -1.594 0.36000001
-5.2919998 -3.4000001 -1.586 0.38999999
-5.2779999 -3.415 -1.585 0.38
-5.2249999 -3.404 -1.572 0.31999999
-5.21 -3.4170001 -1.5700001 0.34
-5.2480001 -3.454 -1.584 0.41999999
-5.2389998 -3.471 -1.585 0.30000001
-5.197 -3.467 -1.575 0.31999999
-5.1669998 -3.471 -1.568 0.27000001
-5.132 -3.471 -1.561 0.30000001
-5.1329999 -3.494 -1.564 0.40000001
-5.1139998 -3.5050001 -1.562 0.31999999
-5.073 -3.4890001 -1.55 0.34
-5.0539999 -3.4990001 -1.5470001 0.33000001
-5.0320001 -3.507 -1.544 0.38
-5.0170002 -3.52 -1.5420001 0.38999999
-5.0089998 -3.5380001 -1.543 0.43000001
-4.914 -3.494 -1.515 0.30000001
-4.9419999 -3.5380001 -1.529 0.44999999
-4.9289999 -3.54 -1.526 0.34999999
-4.9159999 -3.5539999 -1.525 0.36000001
-4.882 -3.552 -1.518 0.34
-4.8439999 -3.5480001 -1.5089999 0.31
-4.8470001 -3.5739999 -1.513 0.47999999
-4.8559999 -3.6040001 -1.52 0.31999999
-4.8369999 -3.6129999 -1.518 0.34999999
-4.8390002 -3.6389999 -1.522 0.30000001
-4.8210001 -3.6370001 -1.518 0.41999999
-4.8109999 -3.654 -1.5190001 0.33000001
-4.8169999 -3.6819999 -1.524 0.44999999
-4.8309999 -3.717 -1.533 0.46000001
-4.79 -3.7090001 -1.523 0.34999999
-4.757 -3.7079999 -1.516 0.34
-4.7529998 -3.7290001 -1.5190001 0.47999999
-4.776 -3.7590001 -1.529 0.31
-4.763 -3.773 -1.528 0.34
-4.7270002 -3.7679999 -1.52 0.28999999
-4.7090001 -3.7780001 -1.518 0.36000001
-4.6929998 -3.789 -1.516 0.44999999
-4.6339998 -3.766 -1.5 0.31999999
-4.6659999 -3.816 -1.515 0.43000001
-4.652 -3.8169999 -1.512 0.34
-4.612 -3.809 -1.502 0.36000001
-4.6420002 -3.858 -1.517 0.30000001
-4.6290002 -3.872 -1.517 0.37
-4.6100001 -3.881 -1.5140001 0.44999999
-4.592 -3.8900001 -1.512 0.34999999
-4.5710001 -3.8970001 -1.5089999 0.30000001
-4.559 -3.8989999 -1.507 0.40000001
-4.5469999 -3.9130001 -1.507 0.41
-4.526 -3.9200001 -1.5039999 0.28999999
-4.5219998 -3.9419999 -1.507 0.31999999
-4.4829998 -3.9330001 -1.498 0.43000001
-4.4770002 -3.9519999 -1.5 0.28
-4.4619999 -3.964 -1.499 0.36000001
-4.4289999 -3.947 -1.489 0.36000001
-4.4130001 -3.957 -1.488 0.38999999
-4.3920002 -3.964 -1.485 0.37
-4.355 -3.9549999 -1.476 0.38999999
-4.3429999 -3.9690001 -1.476 0.30000001
-4.3870001 -4.0349998 -1.497 0.30000001
-4.3850002 -4.059 -1.501 0.38
-4.3660002 -4.066 -1.498 0.38
-4.3559999 -4.0710001 -1.497 0.5
-4.3439999 -4.0840001 -1.497 0.28999999
-4.3330002 -4.1009998 -1.498 0.41
-4.3119998 -4.1059999 -1.495 0.30000001
-4.2800002 -4.1009998 -1.488 0.33000001
-4.2859998 -4.1329999 -1.495 0.40000001
-4.2199998 -4.0939999 -1.475 0.30000001
-4.1900001 -4.0780001 -1.466 0.18000001
-4.25 -4.1630001 -1.493 0.5
-4.198 -4.138 -1.479 0.43000001
-4.2069998 -4.1729999 -1.487 0.28
-4.165 -4.1570001 -1.476 0.34
-4.197 -4.2160001 -1.493 0.34
-4.2010002 -4.2470002 -1.5 0.34
-4.1760001 -4.2470002 -1.4960001 0.28999999
-4.1609998 -4.2459998 -1.492 0.44
-4.0580001 -4.1659999 -1.457 0.23
-4.0510001 -4.1849999 -1.46 0.38
-4.0560002 -4.2160001 -1.467 0.38
-3.9200001 -4.0999999 -1.418 0.20999999
-4.1030002 -4.3200002 -1.4960001 0.28999999
-4.059 -4.3010001 -1.484 0.34
-4.0139999 -4.2659998 -1.469 0.38
-4.0139999 -4.2930002 -1.474 0.36000001
-3.9820001 -4.2859998 -1.467 0.38
-3.9890001 -4.3210001 -1.475 0.37
-3.993 -4.3520002 -1.482 0.41
-3.9949999 -4.382 -1.488 0.54000002
-3.8269999 -4.223 -1.426 0.2
-3.98 -4.408 -1.4910001 0.34999999
-3.951 -4.4029999 -1.485 0.31
-3.9460001 -4.4250002 -1.488 0.47
-3.918 -4.4219999 -1.482 0.34999999
-3.8640001 -4.388 -1.466 0.44999999
-3.651 -4.171 -1.383 0.23
-3.868 -4.448 -1.479 0.30000001
-3.858 -4.4520001 -1.478 0.47999999
-3.8299999 -4.447 -1.472 0.28999999
-3.835 -4.4819999 -1.48 0.40000001
-3.7909999 -4.4580002 -1.467 0.36000001
-3.7880001 -4.4829998 -1.472 0.44999999
-3.73 -4.4419999 -1.4529999 0.23
-3.7720001 -4.5219998 -1.477 0.38999999
-3.7460001 -4.5040002 -1.469 0.41
-3.7409999 -4.5279999 -1.473 0.34999999
-3.74 -4.5560002 -1.479 0.30000001
-3.6530001 -4.4780002 -1.447 0.37
-3.7060001 -4.572 -1.476 0.31999999
-3.6589999 -4.5430002 -1.462 0.25999999
-3.6730001 -4.5900002 -1.475 0.34
-3.6400001 -4.5780001 -1.466 0.41
-3.635 -4.586 -1.467 0.34
-3.6270001 -4.6069999 -1.47 0.31999999
-3.6240001 -4.632 -1.475 0.41999999
-3.5899999 -4.619 -1.467 0.38999999
-3.575 -4.6290002 -1.466 0.30000001
-3.586 -4.6739998 -1.478 0.36000001
-3.5699999 -4.6830001 -1.477 0.36000001
-3.5550001 -4.6799998 -1.474 0.38999999
-3.562 -4.7189999 -1.483 0.36000001
-3.546 -4.7280002 -1.483 0.34999999
-3.5320001 -4.7410002 -1.483 0.43000001
-3.4790001 -4.7010002 -1.466 0.40000001
-3.493 -4.7509999 -1.479 0.36000001
-3.45 -4.723 -1.466 0.27000001
-3.4849999 -4.7870002 -1.4859999 0.38999999
-3.4590001 -4.783 -1.4809999 0.41
-3.444 -4.7940001 -1.4809999 0.36000001
-3.431 -4.8070002 -1.482 0.36000001
-3.428 -4.836 -1.488 0.40000001
-3.3900001 -4.8130002 -1.477 0.31999999
-3.3610001 -4.8049998 -1.47 0.34
-3.306 -4.756 -1.451 0.27000001
-3.375 -4.8730001 -1.488 0.27000001
-3.3599999 -4.8850002 -1.488 0.31
-3.3429999 -4.8920002 -1.487 0.41999999
-3.3150001 -4.8839998 -1.4809999 0.28999999
-3.2839999 -4.8720002 -1.474 0.50999999
-3.1040001 -4.6329999 -1.392 0.16
-3.2820001 -4.9190001 -1.484 0.34
-3.2550001 -4.9120002 -1.478 0.41
-3.2390001 -4.9200001 -1.478 0.41
-2.911 -4.448 -1.322 0.27000001
-3.214 -4.9499998 -1.4809999 0.25
-3.2249999 -5.0009999 -1.494 0.54000002
-3.2149999 -5.0209999 -1.497 0.28
-3.2019999 -5.0359998 -1.499 0.31
-3.1730001 -5.007 -1.488 0.34
-3.1489999 -5.0040002 -1.483 0.31
-3.132 -5.0120001 -1.483 0.44
-3.1400001 -5.059 -1.495 0.31999999
-3.109 -5.0450001 -1.487 0.41
-3.1059999 -5.0760002 -1.494 0.31
-3.0899999 -5.085 -1.494 0.34999999
-3.082 -5.0900002 -1.494 0.28999999
-3.053 -5.0780001 -1.487 0.23
-3.0309999 -5.0780001 -1.484 0.44
-3.0250001 -5.1040001 -1.489 0.31999999
-2.9990001 -5.0970001 -1.484 0.31999999
-2.994 -5.125 -1.49 0.44999999
-2.96 -5.1040001 -1.48 0.34999999
-2.957 -5.1170001 -1.483 0.37
-2.924 -5.0960002 -1.474 0.30000001
-2.9030001 -5.0970001 -1.471 0.25
-2.901 -5.131 -1.479 0.41999999
-2.8940001 -5.1550002 -1.483 0.44999999
-2.8989999 -5.2030001 -1.4960001 0.28999999
-2.8699999 -5.1900001 -1.489 0.36000001
-2.8670001 -5.2030001 -1.4910001 0.31999999
-2.852 -5.2160001 -1.492 0.30000001
-2.829 -5.211 -1.488 0.34999999
-2.8050001 -5.2059999 -1.484 0.36000001
-2.79 -5.2189999 -1.485 0.38999999
-2.7520001 -5.1859999 -1.472 0.38999999
-2.721 -5.1659999 -1.464 0.30000001
-2.721 -5.2049999 -1.473 0.40000001
-2.697 -5.1789999 -1.464 0.28999999
-2.6819999 -5.1900001 -1.465 0.34
-2.6600001 -5.1869998 -1.461 0.34
-2.6289999 -5.1659999 -1.452 0.34999999
-2.6259999 -5.2020001 -1.46 0.36000001
-2.618 -5.2249999 -1.465 0.20999999
-2.6040001 -5.2410002 -1.467 0.50999999
-2.575 -5.2010002 -1.454 0.36000001
-2.5539999 -5.2010002 -1.452 0.41
-2.536 -5.2049999 -1.45 0.34
-2.523 -5.2179999 -1.452 0.28999999
-2.507 -5.2280002 -1.4529999 0.40000001
-2.4860001 -5.2249999 -1.449 0.36000001
-2.484 -5.2649999 -1.459 0.28999999
-2.487 -5.2930002 -1.466 0.41
-2.4519999 -5.2610002 -1.454 0.5
-2.3199999 -5.0149999 -1.3789999 0.14
-2.4319999 -5.3060002 -1.4630001 0.38999999
-2.421 -5.3260002 -1.467 0.37
-2.4059999 -5.3369999 -1.4680001 0.37
-2.3840001 -5.3319998 -1.464 0.36000001
-2.375 -5.336 -1.464 0.30000001
-2.362 -5.3499999 -1.466 0.37
-2.3440001 -5.3559999 -1.466 0.43000001
-2.3239999 -5.3559999 -1.464 0.34
-2.316 -5.3829999 -1.469 0.38
-2.2980001 -5.388 -1.469 0.43000001
-2.2820001 -5.3990002 -1.47 0.38999999
-2.237 -5.3390002 -1.45 0.38
-2.214 -5.3060002 -1.439 0.25999999
-2.2260001 -5.3829999 -1.46 0.31999999
-2.207 -5.3850002 -1.4579999 0.34999999
-2.188 -5.3860002 -1.457 0.38999999
-2.175 -5.4039998 -1.46 0.38999999
-2.085 -5.224 -1.405 0.28999999
-2.1429999 -5.421 -1.461 0.36000001
-2.1259999 -5.4029999 -1.455 0.33000001
-2.1140001 -5.4219999 -1.4579999 0.38
-2.095 -5.4229999 -1.457 0.43000001
-2.082 -5.4419999 -1.46 0.31
-2.0550001 -5.4219999 -1.4529999 0.31
-2.052 -5.4660001 -1.464 0.41999999
-2.033 -5.467 -1.462 0.44999999
-2.006 -5.421 -1.448 0.25
-2.006 -5.4749999 -1.461 0.40000001
-1.9809999 -5.4590001 -1.455 0.40000001
-1.967 -5.473 -1.457 0.31999999
-1.938 -5.4460001 -1.448 0.37
-1.9170001 -5.4390001 -1.444 0.34
-1.896 -5.4359999 -1.442 0.33000001
-1.903 -5.4850001 -1.455 0.37
-1.896 -5.5180001 -1.4630001 0.27000001
-1.86 -5.4710002 -1.447 0.37
-1.83 -5.4369998 -1.436 0.34
-1.824 -5.4749999 -1.4450001 0.25999999
-1.7920001 -5.4369998 -1.433 0.44999999
-1.7869999 -5.4809999 -1.444 0.31
-1.78 -5.4879999 -1.4450001 0.34999999
-1.7690001 -5.5139999 -1.45 0.33000001
-1.729 -5.4450002 -1.4299999 0.34
-1.71 -5.447 -1.428 0.25
-1.675 -5.3920002 -1.411 0.47
-1.6720001 -5.4429998 -1.424 0.30000001
-1.665 -5.4829998 -1.434 0.34
-1.66 -5.4970002 -1.437 0.37
-1.638 -5.487 -1.433 0.34999999
-1.6210001 -5.4920001 -1.433 0.38
-1.602 -5.4899998 -1.431 0.27000001
-1.585 -5.4990001 -1.432 0.46000001
-1.539 -5.4000001 -1.403 0.27000001
-1.544 -5.4829998 -1.425 0.34999999
-1.515 -5.4450002 -1.413 0.37
-1.517 -5.4879999 -1.424 0.34999999
-1.48 -5.4200001 -1.404 0.38
-1.475 -5.4689999 -1.416 0.30000001
-1.462 -5.4910002 -1.421 0.33000001
-1.451 -5.52 -1.428 0.34
-1.426 -5.4910002 -1.418 0.41
-1.41 -5.5029998 -1.421 0.31999999
-1.406 -5.5229998 -1.426 0.33000001
-1.398 -5.5650001 -1.436 0.44999999
-1.364 -5.5 -1.4170001 0.28
-1.359 -5.5549998 -1.431 0.40000001
-1.345 -5.5760002 -1.436 0.38999999
-1.3150001 -5.5279999 -1.421 0.30000001
-1.299 -5.5359998 -1.4220001 0.36000001
-1.267 -5.4380002 -1.3940001 0.28
-1.265 -5.506 -1.4119999 0.33000001
-1.2309999 -5.4349999 -1.391 0.34
-1.233 -5.527 -1.416 0.44
-1.214 -5.5219998 -1.413 0.30000001
-1.192 -5.506 -1.408 0.33000001
-1.169 -5.48 -1.4 0.41999999
-1.1619999 -5.4910002 -1.402 0.31999999
-1.133 -5.4359999 -1.386 0.27000001
-1.135 -5.5339999 -1.4119999 0.41999999
-1.1059999 -5.4809999 -1.396 0.25999999
-1.103 -5.5580001 -1.4170001 0.40000001
-1.0829999 -5.5469999 -1.413 0.30000001
-1.0549999 -5.4949999 -1.398 0.28999999
-1.052 -5.5780001 -1.42 0.31999999
-1.043 -5.5760002 -1.418 0.43000001
-1.027 -5.5869999 -1.421 0.36000001
-0.99599999 -5.5159998 -1.4 0.40000001
-0.986 -5.5630002 -1.4119999 0.27000001
-0.97899997 -5.6269999 -1.429 0.30000001
-0.95099998 -5.5630002 -1.411 0.43000001
-0.926 -5.5240002 -1.399 0.23999999
-0.91600001 -5.5159998 -1.396 0.40000001
-0.89499998 -5.494 -1.39 0.38999999
-0.88800001 -5.5669999 -1.409 0.30000001
-0.86500001 -5.5279999 -1.398 0.33000001
-0.82999998 -5.4180002 -1.367 0.43000001
-0.82300001 -5.4840002 -1.3839999 0.36000001
-0.81599998 -5.559 -1.404 0.34
-0.81099999 -5.5869999 -1.411 0.33000001
-0.79299998 -5.5900002 -1.411 0.33000001
-0.77100003 -5.5580001 -1.402 0.34
-0.75599998 -5.5809999 -1.4069999 0.38999999
-0.73500001 -5.553 -1.399 0.38
-0.72299999 -5.6009998 -1.4119999 0.27000001
-0.70200002 -5.5749998 -1.404 0.31
-0.68699998 -5.5219998 -1.3890001 0.38999999
-0.66600001 -5.4949999 -1.381 0.44
-0.64700001 -5.4840002 -1.378 0.30000001
-0.639 -5.5650001 -1.399 0.34999999
-0.61900002 -5.5419998 -1.392 0.34999999
-0.59500003 -5.4840002 -1.376 0.37
-0.579 -5.5009999 -1.38 0.28
-0.57300001 -5.527 -1.387 0.33000001
-0.55500001 -5.5209999 -1.385 0.38
-0.54000002 -5.546 -1.391 0.31999999
-0.528 -5.6129999 -1.409 0.46000001
-0.498 -5.4650002 -1.368 0.27000001
-0.479 -5.4450002 -1.362 0.41
-0.463 -5.4699998 -1.369 0.30000001
-0.46000001 -5.5380001 -1.387 0.23
-0.44400001 -5.5580001 -1.392 0.49000001
-0.42300001 -5.5120001 -1.3789999 0.31
-0.40900001 -5.5570002 -1.391 0.33000001
-0.39300001 -5.5739999 -1.395 0.43000001
-0.36899999 -5.4829998 -1.37 0.25
-0.35699999 -5.5630002 -1.392 0.25
-0.34 -5.5830002 -1.397 0.51999998
-0.331 -5.572 -1.3940001 0.31999999
-0.31200001 -5.5359998 -1.3839999 0.34999999
-0.296 -5.5799999 -1.395 0.25999999
-0.27900001 -5.5869999 -1.397 0.41999999
-0.259 -5.533 -1.382 0.33000001
-0.244 -5.5939999 -1.399 0.28999999
-0.226 -5.5929999 -1.398 0.36000001
-0.21799999 -5.6139998 -1.404 0.37
-0.20100001 -5.6090002 -1.402 0.41999999
-0.182 -5.5650001 -1.39 0.34
-0.164 -5.5539999 -1.387 0.31
-0.146 -5.52 -1.378 0.34
-0.12899999 -5.5630002 -1.3890001 0.41
-0.111 -5.4959998 -1.3710001 0.31
-0.102 -5.5100002 -1.374 0.28999999
-0.085000001 -5.5500002 -1.385 0.28999999
-0.068000004 -5.5949998 -1.398 0.34
-0.050999999 -5.6030002 -1.4 0.41999999
-0.033 -5.5489998 -1.385 0.34
-0.015 -5.592 -1.396 0.31999999
0.0020000001 -5.5879998 -1.395 0.34999999
0.011 -5.6009998 -1.399 0.30000001
0.028999999 -5.5970001 -1.398 0.38
0.046 -5.586 -1.395 0.38999999
0.064000003 -5.6279998 -1.406 0.38999999
0.081 -5.6040001 -1.4 0.37
0.097999997 -5.5619998 -1.3890001 0.37
0.115 -5.5479999 -1.385 0.33000001
0.124 -5.552 -1.386 0.34999999
0.14300001 -5.586 -1.395 0.41
0.16 -5.5869999 -1.396 0.34999999
0.178 -5.5830002 -1.395 0.28999999
0.19599999 -5.598 -1.399 0.28999999
0.213 -5.5879998 -1.396 0.51999998
0.22499999 -5.473 -1.3660001 0.23
0.241 -5.619 -1.405 0.31999999
0.255 -5.5489998 -1.387 0.41
0.273 -5.5619998 -1.39 0.27000001
0.292 -5.586 -1.397 0.47999999
0.31099999 -5.618 -1.406 0.36000001
0.33000001 -5.6259999 -1.409 0.30000001
0.34400001 -5.573 -1.3940001 0.38999999
0.36399999 -5.6149998 -1.406 0.41999999
0.368 -5.539 -1.385 0.25999999
0.38699999 -5.5630002 -1.392 0.31
0.40599999 -5.585 -1.399 0.46000001
0.42199999 -5.5619998 -1.393 0.25
0.44100001 -5.5760002 -1.397 0.30000001
0.45899999 -5.586 -1.4 0.31999999
0.46799999 -5.5869999 -1.401 0.55000001
0.484 -5.5650001 -1.395 0.25
0.50300002 -5.5809999 -1.4 0.34
0.52399999 -5.6129999 -1.409 0.33000001
0.54699999 -5.664 -1.423 0.33000001
0.56199998 -5.6329999 -1.415 0.37
0.57599998 -5.6030002 -1.4069999 0.34
0.597 -5.6259999 -1.414 0.41
0.60100001 -5.586 -1.404 0.33000001
0.61400002 -5.5419998 -1.392 0.31999999
0.64300001 -5.6420002 -1.42 0.34
0.65399998 -5.579 -1.403 0.34
0.676 -5.6149998 -1.414 0.31999999
0.69599998 -5.6300001 -1.418 0.34
0.71499997 -5.6370001 -1.421 0.38999999
0.71899998 -5.6020002 -1.4119999 0.38
0.736 -5.5939999 -1.41 0.28999999
0.741 -5.5009999 -1.385 0.34
0.76499999 -5.5469999 -1.399 0.41
0.778 -5.5120001 -1.39 0.30000001
0.78899997 -5.4710002 -1.3789999 0.34
0.82599998 -5.5970001 -1.414 0.34
0.81900001 -5.494 -1.387 0.43000001
0.847 -5.5560002 -1.404 0.31999999
0.86799997 -5.5770001 -1.411 0.28999999
0.87800002 -5.5320001 -1.399 0.38999999
0.89499998 -5.5250001 -1.398 0.34
0.90200001 -5.4640002 -1.382 0.30000001
0.921 -5.4679999 -1.3839999 0.31
0.93400002 -5.4920001 -1.391 0.38999999
0.94700003 -5.4660001 -1.3839999 0.34
0.97600001 -5.5250001 -1.402 0.31999999
0.99000001 -5.507 -1.398 0.31999999
1.012 -5.5289998 -1.404 0.34999999
1.02 -5.4759998 -1.391 0.25999999
1.045 -5.513 -1.402 0.40000001
1.0700001 -5.5469999 -1.4119999 0.33000001
1.075 -5.5289998 -1.4069999 0.34
1.077 -5.4510002 -1.387 0.36000001
1.098 -5.467 -1.392 0.36000001
1.108 -5.4289999 -1.383 0.31
1.131 -5.4520001 -1.39 0.33000001
1.164 -5.52 -1.41 0.38999999
1.169 -5.46 -1.3940001 0.27000001
1.174 -5.4429998 -1.39 0.37
1.206 -5.5050001 -1.409 0.34999999
1.21 -5.4450002 -1.393 0.34
1.2079999 -5.3569999 -1.369 0.25999999
1.237 -5.4060001 -1.3839999 0.44999999
1.251 -5.3899999 -1.381 0.25
1.279 -5.4310002 -1.393 0.38999999
1.285 -5.4180002 -1.39 0.36000001
1.306 -5.4310002 -1.395 0.34
1.3200001 -5.414 -1.391 0.28999999
1.3559999 -5.4840002 -1.4119999 0.34
1.375 -5.4889998 -1.415 0.28999999
1.397 -5.5040002 -1.42 0.41999999
1.398 -5.4380002 -1.403 0.36000001
1.419 -5.48 -1.415 0.38
1.421 -5.4200001 -1.4 0.31999999
1.416 -5.3330002 -1.377 0.36000001
1.4579999 -5.4200001 -1.402 0.34999999
1.483 -5.4450002 -1.411 0.34999999
1.492 -5.4109998 -1.402 0.36000001
1.513 -5.421 -1.406 0.36000001
1.529 -5.4450002 -1.414 0.44999999
1.54 -5.4190001 -1.408 0.30000001
1.5599999 -5.4239998 -1.411 0.28999999
1.568 -5.3889999 -1.402 0.34
1.5829999 -5.3769999 -1.4 0.38999999
1.604 -5.3850002 -1.404 0.38
1.63 -5.4109998 -1.413 0.27000001
1.632 -5.3870001 -1.406 0.38999999
1.643 -5.3629999 -1.401 0.30000001
1.636 -5.2820001 -1.38 0.38
1.654 -5.2810001 -1.381 0.37
1.661 -5.2480001 -1.373 0.25
1.693 -5.29 -1.387 0.30000001
1.72 -5.3140001 -1.395 0.44
1.674 -5.1490002 -1.348 0.19
1.768 -5.3759999 -1.415 0.31999999
1.785 -5.3720002 -1.415 0.34
1.789 -5.3260002 -1.404 0.31999999
1.819 -5.3610001 -1.415 0.33000001
1.83 -5.3369999 -1.41 0.34999999
1.848 -5.3369999 -1.4119999 0.22
1.845 -5.2989998 -1.402 0.34
1.7869999 -5.0840001 -1.341 0.14
1.8099999 -5.0999999 -1.348 0.31
1.903 -5.3049998 -1.409 0.31999999
1.9170001 -5.2919998 -1.406 0.28999999
1.948 -5.3239999 -1.4170001 0.36000001
1.956 -5.2940001 -1.411 0.34
1.985 -5.322 -1.421 0.36000001
1.999 -5.3330002 -1.425 0.37
2.0009999 -5.289 -1.414 0.2
1.9529999 -5.1160002 -1.365 0.28999999
2.0320001 -5.2690001 -1.4119999 0.37
2.0510001 -5.27 -1.414 0.30000001
2.0710001 -5.2729998 -1.416 0.38999999
2.092 -5.277 -1.42 0.43000001
2.0869999 -5.2399998 -1.41 0.33000001
2.0940001 -5.21 -1.403 0.31999999
2.0769999 -5.1230001 -1.3789999 0.36000001
2.1400001 -5.2290001 -1.4119999 0.25
2.154 -5.2179999 -1.411 0.51999998
2.099 -5.0409999 -1.3609999 0.18000001
2.1760001 -5.178 -1.403 0.44
2.1700001 -5.1409998 -1.393 0.31
2.1960001 -5.1589999 -1.401 0.34999999
2.221 -5.171 -1.406 0.25999999
2.223 -5.1329999 -1.397 0.47
2.2219999 -5.085 -1.385 0.36000001
2.257 -5.1220002 -1.398 0.25
2.204 -4.96 -1.352 0.23
2.276 -5.099 -1.3940001 0.31999999
2.3050001 -5.1199999 -1.403 0.31999999
2.3329999 -5.1389999 -1.411 0.43000001
2.3269999 -5.0840001 -1.396 0.25
2.3269999 -5.0419998 -1.386 0.38
2.362 -5.0770001 -1.399 0.23999999
2.365 -5.0409999 -1.39 0.37
2.345 -4.98 -1.373 0.28
2.3699999 -4.9920001 -1.3789999 0.38
2.4100001 -5.0349998 -1.3940001 0.27000001
2.4690001 -5.1160002 -1.421 0.40000001
2.4319999 -4.9990001 -1.388 0.30000001
2.4849999 -5.0669999 -1.411 0.25
2.536 -5.1300001 -1.432 0.31999999
2.506 -5.0500002 -1.409 0.37
2.549 -5.0960002 -1.425 0.25999999
2.5339999 -5.027 -1.4069999 0.36000001
2.5680001 -5.0539999 -1.4170001 0.25999999
2.5539999 -4.9889998 -1.4 0.30000001
2.4749999 -4.8000002 -1.345 0.25
2.5480001 -4.901 -1.378 0.23999999
2.6159999 -5.0120001 -1.413 0.2
2.6129999 -4.9679999 -1.402 0.31
2.5669999 -4.8449998 -1.367 0.2
2.6270001 -4.921 -1.393 0.18000001
2.6440001 -4.914 -1.393 0.30000001
2.615 -4.8239999 -1.368 0.25
2.6689999 -4.8870001 -1.39 0.25
2.6340001 -4.8049998 -1.3660001 0.30000001
2.687 -4.8660002 -1.388 0.25
2.655 -4.7729998 -1.3609999 0.14
2.6289999 -4.6929998 -1.339 0.30000001
2.6359999 -4.671 -1.335 0.2
2.632 -4.6290002 -1.324 0.050000001
2.5869999 -4.5190001 -1.2920001 0.16
2.1889999 -3.8039999 -1.0700001 0.11
2.8469999 -4.9130001 -1.42 0.12
2.766 -4.7420001 -1.369 0.31999999
2.8139999 -4.789 -1.387 0.31
