# .PCD v0.7 - Point Cloud Data file format
VERSION 0.7
FIELDS x y z intensity
SIZE 4 4 4 4
TYPE F F F F
COUNT 1 1 1 1
WIDTH 1440
HEIGHT 1
VIEWPOINT 0 0 0 1 0 0 0
POINTS 1440
DATA ascii
20.117001 -69.431999 2.1949999 0.16
20.281 -69.183998 2.1900001 0.16
20.438999 -68.918999 2.184 0.16
20.617001 -68.727997 2.1800001 0.16
20.784 -68.5 2.1760001 0.16
20.947001 -68.264 2.171 0.1
21.002001 -68.063004 2.1659999 0.14
21.165001 -67.832001 2.161 0.090000004
21.33 -67.614998 2.1570001 0.14
21.49 -67.382004 2.152 0.090000004
21.656 -67.175003 2.148 0.12
8.8500004 -27.108 0.99199998 0.25
8.8979998 -26.968 0.98900002 0.30000001
8.9180002 -26.885 0.98699999 0.34
8.9820004 -26.798 0.98500001 0.25
9.0670004 -26.771999 0.98500001 0.20999999
9.0979996 -26.587999 0.98100001 0.52999997
9.3640003 -27.087 0.99599999 0.19
9.2869997 -26.593 0.98299998 0.36000001
9.4219999 -26.711 0.98699999 0.23999999
9.3970003 -26.507 0.98100001 0.34
9.4949999 -26.518999 0.98299998 0.30000001
9.5760002 -26.482 0.98199999 0.30000001
9.6120005 -26.322001 0.97899997 0.28
9.6499996 -26.171 0.97500002 0.30000001
9.7609997 -26.218 0.977 0.34
9.8710003 -26.386 0.98299998 0.30000001
10.058 -26.632 0.991 0.19
10.039 -26.329 0.98299998 0.23999999
10.215 -26.542 0.99000001 0.19
7.3249998 -18.834999 0.764 0.2
7.2030001 -18.348 0.75 0.55000001
10.534 -26.621 0.995 0.19
10.542 -26.517 0.99299997 0.22
10.742 -26.777 1.001 0.44999999
10.891 -26.903 1.006 0.20999999
11.006 -26.944 1.008 0.27000001
11.067 -26.851999 1.007 0.16
11.164 -26.847 1.008 0.17
25.632999 -61.187 2.0309999 0.2
25.686001 -61.044998 2.0280001 0.25
25.826 -60.842999 2.0250001 0.25
25.962 -60.632999 2.0209999 0.25
26.104 -60.438999 2.0179999 0.12
10.27 -23.534 0.91399997 0.17
10.427 -23.691999 0.92000002 0.13
26.527 -59.861 2.0079999 0.17
26.569 -59.701 2.0039999 0
26.712999 -59.521999 2.0009999 0.12
11.213 -24.74 0.95499998 0.30000001
10.702 -23.413 0.91600001 0.20999999
11.411 -24.761 0.958 0.31999999
11.441 -24.622 0.95499998 0.23999999
11.335 -24.294001 0.94499999 0.31999999
11.36 -24.148001 0.94199997 0.16
10.098 -21.285999 0.85600001 0.41
10.158 -21.239 0.85600001 0.19
10.105 -20.957001 0.84799999 0.34
10.136 -20.853001 0.84600002 0.25999999
10.193 -20.805 0.84500003 0.30000001
10.219 -20.775 0.84500003 0.34
10.25 -20.674 0.84299999 0.18000001
28.412001 -56.957001 1.9579999 0.14
28.545 -56.777 1.955 0.33000001
18.247 -35.992001 1.317 0.2
18.334 -35.882999 1.316 0.28999999
18.422001 -35.777 1.314 0.30000001
18.448 -35.688999 1.313 0.28999999
18.530001 -35.574001 1.311 0.28999999
18.610001 -35.453999 1.309 0.28999999
18.691 -35.339001 1.307 0.30000001
18.775 -35.229 1.306 0.30000001
18.860001 -35.122002 1.304 0.31
18.934 -34.995998 1.302 0.28
18.957001 -34.908001 1.3 0.28999999
19.044001 -34.806 1.299 0.31999999
19.120001 -34.685001 1.2970001 0.25
19.305 -34.763 1.301 0.34
19.343 -34.574001 1.2970001 0
19.642 -34.852001 1.308 0
19.587 -34.375 1.296 0.28999999
19.766001 -34.436001 1.3 0
19.891001 -34.403 1.301 0
19.976 -34.300999 1.299 0
20.066 -34.209 1.298 0
20.152 -34.109001 1.2970001 0
20.075001 -33.615002 1.284 0.25999999
20.274 -33.708 1.289 0
20.389999 -33.660999 1.29 0
20.264999 -32.984001 1.272 0.14
20.344999 -32.882999 1.271 0.34999999
20.364 -32.798 1.2690001 0.25
20.445 -32.698002 1.268 0.31999999
20.511 -32.576 1.266 0.28999999
20.594 -32.480999 1.265 0.34
20.677999 -32.388 1.2640001 0.31999999
20.737 -32.255001 1.262 0.23
20.815001 -32.154999 1.261 0.33000001
20.843 -32.087002 1.26 0.31999999
20.917 -31.981001 1.2589999 0.30000001
20.99 -31.872999 1.257 0.33000001
21.061001 -31.764 1.256 0.28
21.146999 -31.676001 1.255 0.2
21.261999 -31.632999 1.256 0.37
21.48 -31.740999 1.262 0
21.612 -31.83 1.266 0.039999999
21.598 -31.382 1.255 0.30000001
21.782 -31.437 1.26 0
21.832001 -31.299999 1.257 0
21.981001 -31.302999 1.26 0
21.997999 -31.223 1.258 0
22.072001 -31.118999 1.257 0
22.129 -30.584 1.2460001 0.49000001
7.619 -10.432 0.56400001 0.18000001
7.776 -10.577 0.56900001 0
22.235001 -30.030001 1.235 0.12
22.292 -29.909 1.234 0.31999999
22.360001 -29.805 1.232 0.31999999
22.431999 -29.705999 1.2309999 0.31999999
22.500999 -29.604 1.23 0.31999999
22.572001 -29.504 1.229 0.31
22.597 -29.440001 1.228 0.34
22.667999 -29.341999 1.227 0.33000001
22.738001 -29.242001 1.226 0.33000001
22.805 -29.139 1.225 0.28999999
22.891001 -29.059999 1.225 0.41999999
22.65 -28.569 1.21 0.23
22.615999 -28.341 1.205 0.31
22.643999 -28.285999 1.204 0.31999999
22.715 -28.191999 1.2029999 0.36000001
22.787001 -28.101 1.2029999 0.28
22.990999 -28.172001 1.2079999 0.34
23.309 -28.379 1.2180001 0
23.347 -28.243999 1.216 0
23.403999 -28.132 1.214 0
23.441 -28.086 1.214 0
23.502001 -27.98 1.2130001 0
23.57 -27.882999 1.212 0.050000001
23.621 -27.59 1.207 0
23.746 -27.559999 1.2079999 0
23.798 -27.533001 1.209 0
23.861 -27.431 1.2079999 0
23.933001 -27.339001 1.207 0
24 -27.243 1.206 0
23.868999 -26.753 1.194 0.23
23.822001 -26.532 1.188 0.31999999
23.851 -26.481001 1.188 0.34
8.3529997 -9.191 0.55000001 0.18000001
8.349 -9.1280003 0.54900002 0.38
8.3269997 -9.0469999 0.546 0.38
8.375 -9.0410004 0.54699999 0.34999999
8.3950005 -9.0059996 0.54699999 0.40000001
8.4259996 -8.9820004 0.54699999 0.43000001
8.4399996 -8.9689999 0.54699999 0.34
8.4790001 -8.9540005 0.54699999 0.34
8.5290003 -8.9510002 0.54799998 0.20999999
8.5769997 -8.9440002 0.54900002 0.55000001
8.6359997 -8.9499998 0.55000001 0.28
24.583 -25.385 1.1799999 0.34999999
24.628 -25.351999 1.1799999 0.30000001
24.809 -25.379 1.184 0.31999999
24.875 -25.287001 1.183 0.30000001
24.947001 -25.202 1.183 0.34
25.007999 -25.105 1.182 0.30000001
25.075001 -25.014999 1.182 0.33000001
25.139999 -24.922001 1.181 0.28999999
25.165001 -24.868 1.181 0.33000001
25.223 -24.768999 1.1799999 0.28999999
25.146 -24.539 1.174 0.34
25.207001 -24.445 1.173 0.31999999
25.274 -24.355 1.173 0.34
25.337 -24.264 1.173 0.30000001
25.386 -24.158001 1.1720001 0.25
25.57 -24.257 1.177 0.47
25.562 -24.097 1.174 0
25.846001 -24.212 1.182 0
25.903 -24.113001 1.181 0
25.958 -24.011999 1.1799999 0
26.021 -23.92 1.1799999 0
26.073999 -23.818001 1.179 0.039999999
26.021999 -23.546 1.173 0.33000001
25.947001 -23.33 1.1670001 0.33000001
26.007 -23.236 1.1670001 0.33000001
26.069 -23.145 1.1670001 0.31999999
26.125 -23.049 1.166 0.34
26.153 -23 1.166 0.31999999
26.216999 -22.910999 1.165 0.31999999
26.283001 -22.823 1.165 0.31999999
26.333 -22.722 1.164 0.34
26.4 -22.635 1.164 0.28999999
26.462 -22.544001 1.164 0.34999999
26.525 -22.455 1.164 0.34
26.552999 -22.407 1.163 0.34
26.614 -22.315001 1.163 0.34
26.673 -22.223 1.163 0.33000001
26.729 -22.127001 1.1619999 0.23999999
26.937 -22.158001 1.1670001 0.49000001
9.46 -7.71 0.54400003 0.12
9.4440002 -7.6469998 0.54299998 0.33000001
9.4420004 -7.6209998 0.542 0.44999999
9.4420004 -7.573 0.54100001 0.31
9.4630003 -7.54 0.54100001 0.27000001
9.4940004 -7.5170002 0.54100001 0.37
9.5240002 -7.4920001 0.542 0.41
9.5539999 -7.467 0.542 0.46000001
9.6000004 -7.454 0.54299998 0.34999999
9.6850004 -7.4970002 0.54500002 0.55000001
27.395 -21.127001 1.159 0.17
17.063 -13.061 0.79900002 0.25999999
17.052999 -12.969 0.79699999 0.34
17.048 -12.88 0.796 0.40000001
17.07 -12.813 0.79500002 0.34
17.108999 -12.759 0.79500002 0.40000001
17.134001 -12.735 0.79500002 0.41
17.191 -12.694 0.796 0.44
17.271 -12.67 0.79699999 0.28999999
17.381001 -12.666 0.80000001 0.56
28.160999 -20.407 1.164 0.31
28.190001 -20.294001 1.163 0.33000001
28.068001 -20.139 1.158 0.34999999
28.131001 -20.049999 1.158 0.34
28.191999 -19.961 1.158 0.34
28.239 -19.861 1.1569999 0.31999999
28.306 -19.775 1.1569999 0.30000001
28.368999 -19.687 1.1569999 0.28999999
28.424999 -19.594 1.1569999 0.34999999
28.454 -19.548 1.1569999 0.33000001
28.511999 -19.455999 1.1569999 0.34
28.573999 -19.368 1.1569999 0.31
28.628 -19.273001 1.1569999 0.30000001
28.691999 -19.184999 1.1569999 0.30000001
28.756001 -19.097 1.1569999 0.31
28.813999 -19.006001 1.1569999 0.31
28.839001 -18.957001 1.1569999 0.25
28.968 -18.912001 1.159 0.17
29.158001 -18.906 1.164 0.63999999
29.288 -18.860001 1.166 0.27000001
29.351999 -18.771 1.166 0.31
29.409 -18.677999 1.166 0.28999999
29.461 -18.580999 1.166 0.27000001
29.49 -18.535 1.166 0.25999999
29.542999 -18.438999 1.166 0.18000001
29.563999 -18.323 1.164 0.38
29.768999 -18.320999 1.169 0
29.823 -18.225 1.169 0.11
29.863001 -18.121 1.168 0
29.985001 -18.066999 1.171 0
29.983 -18.000999 1.17 0
30.059999 -17.919001 1.17 0.11
10.241 -6.0409999 0.53500003 0.17
10.201 -5.9749999 0.53299999 0.20999999
10.199 -5.9299998 0.53299999 0.25999999
10.209 -5.8930001 0.53299999 0.28
10.217 -5.8759999 0.53200001 0.38999999
10.24 -5.8470001 0.53299999 0.38999999
10.266 -5.8189998 0.53299999 0.54000002
10.28 -5.7849998 0.53299999 0.30000001
10.34 -5.776 0.53399998 0.31999999
10.405 -5.77 0.53600001 0.14
30.848 -17.035999 1.177 0.28999999
30.882999 -16.992001 1.177 0.31999999
30.941999 -16.898001 1.177 0.33000001
31.003 -16.806 1.178 0.31999999
31.07 -16.716 1.178 0.33000001
31.125999 -16.620001 1.178 0.34
31.187 -16.527 1.178 0.34
31.247 -16.433001 1.179 0.34999999
31.289 -16.392 1.179 0.34
31.348 -16.298 1.179 0.28999999
31.423 -16.212 1.1799999 0.38
31.643 -16.200001 1.1849999 0
31.992001 -16.252001 1.1950001 0
32.035 -16.148001 1.194 0.1
31.973 -15.928 1.1900001 0.44
32.136002 -15.883 1.194 0
32.157001 -15.768 1.193 0
32.248001 -15.687 1.194 0
32.291 -15.583 1.194 0
32.368999 -15.495 1.1950001 0
32.401001 -15.448 1.1950001 0.039999999
32.381001 -15.19 1.191 0.15000001
32.304001 -15.03 1.188 0.38
32.626999 -15.056 1.196 0
32.803001 -15.012 1.2 0
32.852001 -14.91 1.2 0.1
32.77 -14.687 1.1950001 0.41
32.581001 -14.479 1.188 0.31
32.624001 -14.376 1.188 0.34
32.687 -14.281 1.189 0.33000001
32.75 -14.186 1.189 0.31999999
32.819 -14.094 1.1900001 0.31999999
32.848 -14.045 1.1900001 0.34
32.909 -13.949 1.191 0.31
32.973999 -13.855 1.191 0.34
33.028999 -13.756 1.192 0.33000001
33.091999 -13.66 1.192 0.31
33.154999 -13.565 1.193 0.31
33.201 -13.522 1.194 0.31999999
33.272999 -13.43 1.1950001 0.34
33.330002 -13.331 1.1950001 0.31999999
33.389999 -13.234 1.196 0.31999999
33.620998 -13.204 1.201 0.30000001
33.700001 -13.113 1.202 0.28
33.786999 -13.025 1.204 0.38
19.532 -7.4829998 0.78299999 0.28999999
33.877998 -12.877 1.204 0.27000001
33.948002 -12.782 1.205 0.31999999
34.018002 -12.686 1.206 0.31999999
34.077 -12.586 1.207 0.31999999
34.134998 -12.486 1.207 0.33000001
34.209999 -12.391 1.2079999 0.37
34.263 -12.35 1.209 0.33000001
34.313 -12.246 1.21 0.25
34.375999 -12.147 1.21 0.31999999
34.431 -12.045 1.211 0.31
34.491001 -11.945 1.212 0.30000001
34.57 -11.851 1.2130001 0.34
34.618 -11.746 1.2130001 0.33000001
34.660999 -11.7 1.214 0.31
34.664001 -11.579 1.2130001 0.25999999
34.603001 -11.438 1.21 0.41999999
34.646999 -11.332 1.21 0.20999999
34.741001 -11.242 1.212 0.33000001
22.673 -7.2490001 0.86299998 0.31999999
21.646 -6.8439999 0.83200002 0.2
34.895 -10.99 1.214 0.31999999
34.958 -10.889 1.215 0.40000001
35.011002 -10.785 1.215 0.18000001
13.937 -4.1810002 0.60799998 0.88999999
13.855 -4.1090002 0.60600001 0.99000001
13.867 -4.0650001 0.60600001 0.99000001
13.856 -4.039 0.60500002 0.99000001
14.117 -4.0669999 0.61199999 0.77999997
14.206 -4.0450001 0.61400002 0
53.280998 -15.063 1.73 0
53.530998 -14.952 1.7359999 0
54.393002 -14.917 1.758 0
64.372002 -17.441 2.0409999 0
61.598 -16.481001 1.961 0
54.722 -14.454 1.7640001 0
60.574001 -15.799 1.929 0
52.995998 -13.642 1.712 0
53.066002 -13.482 1.7130001 0
62.043999 -15.664 1.967 0
62.026001 -15.452 1.965 0
62.032001 -15.247 1.964 0
71.457001 -17.33 2.2290001 0
39.856998 -9.5220003 1.335 0
55.169998 -12.824 1.765 0
40.032001 -9.2320004 1.337 0.12
39.741001 -9.033 1.3279999 0.17
39.34 -8.8120003 1.316 0.20999999
39.380001 -8.691 1.317 0.41999999
39.314999 -8.5469999 1.314 0.23999999
26.503 -5.579 0.95300001 0.23
26.426001 -5.5190001 0.94999999 0.99000001
26.427999 -5.4330001 0.94999999 0.99000001
26.424999 -5.3460002 0.949 0.99000001
26.424 -5.2589998 0.949 0.99000001
26.415001 -5.171 0.94800001 0.99000001
26.410999 -5.085 0.94800001 0.99000001
26.406 -4.9970002 0.94700003 0.99000001
26.403999 -4.954 0.94700003 0.99000001
26.396999 -4.8670001 0.94599998 0.99000001
26.403 -4.7820001 0.94599998 0.99000001
26.414 -4.6989999 0.94599998 0.99000001
26.413 -4.6129999 0.94499999 0.99000001
26.415001 -4.5279999 0.94499999 0.99000001
26.402 -4.4829998 0.94400001 0.99000001
26.41 -4.3990002 0.94400001 0.99000001
26.41 -4.3140001 0.94400001 0.99000001
26.406 -4.2280002 0.94300002 0.99000001
26.400999 -4.1420002 0.94300002 0.99000001
26.412001 -4.059 0.94300002 0.99000001
26.409 -3.974 0.94199997 0.99000001
26.410999 -3.931 0.94199997 0.99000001
26.414 -3.8469999 0.94199997 0.99000001
26.431999 -3.7650001 0.94199997 0.99000001
26.447001 -3.6819999 0.94199997 0.99000001
26.476999 -3.602 0.94300002 0.91000003
26.518999 -3.523 0.94400001 0.88999999
26.388 -3.421 0.94 0.74000001
26.597 -3.4059999 0.94499999 0
50.521999 -6.3309999 1.608 0
54.812 -6.6960001 1.726 0
50.556999 -6.013 1.608 0
46.537998 -5.3850002 1.4960001 0
48.030998 -5.4060001 1.5369999 0
55.854 -6.2020001 1.753 0
67.888 -7.3280001 2.085 0
67.936996 -7.1170001 2.086 0
68.292999 -6.9380002 2.095 0
68.402 -6.7319999 2.0969999 0
74.432999 -7.092 2.263 0
64.431999 -5.9310002 1.987 0
64.420998 -5.8280001 1.9859999 0
68.205002 -5.9559999 2.0899999 0
68.459999 -5.7620001 2.096 0
68.496002 -5.5479999 2.0969999 0
68.762001 -5.3520002 2.1040001 0
68.815002 -4.9219999 2.1040001 0
66.832001 -4.6739998 2.05 0
73.966003 -4.9419999 2.2460001 0
72.390999 -4.6079998 2.2019999 0
65.496002 -3.96 2.0120001 0
76.015999 -4.1209998 2.3 0
79.754997 -3.948 2.4030001 0
70.524002 -3.266 2.1489999 0
75.908997 -3.2780001 2.296 0
76.116997 -3.0480001 2.302 0
36.080002 6.0539999 1.0420001 0.28999999
36.055 6.1659999 1.041 0.28
36.041 6.2220001 1.041 0.36000001
36.001999 6.3319998 1.041 0.17
36.016998 6.4510002 1.0420001 0.34
36.007 6.566 1.0420001 0.34999999
35.987999 6.6789999 1.0420001 0.28999999
35.790001 6.7589998 1.038 0
69.056 24.990999 1.881 0
69.065002 25.117001 1.882 0
68.724998 25.238001 1.876 0
68.543999 25.416 1.873 0
68.642998 25.945 1.88 0
68.570999 26.164 1.88 0
68.833 26.511999 1.888 0
68.989998 27.197001 1.897 0
68.776001 27.362 1.8940001 0
69.384003 28.365 1.916 0
69.401001 28.754999 1.919 0
70.545998 29.75 1.952 0
65.695 28.190001 1.836 0
60.556999 26.775999 1.716 0
60.373001 26.921 1.714 0
60.126999 27.038 1.71 0
60.028999 27.221001 1.71 0
60.165001 27.511 1.715 0
60.105999 27.598 1.715 0
59.77 27.672001 1.7079999 0
59.671001 28.082001 1.71 0
60.098999 28.514999 1.723 0
59.035999 28.351999 1.7 0
58.804001 28.468 1.696 0
58.681 28.636 1.6950001 0
58.859001 28.952999 1.702 0
58.606998 29.058001 1.698 0
58.582001 29.275 1.7 0
58.369999 29.398001 1.697 0
58.647999 29.653999 1.705 0
56.243 28.659 1.646 0
55.869999 28.690001 1.6390001 0
51.847 26.829 1.538 0
55.856998 29.129 1.643 0
55.431999 29.129 1.635 0
51.82 27.750999 1.5470001 0
57.423 31.219999 1.697 0
50.372002 27.794001 1.5190001 0
52.792999 29.676001 1.5880001 0
38.105 21.726999 1.207 0
37.907001 21.771999 1.204 0
38.002998 21.986 1.2079999 0
37.740002 21.913 1.202 0
37.567001 21.971001 1.2 0
37.558998 22.125 1.201 0
37.532001 22.268 1.202 0
56.821999 33.971001 1.716 0
44.792 27.155001 1.401 0
44.804001 27.259001 1.403 0
44.563 27.304001 1.399 0
44.541 27.483999 1.4 0
44.202999 27.468 1.3940001 0
43.453999 27.191 1.376 0
48.07 30.294001 1.502 0
43.793999 27.789 1.39 0
42.305 26.936001 1.351 0
42.296001 27.118 1.353 0
42.486 27.429001 1.36 0
47.464001 30.858 1.498 0
41.699001 27.292999 1.3430001 0
41.717999 27.493 1.346 0
40.716999 26.924 1.3200001 0
40.610001 27.037001 1.319 0
40.200001 26.945999 1.311 0
40.441002 27.292999 1.3200001 0
40.235001 27.337999 1.316 0
38.616001 26.414 1.274 0
38.472 26.493999 1.272 0
38.460999 26.576 1.273 0
39.458 27.632999 1.3049999 0
38.748001 27.316999 1.288 0
38.453999 27.291 1.2819999 0
38.328999 27.384001 1.281 0
37.618999 27.055 1.2640001 0
38.470001 27.759001 1.289 0
36.963001 26.848 1.249 0
36.551998 26.725 1.24 0
36.534 26.888 1.2410001 0
37.070999 27.464001 1.2589999 0
36.569 27.271 1.247 0
36.341 27.278 1.243 0
34.370998 25.882999 1.188 0
35.592999 26.979 1.226 0
35.904999 27.393999 1.237 0
35.576 27.32 1.23 0.039999999
35.212002 27.216999 1.222 0
35.229 27.407 1.225 0
35.258999 27.608999 1.228 0
34.000999 26.709 1.193 0
33.907001 26.808001 1.193 0
34.931999 27.798 1.225 0
33.689999 26.982 1.191 0
33.397999 26.92 1.1849999 0
33.578999 27.240999 1.193 0.079999998
33.07 27.000999 1.181 0.090000004
33.09 27.103001 1.182 0.14
33.004002 27.207001 1.182 0.20999999
32.710999 27.138 1.176 0.11
32.742001 27.337999 1.1799999 0
32.757 27.525999 1.183 0.11
32.016998 27.076 1.163 0
32.120998 27.25 1.168 0
31.51 26.900999 1.152 0
31.402 26.981001 1.151 0
33.148998 28.666 1.206 0
31.273001 27.212999 1.152 0
31.021999 27.166 1.147 0
33.16 29.225 1.215 0
30.618 27.068001 1.1390001 0.1
29.921 26.618999 1.12 0
29.934999 26.801001 1.123 0
30.718 27.677 1.15 0
30.393999 27.558001 1.143 0
29.667999 27.07 1.123 0.050000001
29.353001 26.952 1.1160001 0.079999998
29.371 27.052999 1.118 0
29.391001 27.243 1.1210001 0
28.743 26.809999 1.104 0
31.913 29.959 1.205 0
29.070999 27.459999 1.119 0
28.653999 27.237 1.109 0
28.291 27.061001 1.1 0
28.406 27.257 1.105 0
28.347 27.372 1.1059999 0.059999999
27.889 27.099001 1.094 0.090000004
27.735001 27.118999 1.092 0
27.792999 27.348 1.096 0.07
27.357 27.087 1.085 0
26.811001 26.714001 1.0700001 0
25.714001 25.698999 1.036 0.12
25.655001 25.802999 1.0369999 0.20999999
25.533001 25.841999 1.036 0.11
25.472 25.941999 1.036 0
25.211 25.839001 1.031 0
26.33 27.157 1.0700001 0
26.240999 27.236 1.0700001 0
26.025999 27.098 1.064 0
25.85 27.084 1.061 0.059999999
24.486 25.815001 1.0190001 0.14
24.41 25.898001 1.0190001 0.30000001
23.806 25.415001 1.001 0.19
23.761 25.528 1.003 0
24.061001 26.013 1.015 0
23.548 25.700001 1.002 0
23.283001 25.570999 0.99599999 0.1
23.035999 25.459999 0.99000001 0.25999999
22.955 25.531 0.99000001 0.2
22.844999 25.57 0.98900002 0.13
22.774 25.652 0.99000001 0.17
22.926001 25.905001 0.99599999 0
23.642 26.886 1.024 0
24.507999 28.049999 1.057 0
27.059 31.171 1.148 0
24.646 28.568001 1.068 0
36.790001 42.937 1.4960001 0
22.583 26.594 1.003 0
21.665001 25.837999 0.97600001 0.23
21.509001 25.816999 0.97399998 0.22
21.447001 25.908001 0.97399998 0.12
21.499001 26.136999 0.97899997 0.12
21.462 26.176001 0.97899997 0.13
21.364 26.224001 0.97899997 0.16
21.208 26.198999 0.97600001 0.15000001
21.239 26.408001 0.98000002 0.13
20.974001 26.246 0.97299999 0.16
20.688 26.055 0.96600002 0.13
20.591 26.101 0.96499997 0.17
20.643999 26.253 0.96899998 0.18000001
20.545 26.297001 0.96799999 0.12
20.598 26.537001 0.97299999 0.11
20.509001 26.594 0.97299999 0.23
20.962 27.360001 0.99299997 0
21.698 28.507 1.024 0
20.073999 26.631001 0.96799999 0.13
19.847 26.500999 0.96200001 0.12
19.518 26.233 0.95300001 0.13
19.631001 26.559999 0.96100003 0.18000001
19.392 26.408001 0.954 0.2
19.211 26.334999 0.95099998 0.14
18.892 26.068001 0.94199997 0.15000001
18.825001 26.062 0.94099998 0.16
18.681 26.035 0.93800002 0.12
18.645 26.157 0.94 0.14
18.412001 26.003 0.93400002 0.20999999
18.606001 26.452999 0.94499999 0.15000001
18.636 26.674 0.949 0.36000001
18.559999 26.743999 0.94999999 0.16
18.552 26.823 0.95099998 0.38
18.530001 26.971001 0.954 0.11
18.493999 27.101 0.95599997 0.11
18.364 27.091999 0.954 0.33000001
17.341 25.754 0.91500002 0
17.212999 25.739 0.91399997 0.13
16.878 25.409 0.903 0.15000001
16.792999 25.367001 0.90100002 0.23999999
16.868999 25.657 0.90799999 0.15000001
16.791 25.715 0.90799999 0.15000001
16.788 25.886999 0.91100001 0.17
16.818001 26.113001 0.91600001 0.22
16.794001 26.257 0.91799998 0.2
16.695999 26.285999 0.91799998 0
16.736 26.440001 0.921 0
16.427 26.316 0.91500002 0.31999999
16.299 26.294001 0.91299999 0.18000001
16.292 26.469999 0.91600001 0.14
15.638 25.584999 0.89099997 0.16
15.535 25.597 0.88999999 0.18000001
15.491 25.614 0.88999999 0.28999999
15.413 25.667999 0.88999999 0.20999999
15.407 25.841999 0.89399999 0.2
15.304 25.851999 0.89300001 0.38
15.743 26.788 0.91600001 0.27000001
15.667 26.851 0.91600001 0.11
15.504 26.764 0.91299999 0.13
14.839 25.707001 0.884 0.31
14.684 25.622999 0.88099998 0.12
14.636 25.726999 0.88200003 0.30000001
14.768 26.15 0.89200002 0.23
14.685 26.197001 0.89200002 0.19
14.706 26.427999 0.89700001 0.15000001
14.442 26.146999 0.889 0.25
14.48 26.313 0.89200002 0.17
14.284 26.149 0.88700002 0
14.633 26.993 0.90799999 0
15.281 28.402 0.94300002 0.059999999
14.74 27.603001 0.921 0.18000001
14.358 27.09 0.90700001 0.16
11.288 21.367001 0.759 0.25
11.238 21.436001 0.75999999 0.16
11.184 21.496 0.75999999 0.18000001
11.109 21.517 0.75999999 0.18000001
11.047 21.563 0.75999999 0.41999999
11.026 21.690001 0.76200002 0.23999999
10.966 21.740999 0.76300001 0.14
10.872 21.639999 0.75999999 0.16
10.686 21.436001 0.75400001 0.15000001
10.468 21.164 0.74599999 0.27000001
10.687 21.781 0.76099998 0.23999999
10.587 21.75 0.759 0.19
10.53 21.804001 0.75999999 0.49000001
10.548 22.02 0.764 0.2
12.552 26.320999 0.87199998 0.34999999
12.369 26.146999 0.86699998 0.25
12.372 26.368 0.87199998 0.2
12.31 26.452 0.87300003 0.25
13.008 28.187 0.91500002 0.18000001
12.832 28.037001 0.91100001 0.28
11.802 25.997 0.85900003 0.2
12.877 28.489 0.92000002 0.14
11.877 26.493999 0.87 0
11.858 26.677 0.87300003 0
13.082 29.688999 0.94700003 0
11.441 26.403999 0.86400002 0.19
11.312 26.334 0.861 0.25
11.231 26.259001 0.85900003 0
11.175 26.357 0.86000001 0.039999999
11.273 26.823999 0.87099999 0.16
10.843 26.025999 0.85000002 0.16
10.696 25.900999 0.847 0.44999999
10.627 25.966 0.847 0.18000001
10.663 26.289 0.85399997 0.36000001
10.55 26.127001 0.85000002 0.22
10.518 26.285999 0.85299999 0.30000001
10.445 26.344 0.85399997 0.15000001
10.154 25.846001 0.84100002 0.41
10.121 26 0.84399998 0.12
9.9300003 25.75 0.83700001 0
9.8439999 25.766001 0.83600003 0.050000001
9.8129997 25.806 0.83700001 0
9.5930004 25.714001 0.833 0
9.5109997 25.742001 0.833 0.12
9.6529999 26.379999 0.84799999 0.13
9.559 26.382 0.847 0.43000001
9.4630003 26.374001 0.84600002 0.23999999
9.4099998 26.357 0.84600002 0.25
9.3269997 26.385 0.84600002 0.25999999
9.2270002 26.367001 0.84500003 0.20999999
9.1350002 26.367001 0.84399998 0
10.192 29.731001 0.92400002 0.11
8.9099998 26.25 0.83999997 0.23999999
8.8590002 26.372 0.84200001 0.25999999
8.816 26.381001 0.84200001 0.30000001
8.7270002 26.391001 0.84100002 0.33000001
8.6569996 26.455999 0.84200001 0.2
8.6549997 26.737 0.84799999 0
8.5270004 26.625 0.84500003 0.11
8.5600004 27.021 0.85399997 0.16
8.4960003 27.117001 0.85500002 0.14
8.4280005 27.048 0.85399997 0.50999999
8.4209995 27.326 0.86000001 0.13
8.2650003 27.122999 0.85399997 0.28999999
8.2559996 27.402 0.86000001 0.14
8.1470003 27.353001 0.85799998 0.16
7.9580002 27.025 0.85000002 0.5
7.8579998 26.997999 0.84899998 0.22
7.7950001 26.940001 0.847 0.25999999
7.6729999 26.833 0.84399998 0.23999999
7.585 26.846001 0.84399998 0.38
7.5250001 26.954 0.84600002 0.20999999
7.402 26.841 0.84200001 0.25999999
7.4219999 27.247999 0.85100001 0.28999999
7.2340002 26.886999 0.84200001 0.19
7.1399999 26.707001 0.838 0.2
7.0580001 26.737 0.838 0.33000001
6.9650002 26.722 0.83700001 0.30000001
6.8649998 26.681999 0.83600003 0.33000001
6.8099999 26.818001 0.838 0.25
6.7119999 26.783001 0.83700001 0.34
6.6259999 26.796 0.83700001 0.22
6.5570002 26.698999 0.83399999 0.34
6.467 26.693001 0.83399999 0.30000001
6.3769999 26.687 0.833 0.28999999
6.303 26.747999 0.83399999 0.34
6.2309999 26.822001 0.83499998 0.25999999
6.1290002 26.764 0.83399999 0.27000001
5.974 26.465 0.82599998 0.33000001
5.9330001 26.478001 0.82599998 0.25
5.8759999 26.614 0.829 0.38999999
5.7989998 26.664 0.82999998 0.28
5.7059999 26.641001 0.829 0.27000001
5.598 26.541 0.82599998 0.33000001
5.5100002 26.537001 0.82599998 0.34
5.4549999 26.479 0.824 0.28
5.3460002 26.372 0.82099998 0.31999999
5.2940001 26.544001 0.82499999 0.25999999
5.2319999 26.669001 0.82700002 0.19
5.0739999 26.299999 0.81800002 0.5
5.0370002 26.555 0.824 0.23999999
4.9330001 26.459 0.82099998 0.2
4.8169999 26.295 0.81699997 0.31999999
4.8369999 26.645 0.82499999 0.27000001
4.7649999 26.723 0.82700002 0.28999999
4.6849999 26.761999 0.82700002 0.30000001
4.579 26.648001 0.824 0.34999999
4.4980001 26.676001 0.824 0.33000001
4.4159999 26.705999 0.82499999 0.23
4.336 26.742001 0.82499999 0.30000001
4.2249999 26.318001 0.815 0.34999999
4.3189998 27.459 0.84100002 0.25
4.25 27.584999 0.84399998 0.25999999
4.1550002 27.541 0.84299999 0.23
4.0599999 27.500999 0.84100002 0
3.675 25.718 0.80000001 0.28
3.5880001 25.688 0.79900002 0.28
3.5079999 25.698999 0.79900002 0.40000001
3.4719999 26.055 0.80699998 0.30000001
3.395 26.097 0.80800003 0.31999999
3.2850001 25.889999 0.80299997 0.28
3.2079999 25.931 0.80299997 0.30000001
3.164 25.913 0.80299997 0.36000001
3.0880001 25.968 0.80400002 0.31999999
3.1099999 26.875999 0.824 0.23
3.01 26.747999 0.82099998 0.25999999
2.9430001 26.916 0.82499999 0.31
2.8469999 26.82 0.82300001 0.27000001
2.7590001 26.789 0.82200003 0.34
2.7160001 26.780001 0.82099998 0.27000001
2.6359999 26.836 0.82200003 0.28999999
2.5480001 26.804001 0.82200003 0.28999999
2.4619999 26.788 0.82099998 0.34999999
2.3759999 26.775999 0.82099998 0.34999999
2.2880001 26.747 0.81999999 0.23999999
2.2019999 26.718 0.81900001 0.38
2.1600001 26.728001 0.81900001 0.20999999
2.0739999 26.711 0.81800002 0.38
2 26.849001 0.82099998 0.23
1.911 26.789 0.81999999 0.31999999
1.824 26.749001 0.81900001 0.31999999
1.739 26.747999 0.81900001 0.27000001
1.659 26.812 0.81999999 0.27000001
1.704 28.285 0.85399997 0.16
1.531 26.789 0.81900001 0.31999999
1.513 28.049999 0.84799999 0.20999999
1.369 26.940001 0.82300001 0.23
1.278 26.802999 0.81900001 0.34
1.192 26.76 0.81800002 0.28999999
1.103 26.653999 0.81599998 0.27000001
1.058 26.568001 0.81400001 0.34999999
0.97399998 26.547001 0.81300002 0.34
0.89399999 26.653999 0.81599998 0.28
0.81099999 26.691 0.81599998 0.16
0.73400003 26.933001 0.82200003 0.46000001
0.65799999 27.343 0.83099997 0.23
0.56099999 26.750999 0.81800002 0.25999999
0.51800001 26.743999 0.81800002 0.25999999
0.43599999 26.871 0.81999999 0.25
0.34999999 26.750999 0.81800002 0.27000001
0.26499999 26.639999 0.815 0.23999999
0.182 26.736 0.81699997 0.34
0.098999999 27.084999 0.82499999 0.18000001
0.014 26.768999 0.81800002 0.25
-0.028000001 26.735001 0.81699997 0.30000001
-0.112 26.754999 0.81800002 0.31999999
-0.19499999 26.67 0.81599998 0.30000001
-0.27900001 26.653999 0.815 0.30000001
-0.36300001 26.681 0.81599998 0.28999999
-0.449 26.792999 0.81900001 0.27000001
-0.53200001 26.747999 0.81800002 0.30000001
-0.57099998 26.627001 0.815 0.28999999
-0.65600002 26.681 0.81599998 0.31999999
-0.741 26.719 0.81699997 0.28999999
-0.82300001 26.656 0.81599998 0.34
-0.90899998 26.716 0.81699997 0.27000001
-0.98900002 26.605 0.815 0.20999999
-1.069 26.511999 0.81300002 0.31999999
-1.113 26.576 0.81400001 0.27000001
-1.199 26.625999 0.815 0.36000001
-1.284 26.638 0.81599998 0.28999999
-1.3710001 26.698 0.81699997 0.31999999
-1.467 26.917 0.82200003 0.28
-1.539 26.687 0.81699997 0.28
-1.624 26.716 0.81800002 0.31999999
-1.67 26.771 0.81900001 0.23999999
-1.751 26.716 0.81800002 0.31
-1.831 26.656 0.81699997 0.33000001
-1.914 26.646 0.81699997 0.31999999
-1.998 26.634001 0.81699997 0.25999999
-2.0840001 26.656 0.81699997 0.25
-2.1619999 26.579 0.81599998 0.30000001
-2.207 26.622 0.81699997 0.33000001
-2.2909999 26.622999 0.81699997 0.2
-2.369 26.546 0.815 0.44
-2.4059999 26.044001 0.80400002 0.23999999
-2.4879999 26.042999 0.80400002 0.25
-2.619 26.524 0.815 0.28999999
-2.698 26.476 0.81400001 0.22
-2.7539999 26.611 0.81800002 0.37
-2.8069999 26.313999 0.81099999 0.28999999
-2.898 26.379999 0.81300002 0.28
-2.9860001 26.417 0.81400001 0.27000001
-3.082 26.517 0.81599998 0.31999999
-3.161 26.471001 0.815 0.31
-3.2579999 26.577999 0.81800002 0.30000001
-3.309 26.642 0.81999999 0.28
-3.392 26.629999 0.81999999 0.27000001
-3.47 26.570999 0.81900001 0.25999999
-3.566 26.655001 0.82099998 0.36000001
-3.652 26.662001 0.82099998 0.27000001
-3.7360001 26.65 0.82099998 0.36000001
-3.8199999 26.643999 0.82099998 0.27000001
-3.8440001 26.516001 0.81900001 0.28999999
-3.928 26.507 0.81900001 0.25999999
-4.0190001 26.542 0.81999999 0.28
-4.1040001 26.540001 0.81999999 0.36000001
-4.2049999 26.636999 0.82200003 0.30000001
-4.2989998 26.688999 0.824 0.28999999
-4.395 26.75 0.82599998 0.28
-4.4109998 26.586 0.82200003 0.25
-4.5089998 26.66 0.824 0.37
-4.592 26.638 0.824 0.25
-4.6859999 26.687 0.82499999 0.31999999
-4.7810001 26.733 0.82700002 0.34
-4.8579998 26.677999 0.82599998 0.31
-4.9640002 26.781 0.829 0.28
-4.9970002 26.724001 0.82700002 0.30000001
-5.0570002 26.586 0.82499999 0.33000001
-5.1079998 26.403 0.82099998 0.28999999
-5.1459999 26.158001 0.815 0.30000001
-5.2589998 26.296 0.81900001 0.27000001
-5.3800001 26.466 0.82300001 0.30000001
-5.454 26.406 0.82200003 0.25999999
-5.4980001 26.410999 0.82300001 0.31999999
-5.5830002 26.400999 0.82300001 0.30000001
-5.6750002 26.427999 0.824 0.28
-5.757 26.403 0.824 0.34
-5.8400002 26.384001 0.824 0.25999999
-5.9219999 26.362 0.824 0.28999999
-6.02 26.412001 0.82499999 0.28999999
-6.0650001 26.417999 0.82599998 0.31999999
-6.171 26.497999 0.82800001 0.34
-6.2610002 26.503 0.829 0.27000001
-6.3660002 26.577 0.83099997 0.28999999
-6.4840002 26.697001 0.83399999 0.31999999
-6.5689998 26.68 0.83399999 0.28
-6.6589999 26.684999 0.83499998 0.28999999
-6.6830001 26.604 0.833 0.27000001
-6.7420001 26.486 0.83099997 0.28999999
-6.8340001 26.5 0.83200002 0.30000001
-6.9359999 26.552 0.833 0.33000001
-7.0120001 26.500999 0.833 0.23999999
-7.0949998 26.479 0.833 0.31
-7.21 26.572001 0.83499998 0.27000001
-7.2350001 26.499001 0.83399999 0.27000001
-7.3109999 26.448999 0.833 0.2
-7.4549999 26.645 0.838 0.47999999
-7.6139998 26.886999 0.84500003 0.25
-7.7090001 26.898001 0.84600002 0.23
-7.822 26.973 0.84799999 0.36000001
-7.8870001 26.879999 0.84600002 0.20999999
-7.8870001 26.726999 0.84299999 0.25
-7.9679999 26.691 0.84299999 0.28999999
-8.0670004 26.716999 0.84399998 0.31999999
-8.1680002 26.747 0.84500003 0.28
-8.2720003 26.785999 0.847 0.28
-8.3649998 26.789 0.847 0.30000001
-8.4300003 26.701 0.84600002 0.28
-8.4540005 26.631001 0.84500003 0.31
-8.533 26.591 0.84399998 0.25999999
-4.5710001 14.131 0.54699999 0.16
-4.6149998 14.115 0.546 0.47
-4.6659999 14.121 0.54699999 0.37
-8.9870005 26.84 0.85299999 0.28
-4.783 14.101 0.54699999 0.34999999
-4.8189998 14.063 0.54699999 0.36000001
-4.862 14.044 0.54699999 0.27000001
-4.9039998 14.023 0.54699999 0.56999999
-9.4879999 26.790001 0.85600001 0.23
-9.5179996 26.608 0.852 0.23
-9.6389999 26.683001 0.85399997 0.41
-9.7609997 26.886999 0.86000001 0.2
-9.9090004 27.028999 0.86400002 0.23999999
-9.9910002 26.990999 0.86400002 0.19
-10.037 26.854 0.861 0.25
-10.069 26.686001 0.85799998 0.31999999
-10.155 26.66 0.85799998 0.25
-10.244 26.641001 0.85799998 0.30000001
-10.279 26.608 0.85799998 0.30000001
-10.351 26.544001 0.85699999 0.30000001
-10.433 26.509001 0.85699999 0.25999999
-10.549 26.558001 0.85900003 0.31999999
-10.652 26.575001 0.86000001 0.31999999
-10.792 26.679001 0.86400002 0.19
-11.026 27.013 0.87300003 0
-11.21 27.339001 0.88099998 0
-11.494 27.297001 0.88300002 0.12
-11.48 27.027 0.87699997 0.28999999
-11.667 27.228001 0.88300002 0.20999999
-11.722 27.120001 0.88099998 0.28
-11.735 27.035 0.88 0.25999999
-11.838 27.038 0.88099998 0.18000001
-11.857 26.853001 0.87699997 0.25999999
-11.949 26.832001 0.87699997 0.17
-12.076 26.889 0.88 0.47999999
-12.168 26.867001 0.88 0.22
-12.274 26.878 0.88099998 0.25
-12.365 26.964001 0.884 0.14
-12.394 26.806 0.88099998 0.47999999
-12.483 26.775999 0.88099998 0.22
-12.616 26.841 0.884 0.17
-12.682 26.763 0.88300002 0.47
-12.805 26.805 0.88499999 0.23
-12.925 26.837999 0.88700002 0.19
-12.964 26.811001 0.88700002 0.38999999
-13.048 26.77 0.88700002 0
-12.683 25.816999 0.86299998 0.12
-12.823 25.895 0.866 0.16
-12.909 25.864 0.86699998 0.28999999
-15.1 30.007999 0.97299999 0.18000001
-15.158 29.889 0.972 0.33000001
-15.199 29.855 0.97100002 0.16
-13.75 26.805 0.89399999 0.36000001
-12.89 24.938999 0.84799999 0.16
-12.984 24.927999 0.84799999 0.27000001
-13.122 25.002001 0.85100001 0
-14.199 26.642 0.89600003 0.11
-13.526 25.285999 0.861 0.18000001
-13.854 25.704 0.87300003 0.31999999
-14.06 25.891001 0.87900001 0.2
-14.067 25.709999 0.87599999 0.16
-14.137 25.646 0.875 0.43000001
-14.712 26.490999 0.898 0.16
-14.21 25.4 0.87099999 0.14
-14.178 25.25 0.86799997 0.50999999
-14.155 25.025 0.86299998 0.22
-14.354 25.191999 0.86900002 0.2
-14.388 25.069 0.86699998 0.34
-14.471 25.030001 0.86699998 0.28999999
-14.518 24.931 0.86500001 0.33000001
-14.638 24.955999 0.86699998 0.22
-14.734 25.030001 0.87 0.38
-14.887 25.108999 0.87300003 0.20999999
-14.955 25.042999 0.87300003 0.28999999
-15.062 25.044001 0.87400001 0.31
-15.137 24.99 0.87400001 0.20999999
-15.387 25.223 0.88099998 0.38999999
-15.635 25.448999 0.889 0.18000001
-15.855 25.715 0.89600003 0.17
-15.838 25.509001 0.89200002 0
-15.859 25.364 0.88999999 0.12
-15.656 24.865999 0.87800002 0.2
-15.572 24.562 0.87099999 0.30000001
-15.618 24.464001 0.86900002 0.34999999
-15.678 24.389999 0.86900002 0.28
-15.874 24.608999 0.875 0.36000001
-15.958 24.569 0.87599999 0.2
-15.999 24.462999 0.87400001 0.2
-16.051001 24.375999 0.87300003 0.17
-18.105 27.302 0.954 0.11
-18.198999 27.257999 0.95499998 0.25
-18.327 27.264 0.95599997 0.20999999
-18.386 27.257999 0.95700002 0
-18.518 27.268 0.95899999 0.079999998
-21.573999 31.549 1.079 0.090000004
-21.622 31.407 1.077 0
-16.856001 24.33 0.88200003 0
-16.959 24.313999 0.88300002 0
-17.072001 24.313 0.88499999 0.12
-16.927999 24.028 0.87800002 0.090000004
-21.438999 30.218 1.052 0.16
-21.559999 30.187 1.053 0
-22.224001 30.91 1.075 0.11
-22.038 30.450001 1.064 0.16
-19.302999 26.327 0.95200002 0.43000001
-19.320999 26.264 0.95099998 0.23999999
-19.358999 26.143999 0.949 0.25
-19.459 26.107 0.94999999 0.25999999
-19.535 26.038 0.94999999 0.27000001
-19.653999 26.025999 0.95099998 0.18000001
-19.781 26.023001 0.95300001 0.43000001
-19.903999 26.014999 0.954 0.2
-19.885 25.906 0.95200002 0
-23.240999 29.687 1.067 0
-23.666 30.035 1.079 0
-23.719 29.908001 1.0779999 0.16
-23.818001 29.84 1.0779999 0.11
-23.910999 29.860001 1.08 0.15000001
-24.017 29.801001 1.08 0
-24.087999 29.697001 1.079 0
-24.037001 29.445 1.074 0
-18.518 22.549 0.87300003 0
-24.457001 29.577999 1.082 0
-24.507999 29.450001 1.081 0
-24.295 29.101999 1.072 0
-24.455999 29.108 1.074 0.15000001
-18.639999 22.055 0.866 0.2
-18.674 21.955 0.86500001 0.22
-18.796 21.958 0.86699998 0.22
-18.891001 21.929001 0.86799997 0
-43.758999 50.422001 1.729 0
-27.188999 31.246 1.152 0
-19.412001 22.179001 0.88 0
-19.462999 22.097 0.87900001 0
-19.384001 21.868 0.87400001 0
-19.382 21.728001 0.87099999 0.13
-19.415001 21.628 0.87 0.22
-19.532 21.620001 0.87199998 0.14
-19.556999 21.580999 0.87199998 0
-19.546 21.431999 0.86900002 0
-19.575001 21.33 0.86799997 0
-20.030001 21.688 0.88099998 0
-20.153 21.683001 0.88200003 0
-20.247999 21.649 0.88300002 0
-28.959 29.521 1.15 0
-31.160999 31.663 1.22 0
-30.322001 30.618999 1.1900001 0
-30.634001 30.740999 1.197 0
-28.33 28.076 1.117 0
-28.375 27.945 1.115 0.1
-28.865999 28.25 1.128 0
-28.636999 27.938 1.119 0
-29.434 28.535 1.142 0.050000001
-28.596001 27.549 1.113 0
-28.573999 27.356001 1.109 0.12
-28.622999 27.232 1.108 0
-28.820999 27.247 1.112 0
-29.221001 27.452 1.1210001 0
-30.719 28.766001 1.1670001 0.039999999
-30.639 28.511999 1.1619999 0.090000004
-29.415001 27.202999 1.1210001 0
-29.417999 27.034 1.118 0.059999999
-29.593 27.024 1.1210001 0.079999998
-31.356001 28.452 1.173 0
-31.52 28.42 1.175 0.079999998
-29.999001 26.966 1.127 0.1
-29.969 26.768999 1.123 0.090000004
-30.096001 26.712999 1.125 0
-30.27 26.698 1.128 0
-30.461 26.695999 1.131 0
-30.454 26.521 1.128 0
-30.726 26.589001 1.1339999 0.07
-31.827 27.452999 1.166 0.090000004
-31.917 27.357 1.166 0.079999998
-32.047001 27.294001 1.1670001 0.14
-32.196999 27.247 1.169 0.11
-32.543999 27.365999 1.177 0
-32.664001 27.292 1.178 0
-32.912998 27.323999 1.183 0
-33.917 28.066999 1.211 0
-48.185001 39.605999 1.6289999 0
-48.486 39.598999 1.6339999 0
-48.102001 38.784 1.6160001 0
-47.719002 38.229 1.601 0
-49.112999 39.091999 1.638 0
-49.049 38.916 1.6339999 0
-48.084999 37.661999 1.599 0
-48.109001 36.955002 1.59 0
-47.700001 36.521999 1.577 0
-47.694 36.279999 1.573 0
-47.645 36.007 1.568 0
-47.827999 35.91 1.5700001 0
-47.782001 35.640999 1.566 0
-48.941002 36.266998 1.596 0
-47.938999 35.175999 1.563 0
-48.110001 35.069 1.564 0
-41.092999 29.761999 1.364 0
-40.136002 28.878 1.334 0
-40.299999 28.804001 1.336 0
-45.589001 32.365002 1.482 0
-39.347 27.752001 1.3049999 0
-39.511002 27.681999 1.307 0
-39.466 27.558001 1.3049999 0
-39.470001 27.377001 1.302 0
-39.613998 27.292999 1.304 0
-39.798 27.236 1.307 0
-39.835999 27.077999 1.3049999 0
-39.831001 26.892 1.303 0
-40.130001 27.003 1.3099999 0
-40.452999 27.035 1.316 0
-40.441002 26.844 1.314 0
-40.502998 26.702 1.313 0
-40.629002 26.601999 1.314 0
-40.747002 26.497999 1.3150001 0
-41.839001 27.02 1.3430001 0
-42.187 27.150999 1.351 0
-42.424 27.115 1.355 0
-42.588001 27.032 1.357 0
-42.535999 26.812 1.353 0
-57.891998 36.226002 1.7640001 0
-58.289001 36.220001 1.771 0
-48.563 29.447001 1.502 0
-48.896999 29.438999 1.508 0
-48.582001 29.042999 1.497 0
-48.993 29.079 1.506 0
-49.039001 28.899 1.505 0
-49.195 28.886999 1.508 0
-49.159 28.659 1.5039999 0
-49.201 28.476 1.503 0
-49.34 28.35 1.5039999 0
-56.451 32.195999 1.688 0
-56.296001 31.874001 1.682 0
-49.535 27.947001 1.5039999 0
-56.363998 31.562 1.6799999 0
-55.702 30.962999 1.66 0
-58.435001 32.240002 1.728 0
-60.487999 31.055 1.757 0
-60.23 30.091 1.742 0
-58.575001 28.579 1.693 0
-58.683998 28.290001 1.692 0
-59.117001 28.27 1.701 0
-59.511002 28.229 1.7079999 0
-59.341999 27.921 1.702 0
-56.682999 26.454 1.633 0
-58.488998 26.85 1.674 0
-59.030998 26.986 1.687 0
-58.768002 26.643 1.678 0
-71.478996 31.860001 1.9910001 0
-72.040001 30.096001 1.9859999 0
-72.207001 29.767 1.987 0
-72.703003 29.173 1.993 0
-73.475998 28.948999 2.007 0
-73.528 28.702 2.006 0
-73.380997 28.247 1.999 0
-73.328003 27.698999 1.994 0
-73.486 26.839001 1.99 0
-72.831001 8.0340004 1.877 0.97000003
-72.811996 7.9159999 1.876 0.99000001
-72.803001 7.684 1.876 0.99000001
-72.839996 7.4569998 1.876 0.99000001
-72.804001 7.2220001 1.875 0.99000001
-73.030998 7.013 1.8789999 0.74000001
-73.049004 6.783 1.8789999 0
-38.201 -3.3599999 1.082 0
-38.203999 -3.4809999 1.082 0
-38.146999 -3.5969999 1.081 0
-38.199001 -3.723 1.082 0
-38.193001 -3.8429999 1.0829999 0
-60.283001 -8.0010004 1.5930001 0
-59.042999 -9.4469995 1.5700001 0
-58.638 -9.8549995 1.563 0
-58.603001 -10.038 1.562 0
-58.716 -10.438 1.567 0
-58.852001 -10.653 1.5700001 0
-27.921 -5.9520001 0.85799998 0
-27.912001 -6.0409999 0.85900003 0
-28.83 -6.4310002 0.88099998 0
-48.831001 -10.992 1.348 0
-48.842999 -11.156 1.349 0
-48.883999 -11.327 1.351 0
-28.476999 -6.6810002 0.87400001 0
-48.948002 -11.666 1.354 0.07
-28.622999 -6.9060001 0.87900001 0
-28.277 -6.9159999 0.87099999 0
-28.208 -6.9460001 0.87 0.12
-20.290001 -5.0570002 0.685 0.17
-20.245001 -5.1129999 0.68400002 0.23
-20.242001 -5.1799998 0.68400002 0.49000001
-20.228001 -5.244 0.68400002 0.33000001
-20.264999 -5.322 0.685 0.22
-29.59 -7.882 0.90600002 0.15000001
-29.646999 -7.948 0.90700001 0.13
-29.624001 -8.0410004 0.90700001 0.11
-29.552 -8.1219997 0.90600002 0.31
-29.419001 -8.184 0.90399998 0.2
-29.403 -8.2790003 0.90399998 0
-29.617001 -8.4399996 0.91000003 0
-29.552 -8.5220003 0.90899998 0
-62.560001 -18.391001 1.693 0
-61.051998 -18.575001 1.6619999 0
-60.803001 -18.707001 1.6569999 0
-60.668999 -18.875 1.655 0.07
-19.252001 -6.0710001 0.66799998 0
-19.129999 -6.098 0.66600001 0
-18.943001 -6.2360001 0.662 0.17
-18.715 -6.2249999 0.65700001 0.18000001
-18.392 -6.1500001 0.64999998 0.31
-18.524 -6.2589998 0.65399998 0.20999999
-18.569 -6.3390002 0.65499997 0.49000001
-18.715 -6.4549999 0.65899998 0.25
-18.26 -6.362 0.64899999 0.20999999
-18.205999 -6.4070001 0.648 0.30000001
-18.224001 -6.4780002 0.64899999 0.36000001
-18.281 -6.5310001 0.64999998 0.28999999
-18.332001 -6.6139998 0.65200001 0.30000001
-18.259001 -6.652 0.65100002 0.20999999
-18.48 -6.7989998 0.65700001 0.44
-18.441 -6.8509998 0.65600002 0.19
-17.566999 -6.5869999 0.63599998 0.30000001
-17.555 -6.6459999 0.63599998 0.33000001
-18.851999 -7.2410002 0.66799998 0.57999998
-18.246 -7.073 0.65399998 0.22
-17.785999 -6.9590001 0.64300001 0.25999999
-17.874001 -7.0580001 0.64600003 0.30000001
-18.268999 -7.2810001 0.65600002 0.23
-17.558001 -7.0289998 0.639 0.30000001
-18.271999 -7.382 0.65700001 0.31999999
-17.951 -7.3179998 0.64999998 0.27000001
-17.643 -7.256 0.64300001 0.27000001
-17.336 -7.1929998 0.63599998 0.34999999
-17.434999 -7.2989998 0.639 0.28999999
-17.917999 -7.5679998 0.65100002 0.38
-18.051001 -7.658 0.65499997 0.23999999
-18.493999 -7.9159999 0.66600001 0.25999999
-18.216 -7.8639998 0.66000003 0.23
-18.627001 -8.1120005 0.671 0
-17.398001 -7.6389999 0.64099997 0.090000004
-17.377001 -7.6960001 0.64099997 0.18000001
-18.561001 -8.2919998 0.671 0.14
-18.254 -8.2229996 0.66399997 0.54000002
-17.200001 -7.7789998 0.63800001 0.22
-18.785999 -8.5699997 0.67900002 0.18000001
-18.812 -8.6540003 0.68000001 0.31
-18.888 -8.7609997 0.68199998 0.23
-18.836 -8.809 0.68199998 0.36000001
-18.938999 -8.9300003 0.685 0.20999999
-19.035 -9.0489998 0.68800002 0.25
-24.392 -11.65 0.824 0
-18.756001 -9.0240002 0.68199998 0
-38.955002 -19.076 1.196 0
-38.866001 -19.184 1.1950001 0.07
-12.412 -6.1550002 0.52399999 0.16
-12.497 -6.2220001 0.52600002 0
-12.713 -6.3800001 0.53200001 0
-39.207001 -19.892 1.21 0
-38.623001 -19.747999 1.196 0
-38.640999 -19.910999 1.198 0
-12.246 -6.388 0.523 0.14
-12.123 -6.348 0.51999998 0.46000001
-12.181 -6.427 0.52200001 0.18000001
-12.081 -6.4229999 0.51999998 0.28999999
-12.059 -6.46 0.51999998 0.36000001
-11.977 -6.4640002 0.51800001 0.44999999
-12.292 -6.6849999 0.52700001 0.25999999
-11.907 -6.5229998 0.51700002 0.25999999
-11.893 -6.54 0.51700002 0.33000001
-11.734 -6.5 0.514 0.34
-11.689 -6.5229998 0.51300001 0.30000001
-11.617 -6.5310001 0.51200002 0.37
-11.601 -6.5700002 0.51200002 0.36000001
-11.591 -6.612 0.51200002 0.36000001
-11.477 -6.5949998 0.50999999 0.30000001
-11.449 -6.6030002 0.509 0.28
-11.459 -6.6570001 0.50999999 0.51999998
-11.452 -6.7010002 0.50999999 0.31999999
-11.345 -6.6859999 0.50800002 0.27000001
-11.348 -6.7360001 0.509 0.38
-11.322 -6.7680001 0.509 0.28
-11.453 -6.8959999 0.51300001 0.19
-31.416 -19.037001 1.045 0.19
-12.29 -7.4819999 0.53600001 0.18000001
-11.088 -6.7950001 0.50400001 0.20999999
-12.239 -7.5570002 0.53600001 0.47999999
-12.329 -7.6659999 0.53899997 0.25
-10.959 -6.8590002 0.50300002 0.28
-27.879 -17.618 0.95899999 0.18000001
-27.743999 -17.593 0.95599997 0.38999999
-27.591999 -17.618999 0.954 0.18000001
-13.996 -8.9840002 0.58700001 0.14
-13.931 -9.0039997 0.58600003 0.36000001
-13.916 -9.0559998 0.58600003 0.55000001
-14.741 -9.6610003 0.61000001 0.28999999
-10.621 -6.9759998 0.498 0.28999999
-10.549 -6.9759998 0.49599999 0.28
-14.673 -9.783 0.61000001 0.2
-12.42 -8.3319998 0.54900002 0.28
-10.638 -7.1810002 0.50099999 0.37
-10.619 -7.2160001 0.50099999 0.28999999
-10.489 -7.1760001 0.498 0.56
-10.38 -7.125 0.495 0.22
-10.42 -7.2010002 0.49700001 0.28999999
-10.288 -7.1570001 0.49399999 0.47999999
-10.154 -7.1110001 0.491 0
-5.25 -3.6860001 0.354 0.1
-5.2280002 -3.6949999 0.354 0.30000001
-5.204 -3.7019999 0.354 0.12
-10.217 -7.3239999 0.495 0.15000001
-10.177 -7.3449998 0.49399999 0.46000001
-10.167 -7.3860002 0.49399999 0.34999999
-10.173 -7.4390001 0.495 0.43000001
-12.551 -9.2469997 0.56300002 0.34
-10.233 -7.6329999 0.49900001 0.57999998
-13.204 -9.8909998 0.58399999 0.19
-13.479 -10.164 0.59299999 0.28
-13.519 -10.26 0.59500003 0.31999999
-13.082 -9.993 0.583 0.36000001
-12.004 -9.2259998 0.55299997 0.28
-10.171 -7.8639998 0.50099999 0.18000001
-10.157 -7.9039998 0.50099999 0.31
-10.15 -7.9239998 0.50199997 0.51999998
-10.145 -7.9720001 0.50199997 0.23999999
-12.157 -9.6219997 0.56099999 0.18000001
-10.37 -8.2550001 0.50999999 0.34999999
-10.305 -8.2559996 0.509 0.36000001
-10.176 -8.2060003 0.50599998 0.25999999
-10.048 -8.1540003 0.50300002 0.22
-10.165 -8.276 0.50700003 0.40000001
-9.6020002 -7.8660002 0.491 0.13
-9.3369999 -7.697 0.484 0.41999999
-9.2799997 -7.6999998 0.48300001 0.25
-9.2460003 -7.7199998 0.48300001 0.43000001
-10.106 -8.4960003 0.509 0.18000001
-9.9770002 -8.441 0.50599998 0.14
-9.5159998 -8.0749998 0.493 0.56999999
-9.9840002 -8.5279999 0.50700003 0.14
-9.4200001 -8.0950003 0.491 0.5
-9.3959999 -8.1260004 0.491 0.22
-9.3100004 -8.1029997 0.48899999 0.34
-9.3339996 -8.1759996 0.491 0.25999999
-9.2460003 -8.1499996 0.48899999 0.47999999
-9.1459999 -8.0869999 0.486 0.41
-9.1820002 -8.1700001 0.48800001 0.25999999
-9.2469997 -8.2810001 0.491 0.23999999
-9.2460003 -8.3330002 0.49200001 0.38999999
-9.1719999 -8.3190002 0.49000001 0.33000001
-9.1359997 -8.3380003 0.49000001 0.37
-9.1820002 -8.4060001 0.49200001 0.31999999
-9.1450005 -8.4259996 0.491 0.44999999
-9.132 -8.467 0.49200001 0.30000001
-9.1409998 -8.5290003 0.493 0.5
-9.0380001 -8.4849997 0.491 0.25999999
-9.1070004 -8.6049995 0.49399999 0.40000001
-9.1190004 -8.6700001 0.495 0.30000001
-9.0209999 -8.6040001 0.49200001 0.34999999
-9.0109997 -8.6490002 0.493 0.34
-8.9759998 -8.6689997 0.49200001 0.28999999
-8.9300003 -8.6789999 0.49200001 0.34999999
-8.9309998 -8.7349997 0.493 0.36000001
-8.9099998 -8.7700005 0.493 0.30000001
-8.8129997 -8.7290001 0.491 0.41
-8.7950001 -8.7390003 0.491 0.37
-8.7790003 -8.7779999 0.491 0.34
-8.7259998 -8.7799997 0.49000001 0.36000001
-8.7030001 -8.8109999 0.49000001 0.38
-8.6750002 -8.8389997 0.49000001 0.38
-8.6359997 -8.8540001 0.49000001 0.41
-8.5640001 -8.835 0.48899999 0.37
-8.6149998 -8.9169998 0.491 0.30000001
-8.6020002 -8.96 0.491 0.38999999
-8.6040001 -9.0179996 0.49200001 0.38999999
-8.5979996 -9.0690002 0.493 0.33000001
-8.5279999 -9.052 0.49200001 0.36000001
-8.4840002 -9.0609999 0.491 0.34999999
-8.4350004 -9.066 0.49000001 0.28999999
-8.4029999 -9.0600004 0.49000001 0.44
-8.4259996 -9.1420002 0.491 0.36000001
-8.3900003 -9.1610003 0.491 0.41
-8.3549995 -9.1800003 0.491 0.33000001
-8.3120003 -9.191 0.491 0.40000001
-8.3249998 -9.2639999 0.49200001 0.37
-8.3439999 -9.3439999 0.49399999 0.34999999
-8.2770004 -9.2980003 0.49200001 0.25999999
-8.3459997 -9.4350004 0.495 0.38
-8.3120003 -9.4569998 0.495 0.23
-8.2740002 -9.474 0.495 0.34999999
-8.2119999 -9.4619999 0.49399999 0.34
-8.2510004 -9.5679998 0.49599999 0.34
-8.1940002 -9.5620003 0.495 0.27000001
-8.1850004 -9.5830002 0.495 0.33000001
-8.151 -9.6040001 0.495 0.44999999
-8.1309996 -9.6420002 0.49599999 0.33000001
-8.092 -9.6560001 0.495 0.44
-8.0649996 -9.6859999 0.495 0.31999999
-8.1409998 -9.8400002 0.49900001 0.2
-8.0629997 -9.8079996 0.49700001 0.34999999
-8.0740004 -9.8529997 0.498 0.30000001
-8.0469999 -9.8830004 0.49900001 0.37
-7.9970002 -9.8850002 0.498 0.30000001
-7.9590001 -9.9020004 0.498 0.31
-7.9310002 -9.9300003 0.498 0.36000001
-9.3549995 -11.797 0.551 0.23
-9.25 -11.702 0.54799998 0.17
-9.2139997 -11.732 0.54799998 0.28999999
-7.8889999 -10.17 0.50099999 0.57999998
-7.8210001 -10.148 0.5 0.19
-8.9230003 -11.66 0.54299998 0.31999999
-8.1899996 -10.768 0.51599997 0.23
-8.1800003 -10.79 0.51700002 0.38
-8.8509998 -11.757 0.54299998 0.37
-8.0059996 -10.699 0.51300001 0.30000001
-8.7790003 -11.814 0.54299998 0.41
-8.7320004 -11.828 0.54299998 0.2
-7.9039998 -10.774 0.51300001 0.38
-7.8649998 -10.791 0.51200002 0.22
-9.0979996 -12.531 0.56099999 0.30000001
-9.0760002 -12.584 0.56199998 0.47
-8.9589996 -12.504 0.55900002 0.34999999
-8.9910002 -12.633 0.56099999 0.33000001
-9.0179996 -12.756 0.56400001 0
-7.631 -10.859 0.51099998 0
-7.6069999 -10.898 0.51099998 0
-7.6129999 -10.943 0.51200002 0.12
-7.5999999 -10.998 0.51300001 0.23
-7.5640001 -11.02 0.51300001 0.11
