# .PCD v0.7 - Point Cloud Data file format
VERSION 0.7
FIELDS x y z intensity
SIZE 4 4 4 4
TYPE F F F F
COUNT 1 1 1 1
WIDTH 1416
HEIGHT 1
VIEWPOINT 0 0 0 1 0 0 0
POINTS 1416
DATA ascii
-5.4619999 -10.624 -1.267 0.30000001
-4.586 -8.9799995 -1.039 0.25999999
-4.4749999 -8.8299999 -1.016 0.46000001
-5.125 -10.201 -1.202 0.20999999
-4.3369999 -8.6920004 -0.99299997 0.22
-4.3000002 -8.6859999 -0.991 0.58999997
-4.4770002 -9.1169996 -1.048 0.34999999
-4.3769999 -9.0200005 -1.0319999 0.55000001
-4.3829999 -9.1070004 -1.0420001 0.40000001
-4.2420001 -8.8830004 -1.0089999 0.33000001
-4.1849999 -8.835 -1.001 0.43000001
-4.1739998 -8.8839998 -1.006 0.34
-4.0609999 -8.7130003 -0.98100001 0.37
-4.1799998 -9.0080004 -1.02 0.27000001
-4.1560001 -9.0299997 -1.021 0.51999998
-4.1199999 -9.0249996 -1.0190001 0.30000001
-4.1830001 -9.243 -1.046 0.38
-4.296 -9.5749998 -1.089 0.47
-4.2119999 -9.467 -1.073 0.27000001
-4.098 -9.2480001 -1.043 0.43000001
-3.9230001 -8.9259996 -0.99800003 0.36000001
-3.8829999 -8.9090004 -0.99400002 0.47999999
-3.868 -8.9519997 -0.99800003 0.36000001
-3.799 -8.8690004 -0.98500001 0.38
-3.7850001 -8.9139996 -0.99000001 0.47999999
-3.7609999 -8.9350004 -0.991 0.36000001
-3.7460001 -8.9370003 -0.99000001 0.34
-3.7219999 -8.96 -0.99199998 0.38
-3.6919999 -8.9659996 -0.991 0.34
-3.6949999 -9.0550003 -1.001 0.36000001
-3.6670001 -9.0690002 -1.002 0.47
-3.721 -9.2869997 -1.029 0.31999999
-3.697 -9.3129997 -1.031 0.44
-3.6889999 -9.335 -1.033 0.33000001
-3.589 -9.1639996 -1.0089999 0.46000001
-3.5079999 -9.04 -0.991 0.38
-3.4760001 -9.0419998 -0.99000001 0.34
-3.4230001 -8.9870005 -0.98100001 0.44999999
-3.431 -9.0970001 -0.99400002 0.38
-3.4030001 -9.1070004 -0.99400002 0.34
-3.4219999 -9.2019997 -1.006 0.47
-3.401 -9.2349997 -1.0089999 0.30000001
-3.381 -9.2700005 -1.012 0.5
-3.323 -9.2019997 -1.002 0.23999999
-3.296 -9.2180004 -1.003 0.47999999
-3.2539999 -9.1890001 -0.99800003 0.34999999
-3.2539999 -9.2370005 -1.003 0.44
-3.2579999 -9.3430004 -1.016 0.43000001
-3.24 -9.3870001 -1.02 0.33000001
-3.7850001 -11.091 -1.24 0.38999999
-3.7420001 -11.081 -1.237 0.41999999
-3.6860001 -11.026 -1.228 0.44
-3.2590001 -9.8439999 -1.074 0.27000001
-3.1600001 -9.5939999 -1.041 0.54000002
-3.2 -9.8199997 -1.069 0.20999999
-3.164 -9.8140001 -1.067 0.31
-3.5309999 -11.081 -1.229 0.36000001
-3.4949999 -11.09 -1.228 0.55000001
-3.467 -11.122 -1.2309999 0.31999999
-3.425 -11.11 -1.228 0.52999997
-3.418 -11.152 -1.233 0.33000001
-3.375 -11.136 -1.229 0.47999999
-3.348 -11.171 -1.232 0.37
-3.325 -11.225 -1.238 0.63
-3.2950001 -11.251 -1.24 0.25999999
-3.2650001 -11.282 -1.243 0.44
-3.2409999 -11.332 -1.248 0.46000001
-3.2379999 -11.389 -1.2539999 0.31
-3.2 -11.392 -1.253 0.47999999
-3.174 -11.436 -1.258 0.33000001
-3.221 -11.752 -1.2970001 0.58999997
-3.5610001 -13.168 -1.475 0.34
-3.5250001 -13.198 -1.478 0.25999999
-3.576 -13.563 -1.523 0.41999999
-3.428 -13.082 -1.461 0.23999999
-3.54 -13.689 -1.5369999 0.28
-3.562 -13.956 -1.569 0.43000001
-3.4990001 -13.892 -1.5599999 0.28999999
-3.45 -13.882 -1.557 0.33000001
-3.4189999 -13.941 -1.563 0.28999999
-3.434 -14.1 -1.582 0.36000001
-3.381 -14.074 -1.5779999 0.31999999
-3.355 -14.162 -1.5880001 0.37
-3.3050001 -14.149 -1.585 0.40000001
-3.244 -14.086 -1.575 0.31
-2.1559999 -9.4619999 -0.99199998 0.43000001
-2.119 -9.434 -0.98799998 0.34
-2.0999999 -9.4180002 -0.98500001 0.36000001
-2.1340001 -9.717 -1.022 0.20999999
-2.092 -9.6730003 -1.016 0.5
-2.052 -9.6330004 -1.01 0.40000001
-2.052 -9.7869997 -1.028 0.23
-1.946 -9.4200001 -0.98199999 0.44999999
-1.911 -9.401 -0.97899997 0.38
-1.8789999 -9.3199997 -0.96799999 0.36000001
-1.832 -9.2329998 -0.95599997 0.25999999
-1.87 -9.5869999 -1 0.58999997
-1.8430001 -9.6110001 -1.002 0.23999999
-1.756 -9.3079996 -0.96399999 0.25999999
-1.721 -9.2860003 -0.95999998 0.41999999
-1.698 -9.3249998 -0.96399999 0.36000001
-1.6849999 -9.3330002 -0.96499997 0.36000001
-1.647 -9.2919998 -0.95899999 0.31
-1.623 -9.3240004 -0.963 0.41
-1.594 -9.3310003 -0.963 0.46000001
-1.582 -9.4440002 -0.97600001 0.31999999
-1.524 -9.2700005 -0.954 0.40000001
-1.48 -9.0939999 -0.93199998 0.36000001
-1.45 -9.0889997 -0.93099999 0.44999999
-1.421 -9.0860004 -0.93000001 0.31999999
-1.392 -9.092 -0.93000001 0.27000001
-1.3609999 -9.0810003 -0.92799997 0.54000002
-1.3279999 -9.052 -0.92400002 0.28
-1.335 -9.3039999 -0.95499998 0.38
-1.299 -9.158 -0.93599999 0.25
-1.2690001 -9.1520004 -0.935 0.41
-1.242 -9.1660004 -0.93599999 0.36000001
-1.2130001 -9.1719999 -0.93699998 0.44999999
-1.184 -9.1719999 -0.93599999 0.38999999
-1.1440001 -9.0830002 -0.92500001 0.41
-1.117 -9.1000004 -0.926 0.34999999
-1.0930001 -9.0170002 -0.91600001 0.27000001
-1.075 -9.1129999 -0.92699999 0.47999999
-1.029 -8.9610004 -0.90799999 0.36000001
-1.012 -9.0670004 -0.921 0.36000001
-0.96899998 -8.9329996 -0.90399998 0.38
-0.949 -9.0120001 -0.91299999 0.28999999
-0.92699999 -9.0839996 -0.92199999 0.40000001
-0.91299999 -9.0869999 -0.92199999 0.38999999
-0.88300002 -9.0719995 -0.92000002 0.36000001
-0.85500002 -9.0830002 -0.921 0.43000001
-0.81999999 -9.0159998 -0.912 0.34
-0.792 -9.0229998 -0.91299999 0.41999999
-0.75199997 -8.8769999 -0.89399999 0.41999999
-0.74000001 -8.8999996 -0.89700001 0.23999999
-0.70899999 -8.8699999 -0.89300001 0.55000001
-0.67900002 -8.8450003 -0.88999999 0.22
-0.69 -9.3909998 -0.95700002 0.33000001
-0.65399998 -9.29 -0.94400001 0.31
-0.62400001 -9.2919998 -0.94400001 0.34
-0.59899998 -9.3500004 -0.95099998 0.5
-0.87099999 -14.154 -1.5420001 0.19
-0.833 -14.276 -1.556 0.40000001
-0.78600001 -14.241 -1.552 0.37
-0.74199998 -14.255 -1.553 0.34
-0.69599998 -14.231 -1.55 0.41
-0.653 -14.279 -1.556 0.38999999
-0.611 -14.352 -1.564 0.25999999
-0.58999997 -14.401 -1.5700001 0.51999998
-0.54100001 -14.296 -1.557 0.20999999
-0.398 -11.291 -1.188 0.50999999
-0.36300001 -11.313 -1.1900001 0.22
-0.32699999 -11.302 -1.189 0.44999999
-0.36399999 -14.393 -1.568 0.44999999
-0.25799999 -11.403 -1.201 0.15000001
-0.236 -11.191 -1.175 0.56999999
-0.20100001 -11.237 -1.181 0.47
-0.16599999 -11.23 -1.1799999 0.20999999
-0.12899999 -11.05 -1.1569999 0.34
-0.093999997 -11.044 -1.1569999 0.37
-0.059999999 -11.09 -1.1619999 0.61000001
-0.043000001 -11.231 -1.1799999 0.20999999
-0.0070000002 -11.215 -1.178 0.43000001
0.028000001 -11.167 -1.1720001 0.22
0.063000001 -11.147 -1.169 0.47
0.131 -14.16 -1.539 0.47
0.176 -14.215 -1.546 0.23999999
0.222 -14.247 -1.55 0.31
0.155 -9.5780001 -0.977 0.52999997
0.185 -9.566 -0.97500002 0.28
0.33000001 -14.115 -1.534 0.31999999
0.25299999 -9.8459997 -1.01 0.38
0.28400001 -9.8450003 -1.01 0.36000001
0.31299999 -9.7810001 -1.002 0.38
0.34400001 -9.7959995 -1.0039999 0.41
0.35499999 -9.6739998 -0.98900002 0.46000001
0.389 -9.7559996 -0.99900001 0.27000001
0.414 -9.6400003 -0.98500001 0.46000001
0.458 -9.9040003 -1.018 0.34999999
0.47499999 -9.6389999 -0.986 0.38999999
0.51200002 -9.757 -1 0.31
0.53399998 -9.6140003 -0.98299998 0.37
0.55000001 -9.6230001 -0.98400003 0.40000001
0.58399999 -9.6750002 -0.991 0.44999999
0.616 -9.7110004 -0.995 0.28
0.64300001 -9.651 -0.98799998 0.51999998
0.69800001 -9.9860001 -1.03 0.31
0.70599997 -9.6789999 -0.99199998 0.38
0.708 -9.5109997 -0.972 0.31999999
0.73900002 -9.5129995 -0.972 0.27000001
0.77100003 -9.5459995 -0.977 0.34
0.80199999 -9.5459995 -0.977 0.44999999
0.85399997 -9.7919998 -1.008 0.41999999
0.87599999 -9.6990004 -0.99599999 0.38
0.90799999 -9.7080002 -0.99800003 0.27000001
0.91799998 -9.6590004 -0.99199998 0.41
0.954 -9.7049999 -0.99800003 0.49000001
0.98900002 -9.7460003 -1.003 0.33000001
1.021 -9.7600002 -1.006 0.37
1.2029999 -11.122 -1.174 0.16
1.228 -11.036 -1.164 0.46000001
1.272 -11.107 -1.173 0.44999999
1.625 -13.94 -1.524 0.41
1.321 -11.079 -1.171 0.2
1.357 -11.081 -1.171 0.25
1.393 -11.082 -1.1720001 0.58999997
1.457 -11.038 -1.168 0.51999998
1.513 -11.183 -1.186 0.34999999
1.505 -10.996 -1.163 0.56
1.563 -11.16 -1.184 0.23
1.983 -13.797 -1.512 0.34
2.0250001 -13.783 -1.511 0.23999999
2.0650001 -13.757 -1.5089999 0.51999998
2.098 -13.683 -1.5 0.28999999
2.092 -13.504 -1.478 0.37
2.155 -13.622 -1.494 0.43000001
2.2219999 -13.768 -1.513 0.30000001
2.2490001 -13.662 -1.501 0.31
2.2850001 -13.613 -1.495 0.47999999
2.3340001 -13.643 -1.5 0.34999999
2.368 -13.585 -1.494 0.34999999
2.3800001 -13.528 -1.487 0.38999999
2.427 -13.548 -1.4910001 0.28
2.4809999 -13.601 -1.498 0.5
2.5220001 -13.582 -1.497 0.30000001
2.569 -13.599 -1.5 0.31999999
2.6040001 -13.55 -1.495 0.44
2.5940001 -13.275 -1.461 0.27000001
2.678 -13.592 -1.502 0.44
2.7179999 -13.568 -1.5 0.34999999
2.7609999 -13.559 -1.5 0.47
2.7739999 -13.413 -1.482 0.34
2.7479999 -13.081 -1.442 0.38999999
2.8239999 -13.234 -1.462 0.31999999
2.881 -13.295 -1.471 0.47
2.859 -13.096 -1.446 0.22
2.8889999 -13.037 -1.4400001 0.38
2.9489999 -13.111 -1.451 0.38999999
2.9820001 -13.069 -1.446 0.36000001
3.0209999 -13.05 -1.4450001 0.38999999
3.1129999 -13.256 -1.473 0.34
3.125 -13.215 -1.4680001 0.41
3.1860001 -13.286 -1.478 0.34999999
3.198 -13.153 -1.4630001 0.36000001
3.2449999 -13.167 -1.466 0.34
3.2620001 -13.061 -1.4529999 0.40000001
3.286 -12.981 -1.4450001 0.41
3.3659999 -13.123 -1.464 0.43000001
3.3640001 -13.033 -1.4529999 0.36000001
3.3829999 -12.936 -1.442 0.38
3.448 -13.017 -1.454 0.44
3.5209999 -13.127 -1.469 0.38999999
3.55 -13.07 -1.4630001 0.25999999
3.602 -13.099 -1.469 0.57999998
3.612 -12.977 -1.454 0.23999999
2.631 -9.4189997 -1.001 0.41
2.6559999 -9.3959999 -0.99900001 0.38999999
2.6960001 -9.4239998 -1.0039999 0.44999999
2.744 -9.4779997 -1.012 0.27000001
2.7479999 -9.382 -1.001 0.34
2.7739999 -9.3640003 -1 0.46000001
2.802 -9.3509998 -0.99900001 0.37
2.812 -9.3319998 -0.99699998 0.46000001
2.8640001 -9.3950005 -1.007 0.37
2.8889999 -9.3719997 -1.005 0.23999999
2.9230001 -9.3769999 -1.007 0.54000002
2.905 -9.2200003 -0.98799998 0.34
2.9749999 -9.335 -1.0039999 0.38
2.9860001 -9.3190002 -1.002 0.41999999
2.97 -9.1719999 -0.98400003 0.41
3.0139999 -9.21 -0.99000001 0.34999999
3.0639999 -9.2639999 -0.99900001 0.5
3.0710001 -9.1890001 -0.99000001 0.37
3.119 -9.2340002 -0.99699998 0.28
3.1370001 -9.1940002 -0.99299997 0.61000001
3.777 -10.995 -1.228 0.28
3.181 -9.1789999 -0.99299997 0.31999999
3.217 -9.191 -0.99599999 0.52999997
3.2679999 -9.2410002 -1.0039999 0.27000001
3.283 -9.1929998 -0.99900001 0.33000001
3.322 -9.2110004 -1.003 0.5
3.5450001 -9.7299995 -1.072 0.23999999
3.6010001 -9.8339996 -1.086 0.5
3.632 -9.8210001 -1.086 0.30000001
3.6340001 -9.7349997 -1.076 0.31999999
3.4489999 -9.1540003 -1.002 0.49000001
3.4849999 -9.1630001 -1.0039999 0.28999999
3.526 -9.184 -1.008 0.5
3.5480001 -9.1969995 -1.011 0.22
3.723 -9.559 -1.0599999 0.46000001
3.76 -9.566 -1.063 0.46000001
3.7880001 -9.5480003 -1.062 0.50999999
3.6329999 -9.0760002 -1.001 0.15000001
3.6689999 -9.0830002 -1.003 0.47999999
3.691 -9.0570002 -1.001 0.44999999
3.707 -9.0550003 -1.002 0.20999999
3.967 -9.6000004 -1.076 0.44999999
4.0019999 -9.5979996 -1.077 0.38999999
4.085 -9.7119999 -1.094 0.38
4.0939999 -9.6479998 -1.087 0.47
4.0609999 -9.4890003 -1.068 0.23
4.1300001 -9.566 -1.08 0.58999997
4.085 -9.4230003 -1.062 0.23999999
4.1139998 -9.408 -1.061 0.41
4.1240001 -9.3500004 -1.0549999 0.38
4.1550002 -9.342 -1.056 0.38
4.1919999 -9.3450003 -1.058 0.52999997
4.3709998 -9.6610003 -1.103 0.30000001
4.1620002 -9.1630001 -1.036 0.41
4.2750001 -9.3339996 -1.061 0.41
4.3039999 -9.3179998 -1.061 0.28999999
4.3449998 -9.3299999 -1.064 0.38
4.375 -9.3179998 -1.0650001 0.54000002
4.5840001 -9.6820002 -1.1160001 0.33000001
4.5489998 -9.5319996 -1.097 0.23999999
5.052 -10.537 -1.235 0.41
5.6020002 -11.583 -1.38 0.38
5.658 -11.605 -1.386 0.38
5.6999998 -11.599 -1.387 0.38
4.9390001 -9.9799995 -1.168 0.38999999
4.9530001 -9.9289999 -1.163 0.34
5.125 -10.192 -1.201 0.40000001
5.0419998 -9.9890003 -1.174 0.46000001
5.1550002 -10.132 -1.196 0.36000001
5.1209998 -9.9890003 -1.179 0.41999999
5.164 -9.9960003 -1.182 0.34
5.1420002 -9.8769999 -1.168 0.41999999
5.1199999 -9.7609997 -1.154 0.44
5.138 -9.7200003 -1.151 0.31
5.1399999 -9.6879997 -1.147 0.66000003
5.2340002 -9.7889996 -1.163 0.28999999
5.211 -9.6750002 -1.15 0.34
5.2090001 -9.599 -1.142 0.41
5.3049998 -9.7010002 -1.158 0.47999999
5.5170002 -10.012 -1.204 0.34
5.4390001 -9.835 -1.181 0.34
5.4299998 -9.7469997 -1.171 0.41999999
5.4590001 -9.7270002 -1.17 0.41999999
5.48 -9.6940002 -1.168 0.38999999
5.5190001 -9.6899996 -1.17 0.44
5.5749998 -9.7180004 -1.176 0.38
5.592 -9.6780005 -1.173 0.47999999
5.6729999 -9.7799997 -1.189 0.23999999
5.6919999 -9.7440004 -1.186 0.5
5.757 -9.7840004 -1.194 0.38999999
5.7930002 -9.7740002 -1.196 0.38999999
5.8460002 -9.7930002 -1.201 0.33000001
5.8660002 -9.7559996 -1.198 0.44
5.8959999 -9.7379999 -1.198 0.37
5.9369998 -9.7709999 -1.204 0.50999999
5.961 -9.7399998 -1.2029999 0.30000001
5.9850001 -9.7119999 -1.201 0.47999999
5.9990001 -9.6660004 -1.197 0.41999999
6.0229998 -9.6370001 -1.196 0.43000001
6.0840001 -9.6660004 -1.2029999 0.28999999
6.1220002 -9.6590004 -1.205 0.44
6.1350002 -9.6459999 -1.204 0.40000001
6.1570001 -9.6149998 -1.202 0.46000001
6.198 -9.6120005 -1.205 0.38
6.2140002 -9.5710001 -1.202 0.44
6.0970001 -9.3280001 -1.169 0.47999999
6.1739998 -9.3800001 -1.179 0.31999999
6.2859998 -9.5170002 -1.201 0.47
6.3400002 -9.5340004 -1.206 0.31999999
6.3610001 -9.5 -1.204 0.47999999
6.3990002 -9.4919996 -1.206 0.36000001
6.4320002 -9.4770002 -1.207 0.43000001
6.467 -9.4650002 -1.2079999 0.37
6.5599999 -9.5360003 -1.222 0.34
6.5029998 -9.4209995 -1.206 0.47999999
6.5679998 -9.4510002 -1.214 0.30000001
6.5780001 -9.4029999 -1.21 0.56999999
6.7750001 -9.6190004 -1.245 0.25999999
6.7080002 -9.4610004 -1.225 0.44999999
6.6620002 -9.3339996 -1.209 0.36000001
6.7199998 -9.3529997 -1.215 0.49000001
6.6960001 -9.2889996 -1.207 0.28
6.77 -9.3290005 -1.216 0.54000002
6.8779998 -9.415 -1.232 0.28999999
6.9029999 -9.3870001 -1.2309999 0.44999999
6.8369999 -9.2379999 -1.212 0.34
6.8899999 -9.2480001 -1.217 0.43000001
6.9089999 -9.2440004 -1.2180001 0.41
6.9809999 -9.2790003 -1.226 0.43000001
7.0229998 -9.2729998 -1.229 0.31
6.9959998 -9.1780005 -1.2180001 0.51999998
7.1630001 -9.3360004 -1.245 0.23999999
7.3099999 -9.4650002 -1.2690001 0.44999999
7.4710002 -9.6090002 -1.295 0.37
7.4169998 -9.5100002 -1.281 0.47999999
7.4130001 -9.4429998 -1.275 0.41
7.5780001 -9.5909996 -1.301 0.36000001
7.3590002 -9.2550001 -1.252 0.41
7.494 -9.3640003 -1.273 0.30000001
7.54 -9.3599997 -1.276 0.43000001
7.652 -9.4379997 -1.2920001 0.33000001
7.638 -9.3909998 -1.2869999 0.43000001
7.7449999 -9.4619999 -1.302 0.38
7.8099999 -9.4799995 -1.309 0.38999999
7.8169999 -9.4280005 -1.304 0.38999999
7.8509998 -9.408 -1.3049999 0.37
7.8790002 -9.382 -1.3049999 0.31999999
7.9369998 -9.4209995 -1.313 0.49000001
7.9840002 -9.4160004 -1.316 0.30000001
7.994 -9.368 -1.313 0.38999999
7.9569998 -9.2659998 -1.3 0.5
7.9850001 -9.2390003 -1.3 0.19
7.9879999 -9.184 -1.295 0.63999999
8.0860004 -9.2379999 -1.308 0.34999999
8.0220003 -9.1359997 -1.293 0.43000001
8.052 -9.1129999 -1.294 0.38999999
8.092 -9.1009998 -1.296 0.44999999
8.1409998 -9.0970001 -1.299 0.36000001
8.2010002 -9.1070004 -1.3049999 0.47
8.2709999 -9.1269999 -1.313 0.2
8.316 -9.118 -1.316 0.51999998
8.243 -9.0100002 -1.3 0.38999999
8.2720003 -8.9860001 -1.3 0.37
8.2600002 -8.9160004 -1.293 0.31999999
8.3369999 -8.9420004 -1.302 0.38999999
8.3249998 -8.8739996 -1.295 0.38999999
8.4090004 -8.9069996 -1.3049999 0.47999999
8.4519997 -8.8959999 -1.307 0.31
8.4829998 -8.8999996 -1.3099999 0.43000001
8.5109997 -8.8730001 -1.3099999 0.41
8.5190001 -8.8269997 -1.307 0.41
8.559 -8.8129997 -1.309 0.41999999
8.6409998 -8.8409996 -1.318 0.36000001
8.5939999 -8.7379999 -1.3049999 0.43000001
8.6809998 -8.7709999 -1.316 0.34999999
8.6630001 -8.7250004 -1.3099999 0.43000001
8.7080002 -8.7159996 -1.313 0.34
8.7609997 -8.7139997 -1.318 0.46000001
8.8100004 -8.7069998 -1.321 0.41
8.8669996 -8.7080002 -1.327 0.41999999
8.915 -8.7010002 -1.33 0.34
8.9180002 -8.6759996 -1.3279999 0.44
9.0129995 -8.7139997 -1.34 0.37
9.0489998 -8.6940002 -1.341 0.36000001
9.1079998 -8.6960001 -1.347 0.5
9.1820002 -8.7110004 -1.355 0.31999999
9.2279997 -8.6999998 -1.358 0.41
9.309 -8.7209997 -1.367 0.43000001
9.3500004 -8.7320004 -1.3710001 0.41
9.3970003 -8.7200003 -1.375 0.36000001
9.4300003 -8.6960001 -1.376 0.47
9.507 -8.7110004 -1.3839999 0.44
9.5459995 -8.6920004 -1.386 0.34999999
9.5909996 -8.6780005 -1.3890001 0.51999998
9.585 -8.6459999 -1.386 0.34999999
9.6090002 -8.6129999 -1.385 0.33000001
9.632 -8.5790005 -1.3839999 0.31999999
9.6540003 -8.5450001 -1.3839999 0.36000001
9.6929998 -8.5249996 -1.386 0.36000001
9.7180004 -8.493 -1.385 0.28999999
9.7449999 -8.4619999 -1.385 0.15000001
9.7489996 -8.4390001 -1.3839999 0.28
9.7740002 -8.4069996 -1.3839999 0.33000001
9.8100004 -8.3839998 -1.385 0.33000001
9.8500004 -8.3649998 -1.387 0.37
9.868 -8.3269997 -1.386 0.28
9.9189997 -8.3170004 -1.39 0.41999999
9.9329996 -8.2749996 -1.388 0.17
5.9029999 -4.9159999 -0.74400002 0.44
5.9029999 -4.8850002 -0.741 0.2
10 -8.1999998 -1.388 0.28999999
10.04 -8.1789999 -1.391 0.34
6.165 -5.0029998 -0.77600002 0.2
6.1950002 -4.9949999 -0.778 0.17
10.107 -8.0769997 -1.3890001 0.17
10.05 -8.0059996 -1.378 0.55000001
10.151 -8.0340004 -1.39 0.23
10.166 -7.994 -1.388 0.18000001
6.5279999 -5.112 -0.81900001 0.38
6.473 -5.0370002 -0.80800003 0.28
10.256 -7.9099998 -1.391 0.25
10.288 -7.908 -1.3940001 0.43000001
6.5159998 -4.9879999 -0.80800003 0.18000001
6.4949999 -4.9400001 -0.80299997 0.22
6.5229998 -4.9289999 -0.80500001 0.5
6.723 -5.046 -0.833 0.19
6.6240001 -4.9400001 -0.815 0.23999999
6.6329999 -4.915 -0.81400001 0.31
6.5289998 -4.822 -0.79699999 0.25999999
6.6550002 -4.882 -0.81400001 0.30000001
6.7309999 -4.9050002 -0.82300001 0.20999999
6.6950002 -4.8470001 -0.815 0.23
6.6230001 -4.7639999 -0.80199999 0.27000001
6.651 -4.7519999 -0.80400002 0.28
6.7049999 -4.7589998 -0.81 0.44999999
6.7529998 -4.777 -0.81599998 0.25999999
6.8150001 -4.7880001 -0.82300001 0.30000001
6.8200002 -4.7600002 -0.82200003 0.28999999
6.8169999 -4.7259998 -0.81900001 0.38999999
6.8270001 -4.7010002 -0.81800002 0.27000001
7.0339999 -4.8109999 -0.847 0.34999999
7.0310001 -4.776 -0.84399998 0.25999999
7.066 -4.7839999 -0.84799999 0.40000001
7.165 -4.8179998 -0.861 0.34
6.9310002 -4.6300001 -0.824 0.27000001
6.9250002 -4.5949998 -0.82099998 0.28999999
7.0510001 -4.6459999 -0.83700001 0.31
6.8940001 -4.5120001 -0.81199998 0.34999999
7.0029998 -4.5669999 -0.82700002 0.25999999
6.9369998 -4.494 -0.815 0.40000001
6.9239998 -4.4549999 -0.81199998 0.30000001
10.906 -6.9499998 -1.388 0.16
10.946 -6.928 -1.391 0.38999999
6.9910002 -4.4050002 -0.815 0.16
7.2969999 -4.5640001 -0.85699999 0.27000001
7.2189999 -4.5009999 -0.84500003 0.33000001
7.0609999 -4.3720002 -0.81999999 0.34999999
6.993 -4.3000002 -0.80900002 0.33000001
7.0040002 -4.276 -0.80800003 0.22
6.9229999 -4.198 -0.79500002 0.43000001
7.2529998 -4.3649998 -0.83999997 0.18000001
7.3239999 -4.3759999 -0.84799999 0.25
7.3369999 -4.368 -0.84899998 0.41
11.163 -6.5830002 -1.392 0.27000001
11.187 -6.5500002 -1.392 0.27000001
11.203 -6.5120001 -1.392 0.2
7.3449998 -4.2490001 -0.84299999 0.38999999
7.493 -4.303 -0.86199999 0.20999999
7.4559999 -4.2509999 -0.85399997 0.23999999
7.3319998 -4.165 -0.83600003 0.33000001
7.296 -4.1149998 -0.829 0.18000001
11.343 -6.3340001 -1.396 0.30000001
11.37 -6.302 -1.397 0.34999999
11.391 -6.2670002 -1.397 0.31999999
11.43 -6.2420001 -1.4 0.34
11.423 -6.2150002 -1.397 0.27000001
11.43 -6.1719999 -1.395 0.27000001
11.442 -6.132 -1.395 0.31
11.488 -6.1100001 -1.398 0.34
11.496 -6.0689998 -1.397 0.31999999
11.524 -6.0370002 -1.398 0.33000001
11.538 -5.9980001 -1.397 0.31999999
11.552 -5.9829998 -1.398 0.28999999
11.568 -5.9450002 -1.397 0.34999999
11.583 -5.9070001 -1.397 0.30000001
11.603 -5.8709998 -1.397 0.34
11.611 -5.829 -1.396 0.27000001
11.64 -5.7979999 -1.397 0.34999999
11.667 -5.7659998 -1.398 0.37
11.67 -5.7449999 -1.398 0.28999999
11.685 -5.7059999 -1.397 0.30000001
11.708 -5.6719999 -1.398 0.30000001
11.735 -5.6399999 -1.399 0.34
11.758 -5.605 -1.4 0.31999999
11.777 -5.5689998 -1.4 0.33000001
11.786 -5.5510001 -1.4 0.31999999
11.798 -5.5110002 -1.399 0.23999999
11.763 -5.4499998 -1.392 0.23999999
11.753 -5.401 -1.3890001 0.56
11.842 -5.3959999 -1.398 0.41
11.901 -5.3779998 -1.404 0.31999999
11.914 -5.3390002 -1.404 0.33000001
11.948 -5.3309999 -1.4069999 0.34
11.962 -5.2930002 -1.4069999 0.27000001
11.999 -5.2639999 -1.409 0.33000001
12.026 -5.2309999 -1.411 0.34
12.061 -5.2010002 -1.413 0.31
12.081 -5.165 -1.414 0.31
12.11 -5.132 -1.415 0.31999999
12.118 -5.1129999 -1.415 0.31
12.152 -5.0830002 -1.418 0.31999999
12.172 -5.046 -1.418 0.31999999
12.213 -5.0180001 -1.4220001 0.31
12.238 -4.9840002 -1.423 0.30000001
12.265 -4.9499998 -1.424 0.31999999
12.295 -4.9390001 -1.427 0.31
12.329 -4.908 -1.4299999 0.31
12.355 -4.8730001 -1.431 0.31
12.385 -4.8400002 -1.433 0.31
12.406 -4.8039999 -1.434 0.31
12.436 -4.77 -1.436 0.31999999
12.466 -4.737 -1.438 0.34
12.495 -4.7259998 -1.441 0.34
12.516 -4.6880002 -1.442 0.31999999
12.545 -4.6550002 -1.444 0.33000001
12.569 -4.618 -1.4450001 0.31999999
12.604 -4.586 -1.447 0.31999999
12.617 -4.546 -1.447 0.31999999
12.635 -4.5079999 -1.448 0.31
12.653 -4.4920001 -1.449 0.31999999
12.678 -4.4559999 -1.451 0.31
12.703 -4.4200001 -1.452 0.31999999
12.732 -4.3850002 -1.454 0.34
12.75 -4.3470001 -1.454 0.31999999
12.773 -4.3099999 -1.456 0.28999999
12.796 -4.2729998 -1.457 0.34999999
12.814 -4.256 -1.4579999 0.34
12.825 -4.2150002 -1.4579999 0.31999999
12.84 -4.1760001 -1.4579999 0.28999999
12.88 -4.1440001 -1.462 0.34999999
12.906 -4.1069999 -1.4630001 0.34
12.922 -4.0679998 -1.464 0.34999999
12.944 -4.052 -1.466 0.28999999
12.968 -4.0149999 -1.467 0.36000001
12.982 -3.9749999 -1.4680001 0.28999999
13.012 -3.9389999 -1.47 0.34999999
13.041 -3.904 -1.472 0.34999999
13.046 -3.8599999 -1.471 0.30000001
13.083 -3.8269999 -1.474 0.36000001
13.096 -3.8080001 -1.475 0.28
13.141 -3.776 -1.479 0.41
13.16 -3.737 -1.48 0.31
13.197 -3.7030001 -1.483 0.36000001
13.214 -3.6630001 -1.484 0.31999999
13.26 -3.631 -1.489 0.33000001
13.273 -3.5899999 -1.489 0.31999999
13.298 -3.5739999 -1.4910001 0.31
13.323 -3.536 -1.493 0.31999999
13.345 -3.497 -1.494 0.31
13.368 -3.4579999 -1.4960001 0.31999999
13.386 -3.418 -1.497 0.31999999
13.408 -3.378 -1.498 0.31
13.44 -3.342 -1.501 0.31
13.463 -3.325 -1.503 0.31
13.494 -3.2880001 -1.506 0.34999999
13.499 -3.244 -1.505 0.30000001
13.538 -3.2079999 -1.5089999 0.34
13.55 -3.1659999 -1.5089999 0.28999999
13.571 -3.1259999 -1.511 0.34
13.602 -3.0880001 -1.513 0.31999999
13.621 -3.0699999 -1.515 0.28999999
13.654 -3.0320001 -1.518 0.33000001
13.686 -2.994 -1.521 0.31999999
13.694 -2.951 -1.521 0.30000001
13.72 -2.9119999 -1.523 0.30000001
13.747 -2.872 -1.525 0.33000001
13.765 -2.8529999 -1.527 0.28
13.792 -2.8139999 -1.529 0.30000001
13.83 -2.776 -1.5319999 0.34
13.834 -2.7320001 -1.5319999 0.28999999
13.87 -2.694 -1.535 0.30000001
13.9 -2.654 -1.538 0.34
13.912 -2.6110001 -1.539 0.30000001
13.94 -2.5940001 -1.541 0.34
13.95 -2.55 -1.5420001 0.28999999
13.967 -2.5079999 -1.543 0.30000001
14.008 -2.47 -1.5470001 0.31999999
14.022 -2.427 -1.548 0.30000001
14.043 -2.385 -1.55 0.30000001
14.065 -2.3659999 -1.552 0.34
14.094 -2.325 -1.554 0.31999999
14.099 -2.2809999 -1.554 0.31999999
14.118 -2.2379999 -1.556 0.31999999
14.142 -2.197 -1.558 0.31
14.165 -2.154 -1.5599999 0.31999999
14.179 -2.1110001 -1.561 0.30000001
14.208 -2.0929999 -1.564 0.30000001
14.207 -2.0469999 -1.563 0.30000001
14.223 -2.0039999 -1.564 0.28999999
14.229 -1.959 -1.564 0.30000001
14.245 -1.915 -1.5650001 0.34
14.397 -1.89 -1.5829999 0.25
14.665 -1.877 -1.6160001 0.2
14.957 -1.89 -1.652 0.34
15.048 -1.854 -1.6619999 0.20999999
15.089 -1.811 -1.666 0.23999999
15.051 -1.758 -1.661 0.18000001
15.063 -1.712 -1.6619999 0.43000001
15.052 -1.663 -1.66 0.23
15.039 -1.613 -1.658 0.2
15.048 -1.59 -1.658 0.34999999
15.041 -1.5420001 -1.6569999 0.19
15.04 -1.494 -1.656 0.31999999
15.023 -1.4450001 -1.654 0
14.992 -1.3940001 -1.649 0
14.96 -1.344 -1.645 0.16
14.933 -1.318 -1.641 0.25
14.917 -1.2690001 -1.6390001 0.18000001
14.935 -1.224 -1.64 0.38999999
14.929 -1.176 -1.6390001 0.23
14.926 -1.1289999 -1.638 0.23
14.906 -1.08 -1.636 0.2
14.929 -1.035 -1.638 0.22
14.933 -1.011 -1.638 0.20999999
14.95 -0.96499997 -1.64 0.20999999
14.943 -0.91799998 -1.6390001 0.18000001
14.946 -0.87099999 -1.6390001 0.31999999
14.946 -0.824 -1.638 0.19
14.949 -0.77700001 -1.638 0.31999999
14.949 -0.73000002 -1.638 0.2
14.952 -0.70599997 -1.638 0.16
14.958 -0.65899998 -1.6390001 0.31999999
14.962 -0.61199999 -1.6390001 0.2
14.944 -0.565 -1.637 0.2
14.956 -0.51800001 -1.638 0.23
14.946 -0.47099999 -1.637 0.19
14.967 -0.42399999 -1.6390001 0.22
14.946 -0.40000001 -1.636 0.20999999
14.927 -0.35299999 -1.6339999 0.17
14.946 -0.30599999 -1.636 0.40000001
14.937 -0.259 -1.635 0.22
14.94 -0.212 -1.635 0.25
14.934 -0.16500001 -1.6339999 0.18000001
14.935 -0.118 -1.6339999 0.38999999
14.921 -0.094999999 -1.633 0.23
14.895 -0.048 -1.6289999 0.17
14.917 -0.001 -1.632 0.41999999
14.269 0.017999999 -1.626 0.25
14.263 0.063000001 -1.625 0.25999999
14.253 0.107 -1.624 0.23
14.225 0.152 -1.62 0.17
14.218 0.19599999 -1.619 0.41999999
14.208 0.241 -1.618 0.23
14.217 0.26300001 -1.619 0.19
14.214 0.308 -1.619 0.40000001
14.235 0.35299999 -1.622 0.20999999
14.228 0.398 -1.6210001 0.34
14.247 0.44299999 -1.624 0.2
14.259 0.48800001 -1.625 0.25
14.251 0.53299999 -1.625 0.2
14.264 0.55599999 -1.627 0.20999999
14.261 0.60100001 -1.626 0.19
14.285 0.64600003 -1.63 0.22
14.282 0.69099998 -1.63 0.18000001
14.28 0.736 -1.63 0.20999999
14.288 0.78200001 -1.631 0.18000001
14.29 0.80400002 -1.631 0.33000001
14.284 0.84899998 -1.631 0.2
14.279 0.89399999 -1.631 0.23
14.266 0.93800002 -1.6289999 0.2
14.279 0.98400003 -1.631 0.20999999
14.266 1.028 -1.63 0.2
14.273 1.073 -1.631 0.2
14.261 1.095 -1.63 0.36000001
14.24 1.1390001 -1.628 0.23
14.238 1.183 -1.628 0.2
14.224 1.227 -1.627 0.41
14.203 1.27 -1.624 0.25
14.183 1.314 -1.622 0.25999999
14.161 1.3559999 -1.62 0.25999999
14.153 1.378 -1.619 0.25
14.16 1.424 -1.6210001 0.27000001
14.158 1.4680001 -1.6210001 0.28
14.157 1.513 -1.622 0.28999999
14.14 1.557 -1.62 0.28999999
14.133 1.601 -1.62 0.28
14.132 1.646 -1.62 0.28999999
14.122 1.6670001 -1.619 0.28999999
14.112 1.711 -1.619 0.28999999
14.097 1.7539999 -1.618 0.30000001
14.09 1.798 -1.617 0.28
14.074 1.841 -1.6160001 0.28
14.054 1.883 -1.614 0.30000001
14.07 1.9299999 -1.617 0.25999999
14.063 1.952 -1.617 0.28
14.039 1.994 -1.614 0.30000001
14.033 2.0380001 -1.614 0.27000001
14.032 2.0829999 -1.615 0.27000001
14.032 2.128 -1.6160001 0.25999999
14.031 2.1730001 -1.617 0.25999999
14.026 2.217 -1.617 0.18000001
14.024 2.2390001 -1.617 0.43000001
14.023 2.2839999 -1.618 0.23
14.014 2.3280001 -1.618 0.28
14.01 2.3729999 -1.618 0.25999999
14.007 2.4170001 -1.619 0.2
14.003 2.4619999 -1.619 0.40000001
14.005 2.4849999 -1.62 0.23999999
14.017 2.5320001 -1.622 0.2
14.009 2.5769999 -1.622 0.41
13.993 2.619 -1.6210001 0.23999999
13.98 2.6619999 -1.6210001 0.2
13.984 2.7079999 -1.622 0.41
13.975 2.7520001 -1.622 0.25
13.963 2.773 -1.6210001 0.25999999
13.954 2.8169999 -1.6210001 0.25999999
13.945 2.8599999 -1.6210001 0.27000001
13.938 2.905 -1.622 0.27000001
13.941 2.951 -1.623 0.25
13.925 2.993 -1.622 0.28
13.913 3.0139999 -1.6210001 0.28
13.903 3.0569999 -1.6210001 0.28999999
13.88 3.098 -1.62 0.28999999
13.87 3.142 -1.62 0.28999999
13.861 3.1849999 -1.62 0.28999999
13.837 3.2249999 -1.618 0.30000001
13.813 3.266 -1.6160001 0.30000001
13.818 3.29 -1.617 0.27000001
13.798 3.3310001 -1.6160001 0.28
13.795 3.3759999 -1.617 0.28999999
13.776 3.4170001 -1.6160001 0.28
13.743 3.4549999 -1.613 0.30000001
13.741 3.5009999 -1.614 0.27000001
13.719 3.5409999 -1.613 0.25999999
13.709 3.5610001 -1.612 0.28
13.685 3.6010001 -1.6109999 0.25999999
13.69 3.648 -1.613 0.28
13.681 3.6919999 -1.613 0.25999999
13.667 3.734 -1.613 0.25
13.65 3.776 -1.612 0.25999999
13.649 3.822 -1.614 0.27000001
13.645 3.8440001 -1.614 0.19
13.641 3.8889999 -1.615 0.41
13.63 3.9319999 -1.615 0.25
13.625 3.977 -1.6160001 0.2
13.615 4.02 -1.6160001 0.38999999
13.598 4.0619998 -1.6160001 0.25
13.617 4.0910001 -1.619 0.2
13.598 4.132 -1.618 0.41
13.566 4.1690001 -1.6160001 0.25
13.558 4.2129998 -1.617 0.2
13.557 4.2589998 -1.618 0.41
13.528 4.2969999 -1.6160001 0.25
13.516 4.3400002 -1.6160001 0.25999999
13.513 4.3629999 -1.617 0.28
13.496 4.4039998 -1.6160001 0.25
13.482 4.4460001 -1.6160001 0.28
13.462 4.487 -1.6160001 0.25999999
13.437 4.5250001 -1.614 0.28999999
13.415 4.5650001 -1.613 0.28999999
13.393 4.6040001 -1.612 0.28999999
13.382 4.6240001 -1.612 0.31999999
13.35 4.6599998 -1.609 0.27000001
13.325 4.698 -1.608 0.28999999
13.302 4.737 -1.607 0.30000001
13.265 4.7709999 -1.604 0.31
13.259 4.816 -1.605 0.31999999
13.231 4.8530002 -1.603 0.30000001
13.233 4.8769999 -1.604 0.20999999
13.219 4.9190001 -1.605 0.30000001
13.218 4.9660001 -1.607 0.34999999
13.182 5 -1.604 0.38
13.111 5.02 -1.596 0.33000001
13.045 5.0419998 -1.589 0.41
12.98 5.0409999 -1.582 0.47999999
12.936 5.0710001 -1.5779999 0.30000001
12.85 5.0840001 -1.568 0.58999997
12.78 5.1030002 -1.561 0.37
12.674 5.1069999 -1.548 0.25999999
12.577 5.1139998 -1.5369999 0.47999999
12.486 5.1230001 -1.527 0.36000001
12.443 5.1279998 -1.522 0.31
12.412 5.1609998 -1.52 0.2
12.401 5.2020001 -1.521 0.27000001
12.337 5.2210002 -1.5140001 0.41
12.304 5.2529998 -1.512 0.36000001
12.269 5.2839999 -1.5089999 0.38999999
12.235 5.3140001 -1.507 0.43000001
12.179 5.3130002 -1.5 0.34999999
12.148 5.3449998 -1.498 0.44999999
12.134 5.3850002 -1.499 0.41
12.097 5.414 -1.4960001 0.34
12.077 5.4499998 -1.495 0.43000001
12.085 5.5 -1.499 0.37
12.064 5.513 -1.497 0.43000001
12.046 5.5510001 -1.497 0.34999999
12.059 5.6030002 -1.501 0.44999999
12.026 5.6329999 -1.499 0.41
11.972 5.6539998 -1.494 0.36000001
11.924 5.677 -1.49 0.43000001
11.856 5.6900001 -1.483 0.34999999
11.841 5.7069998 -1.482 0.41999999
11.798 5.7319999 -1.478 0.38999999
11.802 5.7789998 -1.4809999 0.31999999
11.789 5.8189998 -1.482 0.57999998
11.799 5.8699999 -1.4859999 0.36000001
11.8 5.9169998 -1.489 0.47
11.802 5.9640002 -1.492 0.41
11.876 6.0250001 -1.5039999 0.43000001
11.78 6.0229998 -1.493 0.40000001
11.882 6.1220002 -1.51 0.33000001
11.971 6.2150002 -1.526 0.44999999
12 6.2779999 -1.533 0.36000001
12.012 6.3319998 -1.5369999 0.41
12.034 6.3920002 -1.544 0.28999999
12.07 6.4349999 -1.55 0.43000001
12.028 6.4619999 -1.5470001 0.41
12.012 6.5019999 -1.548 0.38
11.977 6.5320001 -1.546 0.41999999
11.934 6.5570002 -1.5420001 0.47
11.908 6.592 -1.5420001 0.41
11.849 6.6079998 -1.536 0.23
12.043 6.7399998 -1.566 0.57999998
12.723 7.171 -1.669 0.25
12.752 7.2410002 -1.676 0.25999999
12.66 7.2410002 -1.666 0.25
12.507 7.2059999 -1.647 0.15000001
10.083 5.8579998 -1.2920001 0.20999999
9.9519997 5.803 -1.274 0.55000001
12.794 7.5050001 -1.698 0.16
12.782 7.553 -1.7 0.38999999
12.782 7.6069999 -1.7029999 0.23
12.78 7.6599998 -1.706 0.20999999
12.782 7.7160001 -1.71 0.36000001
12.778 7.7680001 -1.7130001 0.20999999
12.769 7.79 -1.714 0.23999999
12.739 7.8270001 -1.7130001 0.2
12.725 7.8730001 -1.715 0.31
12.717 7.9239998 -1.717 0.17
12.716 7.9780002 -1.721 0.38
12.692 8.0190001 -1.721 0.18000001
12.669 8.0600004 -1.721 0.34999999
12.668 8.0880003 -1.723 0.17
12.645 8.1289997 -1.723 0.36000001
12.638 8.1809998 -1.726 0.20999999
12.614 8.2220001 -1.726 0.25
12.577 8.2539997 -1.725 0.20999999
12.561 8.3000002 -1.726 0.2
12.562 8.3290005 -1.728 0.25999999
12.531 8.3649998 -1.728 0.20999999
12.521 8.4160004 -1.73 0.19
12.506 8.4630003 -1.732 0.40000001
12.478 8.5010004 -1.732 0.25
12.468 8.5509996 -1.734 0.25999999
12.451 8.5970001 -1.7359999 0.23
12.45 8.6260004 -1.738 0.20999999
12.425 8.6660004 -1.738 0.38999999
12.401 8.7069998 -1.739 0.25
12.391 8.7589998 -1.7410001 0.23999999
12.371 8.8030005 -1.743 0.18000001
12.366 8.8579998 -1.7460001 0.43000001
12.338 8.8970003 -1.7460001 0.25
12.357 8.9399996 -1.751 0.20999999
12.328 8.9779997 -1.751 0.38
12.316 9.0290003 -1.7539999 0.23999999
12.317 9.0889997 -1.758 0.20999999
12.293 9.1309996 -1.7589999 0.36000001
12.294 9.1920004 -1.7640001 0.17
7.7709999 5.8600001 -1.046 0.25999999
7.921 5.9920001 -1.071 0
7.73 5.8870001 -1.044 0.11
12.233 9.3579998 -1.771 0.2
12.217 9.4060001 -1.773 0.20999999
12.192 9.448 -1.773 0.2
12.179 9.4989996 -1.776 0.22
12.151 9.5389996 -1.776 0.20999999
12.148 9.5679998 -1.778 0.22
12.132 9.6169996 -1.781 0.18000001
12.105 9.658 -1.781 0.22
12.085 9.7040005 -1.783 0.18000001
12.056 9.743 -1.783 0.14
7.2049999 5.8740001 -0.99000001 0.14
7.177 5.8699999 -0.98699999 0.12
12.003 9.8570004 -1.7869999 0.16
11.978 9.8990002 -1.788 0.2
11.944 9.934 -1.788 0.38
11.909 9.9689999 -1.7869999 0.23
11.882 10.01 -1.788 0.18000001
11.861 10.057 -1.79 0.38999999
11.847 10.077 -1.79 0.23
11.829 10.125 -1.7920001 0.22
11.827 10.188 -1.7970001 0.23
11.798 10.228 -1.798 0.31999999
11.772 10.27 -1.799 0.37
11.737 10.305 -1.798 0.44
11.715 10.351 -1.8 0.31
11.747 10.412 -1.808 0.22
11.746 10.477 -1.814 0.36000001
11.742 10.54 -1.819 0.18000001
11.726 10.592 -1.822 0.38
11.719 10.652 -1.826 0.2
11.687 10.69 -1.826 0.23
11.668 10.74 -1.829 0.2
11.657 10.764 -1.83 0.23
11.637 10.814 -1.8329999 0.20999999
11.613 10.86 -1.834 0.22
11.586 10.903 -1.836 0.2
11.564 10.951 -1.8380001 0.20999999
11.535 10.992 -1.839 0.19
11.502 11.03 -1.839 0.23
11.494 11.058 -1.841 0.2
11.464 11.098 -1.841 0.22
11.446 11.15 -1.844 0.2
11.41 11.185 -1.844 0.23
11.376 11.222 -1.844 0.20999999
11.348 11.265 -1.846 0.23
11.319 11.307 -1.847 0.20999999
11.324 11.347 -1.851 0.20999999
5.7750001 5.8779998 -0.85500002 0.17
11.197 11.434 -1.847 0.14
11.184 11.493 -1.852 0.18000001
11.162 11.542 -1.854 0.40000001
11.127 11.579 -1.855 0.23
11.128 11.616 -1.858 0.20999999
11.111 11.671 -1.862 0.25999999
5.4970002 5.8670001 -0.829 0.25999999
5.3990002 5.7989998 -0.81400001 0.36000001
11.041 11.931 -1.88 0.34999999
5.4660001 5.9070001 -0.82999998 0.11
11.03 11.994 -1.885 0.20999999
10.999 12.036 -1.886 0.14
5.3299999 5.8889999 -0.81699997 0.11
5.29 5.882 -0.81300002 0.23
10.947 12.209 -1.898 0.2
10.909 12.243 -1.898 0.2
10.895 12.266 -1.899 0.2
10.864 12.309 -1.9 0.22
10.836 12.355 -1.903 0.18000001
10.805 12.398 -1.904 0.20999999
10.767 12.433 -1.904 0.18000001
10.748 12.49 -1.908 0.20999999
10.71 12.525 -1.908 0.19
10.7 12.554 -1.91 0.20999999
10.663 12.59 -1.911 0.18000001
10.633 12.634 -1.913 0.20999999
10.604 12.681 -1.915 0.18000001
10.572 12.724 -1.916 0.31
10.537 12.763 -1.9170001 0.19
10.491 12.788 -1.916 0.34999999
10.482 12.819 -1.919 0.2
10.445 12.856 -1.919 0.37
10.405 12.889 -1.919 0.23
10.373 12.932 -1.921 0.19
10.329 12.96 -1.92 0.38999999
10.29 12.996 -1.921 0.25
10.254 13.034 -1.9220001 0.23
10.246 13.066 -1.924 0.20999999
10.205 13.098 -1.924 0.41
10.168 13.135 -1.925 0.25
10.134 13.176 -1.927 0.28
10.103 13.222 -1.929 0.27000001
10.067 13.262 -1.9299999 0.28
10.034 13.304 -1.932 0.27000001
10.019 13.328 -1.933 0.25999999
9.9910002 13.378 -1.936 0.25999999
9.9619999 13.427 -1.939 0.28
9.9239998 13.463 -1.9400001 0.27000001
9.8909998 13.507 -1.942 0.23
9.835 13.52 -1.939 0.30000001
9.7840004 13.538 -1.937 0.36000001
9.7790003 13.576 -1.941 0.38999999
9.7220001 13.588 -1.938 0.40000001
9.6709995 13.607 -1.936 0.46000001
9.6280003 13.637 -1.936 0.38
9.5749998 13.653 -1.933 0.36000001
9.5159998 13.66 -1.9299999 0.33000001
9.4759998 13.647 -1.926 0.34
9.4139996 13.649 -1.921 0.33000001
9.349 13.648 -1.916 0.34
9.2910004 13.654 -1.913 0.28
9.2329998 13.662 -1.91 0.31999999
9.1730003 13.664 -1.906 0.34
9.1120005 13.667 -1.902 0.34999999
9.052 13.671 -1.898 0.37
9.0150003 13.66 -1.8940001 0.31
8.9540005 13.662 -1.89 0.34
8.8970003 13.668 -1.887 0.33000001
8.8389997 13.673 -1.883 0.37
8.776 13.669 -1.878 0.34
8.7209997 13.678 -1.875 0.33000001
8.684 13.668 -1.872 0.31999999
8.6239996 13.668 -1.868 0.27000001
8.5620003 13.665 -1.863 0.36000001
8.5089998 13.675 -1.8609999 0.31999999
8.4519997 13.68 -1.857 0.33000001
8.4049997 13.7 -1.8559999 0.34
8.3579998 13.719 -1.855 0.33000001
8.3459997 13.748 -1.858 0.25
8.3070002 13.781 -1.859 0.30000001
8.2600002 13.802 -1.858 0.31
8.2150002 13.824 -1.857 0.34999999
8.1490002 13.812 -1.852 0.38
8.1090002 13.843 -1.853 0.38
8.066 13.87 -1.853 0.33000001
8.033 13.864 -1.85 0.43000001
7.9819999 13.875 -1.848 0.36000001
7.9330001 13.892 -1.847 0.44999999
7.9070001 13.948 -1.851 0.37
7.8429999 13.936 -1.846 0.46000001
7.789 13.943 -1.8430001 0.38
7.7340002 13.947 -1.84 0.41
7.7160001 13.966 -1.841 0.44999999
7.6459999 13.943 -1.835 0.38
7.6059999 13.974 -1.836 0.46000001
7.5500002 13.975 -1.832 0.34999999
7.4899998 13.969 -1.8279999 0.44999999
7.448 13.996 -1.8279999 0.41
7.408 14.027 -1.829 0.36000001
7.3800001 14.028 -1.8279999 0.43000001
7.3260002 14.031 -1.825 0.36000001
7.263 14.019 -1.8200001 0.44999999
7.224 14.051 -1.821 0.36000001
7.1760001 14.066 -1.8200001 0.44
7.1030002 14.032 -1.812 0.36000001
7.0640001 14.065 -1.814 0.44
7.0640001 14.12 -1.8200001 0.34999999
7.0009999 14.103 -1.814 0.44
6.9679999 14.149 -1.818 0.34999999
6.921 14.167 -1.817 0.44999999
6.855 14.144 -1.811 0.34
6.8109999 14.165 -1.811 0.44999999
6.776 14.206 -1.814 0.37
6.7480001 14.206 -1.812 0.44999999
6.6849999 14.188 -1.807 0.41
6.6550002 14.241 -1.811 0.28999999
6.598 14.235 -1.807 0.49000001
6.553 14.256 -1.807 0.38
6.5040002 14.267 -1.806 0.44999999
6.4699998 14.252 -1.803 0.37
6.4299998 14.281 -1.804 0.38
6.375 14.28 -1.801 0.46000001
6.3060002 14.245 -1.793 0.38
6.2459998 14.231 -1.788 0.41
6.197 14.241 -1.7869999 0.44999999
6.1399999 14.231 -1.783 0.37
6.1129999 14.23 -1.7819999 0.47999999
6.0770001 14.271 -1.785 0.36000001
6.046 14.321 -1.789 0.43000001
6.0139999 14.371 -1.793 0.38999999
5.9530001 14.353 -1.788 0.38
5.9060001 14.366 -1.7869999 0.34999999
5.8740001 14.418 -1.7920001 0.40000001
5.8299999 14.438 -1.7920001 0.46000001
5.8080001 14.449 -1.7920001 0.37
5.7420001 14.418 -1.786 0.38999999
5.6760001 14.382 -1.778 0.43000001
5.6389999 14.422 -1.781 0.34
5.5970001 14.447 -1.7819999 0.44999999
5.5570002 14.478 -1.784 0.37
5.5159998 14.44 -1.778 0.44999999
5.4780002 14.478 -1.781 0.38
5.3959999 14.396 -1.767 0.38
5.3559999 14.428 -1.7690001 0.38999999
5.2859998 14.378 -1.76 0.34999999
5.2319999 14.37 -1.757 0.44
5.204 14.433 -1.763 0.41999999
5.178 14.432 -1.762 0.33000001
5.152 14.502 -1.7690001 0.47999999
5.1030002 14.511 -1.768 0.25999999
5.0219998 14.424 -1.7539999 0.54000002
4.9860001 14.468 -1.758 0.36000001
4.947 14.502 -1.76 0.38999999
4.8899999 14.484 -1.756 0.38999999
4.8610001 14.473 -1.753 0.47999999
4.8319998 14.537 -1.76 0.30000001
4.77 14.503 -1.753 0.41999999
4.7399998 14.565 -1.76 0.31
4.7140002 14.642 -1.768 0.44999999
4.6830001 14.704 -1.774 0.36000001
4.5970001 14.594 -1.758 0.41
4.586 14.637 -1.762 0.34999999
4.5320001 14.625 -1.7589999 0.41
4.4860001 14.641 -1.7589999 0.38
4.447 14.676 -1.762 0.44999999
4.3769999 14.612 -1.752 0.33000001
4.3569999 14.711 -1.763 0.43000001
4.2930002 14.666 -1.755 0.38999999
4.2620001 14.646 -1.752 0.34
4.2199998 14.672 -1.753 0.38
4.191 14.747 -1.761 0.38
4.1420002 14.75 -1.76 0.43000001
4.098 14.773 -1.761 0.41
4.0440001 14.757 -1.758 0.31
3.9909999 14.745 -1.7539999 0.38
3.973 14.77 -1.757 0.34
3.928 14.786 -1.757 0.38999999
3.9170001 14.933 -1.775 0.37
3.9349999 15.196 -1.808 0.30000001
3.882 15.188 -1.806 0.30000001
3.8269999 15.171 -1.802 0.28999999
3.7939999 15.241 -1.809 0.31
3.756 15.193 -1.802 0.30000001
3.7290001 15.285 -1.813 0.28
3.6199999 15.048 -1.78 0.31999999
3.612 15.222 -1.802 0.30000001
3.527 15.078 -1.781 0.27000001
3.529 15.3 -1.809 0.28999999
3.408 14.992 -1.767 0.27000001
3.3699999 14.933 -1.7589999 0.30000001
3.358 15.103 -1.779 0.27000001
3.3340001 15.22 -1.793 0.28999999
3.2409999 15.021 -1.766 0.28
3.168 14.909 -1.75 0.28
3.138 15.002 -1.761 0.41999999
3.1659999 15.373 -1.808 0.28999999
3.075 15.054 -1.766 0.31999999
3.1059999 15.446 -1.816 0.28
3.0639999 15.493 -1.821 0.28999999
3.0179999 15.516 -1.822 0.31999999
2.964 15.498 -1.819 0.28
2.921 15.537 -1.823 0.30000001
2.8740001 15.552 -1.823 0.28999999
2.8499999 15.562 -1.824 0.28999999
2.8010001 15.571 -1.824 0.28999999
2.753 15.583 -1.825 0.28999999
2.7019999 15.58 -1.823 0.28999999
2.654 15.596 -1.824 0.31999999
2.605 15.605 -1.824 0.28999999
2.5829999 15.619 -1.825 0.28999999
2.5350001 15.638 -1.827 0.33000001
2.4849999 15.638 -1.826 0.28999999
2.4360001 15.648 -1.826 0.30000001
2.3889999 15.667 -1.8279999 0.30000001
2.3399999 15.679 -1.8279999 0.30000001
2.2909999 15.684 -1.8279999 0.30000001
2.267 15.694 -1.829 0.28999999
2.2190001 15.708 -1.83 0.30000001
2.171 15.727 -1.831 0.30000001
2.1210001 15.732 -1.831 0.28999999
2.073 15.744 -1.832 0.28999999
2.0239999 15.761 -1.8329999 0.28999999
1.976 15.775 -1.834 0.28999999
1.952 15.784 -1.835 0.28999999
1.904 15.802 -1.836 0.30000001
1.854 15.806 -1.836 0.30000001
1.8049999 15.817 -1.837 0.30000001
1.756 15.831 -1.8380001 0.28999999
1.7079999 15.848 -1.839 0.28999999
1.659 15.865 -1.841 0.31
1.6339999 15.864 -1.84 0.30000001
1.584 15.873 -1.841 0.30000001
1.535 15.882 -1.841 0.30000001
1.485 15.886 -1.841 0.33000001
1.434 15.883 -1.84 0.28
1.385 15.891 -1.841 0.28999999
1.311 15.615 -1.8049999 0.14
1.232 14.969 -1.722 0.51999998
1.257 15.864 -1.836 0.27000001
1.209 15.9 -1.84 0.31
1.16 15.905 -1.84 0.28
1.109 15.895 -1.839 0.28999999
1.059 15.903 -1.839 0.25999999
1.011 15.934 -1.8430001 0.36000001
0.98500001 15.923 -1.841 0.28999999
0.935 15.928 -1.841 0.30000001
0.88499999 15.925 -1.841 0.28999999
0.83499998 15.928 -1.841 0.28999999
0.78600001 15.952 -1.8430001 0.31999999
0.73500001 15.943 -1.842 0.28
0.68599999 15.963 -1.844 0.31999999
0.66100001 15.97 -1.845 0.28
0.61000001 15.962 -1.844 0.30000001
0.56 15.972 -1.845 0.28999999
0.51099998 15.991 -1.847 0.31999999
0.461 15.991 -1.847 0.28999999
0.41100001 16.004 -1.848 0.30000001
0.361 16.011 -1.849 0.28999999
0.336 16.028999 -1.851 0.30000001
0.285 16.028 -1.851 0.28999999
0.235 16.049 -1.854 0.30000001
0.185 16.054001 -1.854 0.31
0.13500001 16.073999 -1.857 0.31
0.083999999 16.087999 -1.858 0.30000001
0.034000002 16.098 -1.86 0.30000001
0.0089999996 16.087 -1.858 0.30000001
-0.041999999 16.096001 -1.859 0.30000001
-0.093000002 16.101999 -1.86 0.31
-0.14300001 16.108 -1.8609999 0.31
-0.19400001 16.093 -1.859 0.28999999
-0.244 16.107 -1.8609999 0.30000001
-0.29499999 16.112 -1.862 0.31
-0.31999999 16.107 -1.8609999 0.28
-0.37099999 16.112 -1.862 0.28999999
-0.42199999 16.118999 -1.863 0.28999999
-0.47299999 16.121 -1.863 0.30000001
-0.52399999 16.134001 -1.865 0.31
-0.57499999 16.138 -1.8660001 0.31
-0.625 16.134001 -1.8660001 0.31
-0.65100002 16.155001 -1.869 0.31
-0.70099998 16.135 -1.8660001 0.25
-0.70099998 14.995 -1.721 0.14
-0.74699998 14.975 -1.7180001 0.51999998
-0.85500002 16.167 -1.8710001 0.28999999
-0.90600002 16.166 -1.872 0.30000001
-0.93199998 16.169001 -1.872 0.31
-0.98299998 16.176001 -1.873 0.31
-1.034 16.169001 -1.873 0.30000001
-1.084 16.157 -1.872 0.30000001
-1.136 16.164 -1.873 0.30000001
-1.186 16.16 -1.873 0.30000001
-1.239 16.174 -1.875 0.30000001
-1.2640001 16.172001 -1.875 0.28999999
-1.314 16.16 -1.874 0.30000001
-1.3660001 16.17 -1.876 0.28999999
-1.418 16.174999 -1.877 0.28999999
-1.469 16.177 -1.878 0.28999999
-1.521 16.18 -1.8789999 0.28999999
-1.572 16.183001 -1.88 0.28999999
-1.6210001 16.162001 -1.878 0.28999999
-1.645 16.146 -1.876 0.25
-1.609 15.302 -1.7690001 0.23
-1.656 15.287 -1.767 0.36000001
-1.712 15.355 -1.777 0.31
-1.755 15.304 -1.771 0.23
-1.802 15.284 -1.7690001 0.50999999
-1.9170001 16.058001 -1.869 0.20999999
-1.983 16.176001 -1.885 0.28999999
-2.0339999 16.171 -1.885 0.28999999
-2.0840001 16.163 -1.885 0.30000001
-2.1370001 16.174 -1.887 0.28999999
-2.1889999 16.173 -1.888 0.28999999
-2.2390001 16.162001 -1.888 0.28999999
-2.2650001 16.163 -1.888 0.28999999
-2.316 16.157 -1.888 0.30000001
-2.365 16.134001 -1.886 0.28999999
-2.4170001 16.135 -1.887 0.30000001
-2.4630001 16.096001 -1.883 0.25
-2.3510001 15.039 -1.748 0.18000001
-2.398 15.03 -1.747 0.41
-2.411 14.963 -1.739 0.31
-2.451 14.912 -1.734 0.52999997
-2.5020001 14.924 -1.7359999 0.31
-2.5450001 14.899 -1.734 0.58999997
-2.598 14.922 -1.738 0.5
-2.655 14.976 -1.7460001 0.16
-2.6789999 14.839 -1.729 0.37
-2.7690001 15.066 -1.76 0.18000001
-2.9820001 16.091999 -1.8940001 0.30000001
-3.0320001 16.083 -1.8940001 0.28999999
-3.0829999 16.075001 -1.8940001 0.30000001
-3.1359999 16.077 -1.896 0.27000001
-3.1889999 16.079 -1.897 0.28999999
-3.237 16.059 -1.896 0.28999999
-3.2620001 16.049999 -1.895 0.28999999
-3.313 16.044001 -1.896 0.28
-3.359 16.014 -1.893 0.28999999
-3.411 16.011 -1.8940001 0.28999999
-3.4630001 16.007999 -1.895 0.30000001
-3.5120001 15.991 -1.895 0.28999999
-3.5639999 15.986 -1.895 0.28999999
-3.5899999 15.986 -1.896 0.30000001
-3.6359999 15.955 -1.8940001 0.28
-3.688 15.95 -1.8940001 0.28999999
-3.7379999 15.94 -1.895 0.28999999
-3.7869999 15.922 -1.8940001 0.28999999
-3.8369999 15.91 -1.8940001 0.28
-3.8729999 15.84 -1.886 0.19
-3.8989999 15.842 -1.887 0.43000001
-3.714 14.882 -1.762 0.19
-3.76 14.865 -1.762 0.28999999
-3.812 14.876 -1.765 0.28999999
-3.8570001 14.858 -1.7640001 0.28999999
-3.9070001 14.855 -1.765 0.31999999
-3.957 14.858 -1.767 0.31999999
-3.984 14.864 -1.7690001 0.28999999
-4.2909999 15.818 -1.897 0.28999999
-4.3439999 15.816 -1.898 0.27000001
-4.395 15.808 -1.899 0.27000001
-4.4520001 15.821 -1.903 0.25999999
-4.4990001 15.798 -1.902 0.20999999
-4.513 15.659 -1.885 0.41
-4.5190001 15.586 -1.876 0.23999999
-4.585 15.63 -1.8839999 0.23999999
-4.6739998 15.753 -1.902 0.28
-4.7189999 15.723 -1.9 0.27000001
-4.7740002 15.725 -1.903 0.28999999
-4.8239999 15.714 -1.903 0.28
-4.7160001 15.104 -1.824 0.57999998
-4.9000001 15.524 -1.883 0.23999999
-4.9970002 15.66 -1.903 0.28
-5.0100002 15.533 -1.888 0.27000001
-4.9559999 15.198 -1.845 0.23999999
-5.138 15.593 -1.9 0.27000001
-5.1989999 15.613 -1.905 0.27000001
-5.23 15.623 -1.908 0.28999999
-5.2810001 15.614 -1.909 0.28999999
-5.3330002 15.605 -1.91 0.28999999
-5.3740001 15.566 -1.9069999 0.25
-5.355 15.354 -1.88 0.37
-5.2340002 14.854 -1.8150001 0.25
-5.5339999 15.552 -1.9119999 0.27000001
-5.5640001 15.56 -1.914 0.28
-5.619 15.557 -1.916 0.28
-5.6729999 15.555 -1.918 0.28999999
-5.724 15.542 -1.919 0.28999999
-5.7729998 15.526 -1.919 0.28999999
-5.823 15.51 -1.92 0.28999999
-5.875 15.503 -1.921 0.28999999
-5.9029999 15.501 -1.9220001 0.28
-5.9510002 15.48 -1.9220001 0.25999999
-6.0009999 15.467 -1.923 0.2
-6.0440001 15.433 -1.921 0.46000001
-6.0209999 15.231 -1.895 0.23999999
-6.0440001 15.15 -1.887 0.25
-6.138 15.247 -1.903 0.27000001
-6.2020001 15.338 -1.9170001 0.27000001
-6.2379999 15.287 -1.9119999 0.25
-6.1999998 15.059 -1.8839999 0.30000001
-6.197 14.916 -1.867 0.22
-6.2020001 14.798 -1.853 0.34999999
-6.2810001 14.855 -1.863 0.20999999
-6.2919998 14.751 -1.852 0.31999999
-6.3410001 14.801 -1.86 0.43000001
-6.3639998 14.727 -1.853 0.36000001
-6.4239998 14.74 -1.857 0.30000001
-6.4250002 14.616 -1.8430001 0.46000001
-6.4889998 14.637 -1.848 0.28999999
-6.566 14.686 -1.858 0.38
-6.6129999 14.667 -1.858 0.41999999
-6.6389999 14.664 -1.859 0.43000001
-6.6880002 14.65 -1.86 0.34999999
-6.6690001 14.486 -1.84 0.37
-6.7550001 14.552 -1.853 0.40000001
-6.757 14.437 -1.839 0.38999999
-6.8319998 14.478 -1.848 0.40000001
-6.8870001 14.478 -1.851 0.33000001
-6.9050002 14.457 -1.85 0.38999999
-6.9289999 14.39 -1.8430001 0.37
-6.9889998 14.401 -1.848 0.41
-7.066 14.443 -1.857 0.36000001
-7.211 14.624 -1.886 0.38
-7.2490001 14.585 -1.8839999 0.38999999
-7.2540002 14.48 -1.872 0.34999999
-7.2490001 14.414 -1.864 0.43000001
-7.322 14.446 -1.872 0.40000001
-7.3470001 14.382 -1.8660001 0.38
-7.4229999 14.419 -1.875 0.40000001
-7.4650002 14.39 -1.874 0.38
-7.5190001 14.383 -1.876 0.34999999
-7.572 14.375 -1.8789999 0.37
-7.6199999 14.41 -1.886 0.30000001
-7.7010002 14.455 -1.895 0.38
-7.7529998 14.443 -1.897 0.37
-7.7930002 14.408 -1.896 0.44
-7.8169999 14.345 -1.89 0.36000001
-7.849 14.296 -1.887 0.41
-7.9200001 14.318 -1.893 0.41
-7.9660001 14.349 -1.9 0.38
-8.0030003 14.31 -1.898 0.34999999
-8.052 14.292 -1.899 0.43000001
-8.0959997 14.265 -1.898 0.38999999
