# .PCD v0.7 - Point Cloud Data file format
VERSION 0.7
FIELDS x y z intensity
SIZE 4 4 4 4
TYPE F F F F
COUNT 1 1 1 1
WIDTH 1389
HEIGHT 1
VIEWPOINT 0 0 0 1 0 0 0
POINTS 1389
DATA ascii
-9.8850002 10.553 -1.493 0.25999999
-9.9329996 10.538 -1.495 0.25999999
-9.9700003 10.511 -1.4960001 0.17
-10.014 10.491 -1.498 0.43000001
-10.062 10.475 -1.501 0.25
-10.095 10.477 -1.503 0.27000001
-10.139 10.456 -1.505 0.25999999
-10.176 10.429 -1.506 0.27000001
-10.225 10.414 -1.5089999 0.28999999
-10.272 10.396 -1.511 0.27000001
-10.322 10.382 -1.5140001 0.28999999
-10.362 10.356 -1.515 0.2
-10.391 10.353 -1.517 0.40000001
-10.432 10.328 -1.5190001 0.23999999
-10.477 10.308 -1.521 0.28
-10.523 10.289 -1.523 0.18000001
-10.574 10.274 -1.526 0.38999999
-10.615 10.249 -1.528 0.23
-10.661 10.229 -1.53 0.28
-10.696 10.23 -1.533 0.27000001
-10.743 10.211 -1.535 0.2
-10.789 10.19 -1.538 0.40000001
-10.837 10.171 -1.54 0.22
-10.879 10.147 -1.5420001 0.20999999
-10.921 10.122 -1.543 0.38999999
-10.963 10.097 -1.545 0.23
-10.995 10.095 -1.548 0.18000001
-11.038 10.071 -1.549 0.41
-11.082 10.047 -1.551 0.23999999
-11.126 10.024 -1.553 0.2
-11.162 9.993 -1.554 0.38
-11.202 9.9659996 -1.5549999 0.23
-11.257 9.9519997 -1.559 0.20999999
-11.292 9.9189997 -1.5599999 0.38
-11.324 9.9160004 -1.562 0.19
-11.37 9.8929996 -1.564 0.38
-11.426 9.8789997 -1.568 0.20999999
-11.465 9.8500004 -1.5700001 0.31
-11.529 9.842 -1.575 0
-11.561 9.8070002 -1.575 0
-11.61 9.7860003 -1.5779999 0
-11.624 9.7670002 -1.577 0
-11.685 9.7559996 -1.582 0
-11.713 9.7159996 -1.582 0.079999998
-11.722 9.6619997 -1.5779999 0.23
-11.758 9.6300001 -1.579 0.15000001
-11.805 9.6070004 -1.582 0.40000001
-11.861 9.5909996 -1.586 0.2
-11.88 9.5749998 -1.586 0.34
-11.914 9.5410004 -1.587 0.20999999
-11.953 9.5109997 -1.5880001 0.17
-12.004 9.4899998 -1.591 0.38999999
-12.058 9.4720001 -1.595 0.20999999
-12.085 9.4309998 -1.595 0.23
-12.122 9.3990002 -1.596 0.20999999
-12.163 9.3699999 -1.597 0.2
-12.193 9.3629999 -1.6 0.34999999
-12.218 9.3210001 -1.599 0.17
-12.282 9.309 -1.604 0.34999999
-12.317 9.2749996 -1.605 0.20999999
-12.343 9.2340002 -1.605 0.34
-12.386 9.2060003 -1.607 0.18000001
-12.425 9.1739998 -1.608 0.36000001
-12.449 9.1610003 -1.61 0.20999999
-12.492 9.1330004 -1.612 0.34
-12.538 9.1059999 -1.614 0.18000001
-12.578 9.0749998 -1.6160001 0.37
-12.623 9.0469999 -1.618 0.2
-12.661 9.0139999 -1.62 0.33000001
-12.695 8.9790001 -1.6210001 0.17
-12.721 8.967 -1.622 0.36000001
-12.76 8.9350004 -1.624 0.18000001
-12.798 8.9020004 -1.625 0.34999999
-12.842 8.8730001 -1.627 0.18000001
-12.874 8.835 -1.628 0.36000001
-12.914 8.8030005 -1.63 0.19
-12.948 8.7670002 -1.631 0.37
-12.979 8.7580004 -1.633 0.18000001
-13.019 8.7259998 -1.635 0.34999999
-13.066 8.698 -1.638 0.2
-13.099 8.6599998 -1.638 0.25
-13.152 8.6370001 -1.642 0.18000001
-13.193 8.6040001 -1.6440001 0.31999999
-13.24 8.5760002 -1.647 0.2
-13.27 8.5360003 -1.647 0.34
-13.305 8.5290003 -1.65 0.17
-13.352 8.5 -1.653 0.36000001
-13.343 8.4359999 -1.648 0.22
-13.42 8.4259996 -1.655 0.23
-13.462 8.3929996 -1.6569999 0.2
-13.513 8.3660002 -1.661 0.22
-13.555 8.3330002 -1.663 0.18000001
-13.575 8.316 -1.664 0.34
-13.633 8.2930002 -1.668 0.20999999
-13.701 8.276 -1.674 0.23999999
-13.761 8.2530003 -1.679 0.1
-13.727 8.1739998 -1.67 0.13
-13.738 8.1219997 -1.668 0.18000001
-13.76 8.0769997 -1.668 0.16
-13.75 8.0419998 -1.665 0.34
-13.786 8.0050001 -1.666 0.16
-13.809 7.961 -1.666 0.38
-13.858 7.9310002 -1.669 0.20999999
-13.876 7.8839998 -1.668 0.34
-13.925 7.8540001 -1.6720001 0.2
-13.951 7.8109999 -1.6720001 0.18000001
-13.972 7.7940001 -1.673 0.20999999
-14.005 7.7550001 -1.674 0.20999999
-14.033 7.7119999 -1.675 0.22
-14.073 7.677 -1.677 0.18000001
-14.118 7.6440001 -1.6799999 0.20999999
-14.147 7.6020002 -1.6799999 0.20999999
-14.194 7.5700002 -1.683 0.23
-14.228 7.5599999 -1.686 0.19
-14.259 7.5190001 -1.687 0.2
-14.311 7.4889998 -1.691 0.36000001
-14.348 7.4510002 -1.693 0.23
-14.386 7.414 -1.6950001 0.2
-14.448 7.388 -1.7 0.36000001
-14.49 7.3530002 -1.702 0.20999999
-14.512 7.335 -1.704 0.20999999
-14.555 7.3000002 -1.706 0.18000001
-14.61 7.27 -1.71 0.33000001
-14.636 7.2259998 -1.711 0.23
-14.669 7.1849999 -1.712 0.30000001
-14.708 7.1469998 -1.714 0.2
-14.743 7.1059999 -1.716 0.2
-14.796 7.0749998 -1.72 0.22
-14.83 7.0630002 -1.723 0.18000001
-14.867 7.0229998 -1.725 0.34
-14.917 6.9899998 -1.729 0.2
-14.961 6.9530001 -1.7309999 0.2
-14.979 6.9039998 -1.7309999 0.16
-15.002 6.8579998 -1.7309999 0.38999999
-15.087 6.8390002 -1.739 0.19
-15.167 6.8470001 -1.748 0.33000001
-15.208 6.8080001 -1.751 0.28999999
-15.224 6.7579999 -1.75 0.22
-15.312 6.7399998 -1.7589999 0.23999999
-15.322 6.6869998 -1.757 0.25
-15.376 6.6529999 -1.761 0
-15.43 6.619 -1.766 0
-15.495 6.618 -1.773 0
-15.495 6.5609999 -1.77 0
-15.589 6.5430002 -1.779 0
-15.557 6.4720001 -1.773 0.11
-15.553 6.4130001 -1.77 0.16
-15.586 6.369 -1.771 0.17
-15.608 6.3210001 -1.771 0.18000001
-15.636 6.3039999 -1.774 0.18000001
-15.693 6.27 -1.778 0.31999999
-15.709 6.2189999 -1.778 0.14
-15.765 6.184 -1.783 0.15000001
-15.808 6.1440001 -1.786 0.16
-15.846 6.1009998 -1.788 0.28
-15.9 6.0650001 -1.7920001 0.16
-15.914 6.0409999 -1.793 0.14
-15.942 5.9949999 -1.794 0.18000001
-15.983 5.9530001 -1.7970001 0.23
-16.035 5.915 -1.801 0.2
-16.073999 5.8720002 -1.803 0.31
-16.117001 5.8309999 -1.807 0.20999999
-16.146 5.7839999 -1.808 0.28999999
-16.198 5.7449999 -1.812 0.2
-16.226 5.7270002 -1.814 0.2
-16.259001 5.6810002 -1.816 0.31
-16.295 5.6360002 -1.819 0.19
-16.334999 5.5929999 -1.821 0.20999999
-16.372999 5.5479999 -1.824 0.30000001
-16.410999 5.5040002 -1.827 0.19
-16.445999 5.4580002 -1.829 0.31999999
-16.483999 5.4419999 -1.832 0.2
-16.524 5.3979998 -1.835 0.18000001
-16.542999 5.3460002 -1.835 0.28
-16.573 5.2989998 -1.837 0.11
-16.622 5.257 -1.841 0.16
-16.657 5.211 -1.8430001 0.28
-16.724001 5.1739998 -1.85 0
-16.753 5.1539998 -1.852 0
-16.820999 5.1170001 -1.858 0
-16.934 5.0939999 -1.87 0
-16.843 5.0089998 -1.857 0
-16.882 4.9629998 -1.86 0.13
-16.891001 4.908 -1.859 0.23
-16.903 4.8540001 -1.859 0.11
-16.947001 4.8369999 -1.863 0.16
-16.958 4.783 -1.863 0.20999999
-16.958 4.7259998 -1.8609999 0.1
-16.986 4.6760001 -1.863 0.16
-17.023001 4.6290002 -1.865 0.23
-17.049 4.5780001 -1.867 0.11
-17.070999 4.527 -1.868 0.16
-17.106001 4.4499998 -1.869 0.31999999
-17.139 4.401 -1.872 0.41
-17.191 4.3569999 -1.876 0.31999999
-17.212999 4.3049998 -1.877 0.34
-17.257 4.2589998 -1.881 0.2
-17.280001 4.2069998 -1.882 0.34999999
-17.316 4.158 -1.885 0.19
-17.337999 4.1350002 -1.887 0.34
-17.370001 4.085 -1.8890001 0.18000001
-17.393 4.0320001 -1.89 0.36000001
-17.421 3.9809999 -1.892 0.18000001
-17.452999 3.931 -1.8940001 0.36000001
-17.476999 3.8789999 -1.896 0.19
-17.489 3.8239999 -1.896 0.38
-17.514 3.8 -1.898 0.20999999
-17.514 3.743 -1.897 0.18000001
-17.538 3.6900001 -1.898 0.38999999
-17.556999 3.6370001 -1.899 0.23999999
-17.577999 3.5840001 -1.9 0.19
-17.601 3.5309999 -1.902 0.41
-17.624001 3.4779999 -1.903 0.23
-17.636 3.4230001 -1.903 0.18000001
-17.653 3.3970001 -1.905 0.38999999
-17.676001 3.3440001 -1.906 0.23
-17.688 3.289 -1.906 0.19
-17.714001 3.2360001 -1.908 0.38999999
-17.738001 3.1830001 -1.91 0.23
-17.761 3.1300001 -1.911 0.18000001
-17.787001 3.0769999 -1.913 0.38999999
-17.819 3.053 -1.916 0.20999999
-17.823999 2.997 -1.916 0.23999999
-17.857 2.9449999 -1.919 0.2
-17.886 2.892 -1.921 0.23
-17.909 2.8380001 -1.923 0.2
-17.943001 2.7850001 -1.926 0.22
-17.971001 2.7320001 -1.928 0.2
-17.990999 2.7060001 -1.9299999 0.20999999
-18.014 2.652 -1.932 0.2
-18.042999 2.598 -1.934 0.22
-18.061001 2.543 -1.9349999 0.2
-18.093 2.4890001 -1.938 0.22
-18.129999 2.437 -1.942 0.2
-18.153 2.382 -1.943 0.20999999
-18.188999 2.3570001 -1.947 0.18000001
-18.202 2.3010001 -1.948 0.34
-18.239 2.247 -1.951 0.19
-18.257 2.1919999 -1.9529999 0.23
-18.282 2.1359999 -1.955 0.19
-18.306 2.0810001 -1.957 0.22
-18.344 2.027 -1.961 0.19
-18.368999 2.0009999 -1.9630001 0.20999999
-18.393 1.9450001 -1.965 0.2
-18.423 1.8890001 -1.9680001 0.20999999
-18.443001 1.8329999 -1.97 0.18000001
-18.48 1.778 -1.973 0.30000001
-18.503 1.722 -1.976 0.2
-18.521999 1.665 -1.977 0.18000001
-18.555 1.609 -1.98 0.12
-18.584999 1.582 -1.984 0.17
-18.618 1.526 -1.987 0.28
-18.635 1.469 -1.988 0.11
-18.663 1.4119999 -1.9910001 0.16
-18.691 1.355 -1.994 0.12
-18.712999 1.298 -1.9960001 0.17
-18.739 1.24 -1.999 0.30000001
-18.763 1.212 -2.0009999 0.19
-18.768 1.153 -2.0009999 0.18000001
-18.806999 1.097 -2.006 0.20999999
-18.833 1.039 -2.0079999 0.19
-18.864 0.98100001 -2.0109999 0.20999999
-18.884001 0.92299998 -2.013 0.19
-18.915001 0.86500001 -2.017 0.22
-18.944 0.83600003 -2.02 0.18000001
-18.969999 0.778 -2.023 0.23999999
-19.000999 0.71899998 -2.026 0.20999999
-19.033001 0.66100001 -2.029 0.23
-19.066 0.602 -2.033 0.2
-19.098 0.54299998 -2.0369999 0.20999999
-19.127001 0.484 -2.04 0.2
-19.153999 0.454 -2.043 0.22
-19.184999 0.39500001 -2.046 0.19
-19.208 0.33500001 -2.049 0.20999999
-19.237 0.27500001 -2.052 0.17
-19.112 0.243 -2.0380001 0.18000001
-19.142 0.183 -2.0409999 0.31
-19.171 0.123 -2.0439999 0.2
-19.195 0.063000001 -2.0469999 0.17
-19.211 0.033 -2.049 0.31
-19.235001 -0.027000001 -2.052 0.2
-19.242001 -0.088 -2.053 0.18000001
-19.268 -0.148 -2.056 0.20999999
-19.281 -0.20900001 -2.0569999 0.18000001
-19.296 -0.27000001 -2.059 0.31999999
-19.311001 -0.331 -2.0610001 0.20999999
-19.32 -0.39199999 -2.062 0.2
-19.347 -0.42199999 -2.066 0.23
-19.337999 -0.48300001 -2.0650001 0.2
-19.364 -0.54500002 -2.0680001 0.17
-19.382 -0.60600001 -2.0699999 0.38999999
-19.384001 -0.667 -2.0710001 0.25
-19.379999 -0.72799999 -2.0699999 0.16
-19.399 -0.79000002 -2.073 0.43000001
-19.412001 -0.82099998 -2.075 0.25
-19.427 -0.88200003 -2.0769999 0.27000001
-19.43 -0.94400001 -2.0769999 0.27000001
-19.457001 -1.006 -2.0810001 0.25999999
-19.48 -1.069 -2.0840001 0.19
-19.48 -1.13 -2.0840001 0.38999999
-19.462999 -1.191 -2.0829999 0.22
-19.483999 -1.223 -2.086 0.17
-19.013 -1.2539999 -2.0309999 0.31999999
-18.971001 -1.311 -2.026 0.31
-18.933001 -1.368 -2.0220001 0.44999999
-18.735001 -1.413 -1.999 0.20999999
-18.702 -1.47 -1.9960001 0.23
-18.575001 -1.5190001 -1.982 0.18000001
-18.806 -1.567 -2.0090001 0.31
-18.815001 -1.627 -2.0109999 0.25999999
-18.823999 -1.688 -2.013 0.25999999
-18.822001 -1.747 -2.013 0.25999999
-18.827999 -1.807 -2.0139999 0.2
-18.84 -1.868 -2.016 0.41
-18.848 -1.929 -2.0179999 0.23999999
-18.872 -1.9910001 -2.0220001 0.19
-18.903999 -2.0239999 -2.026 0.41
-18.882 -2.082 -2.0239999 0.23999999
-18.872999 -2.141 -2.0239999 0.25999999
-18.875999 -2.2019999 -2.0250001 0.2
-18.877001 -2.2620001 -2.026 0.41
-18.858 -2.3199999 -2.0239999 0.23
-18.867001 -2.381 -2.026 0.2
-18.855 -2.4089999 -2.0250001 0.37
-18.851 -2.4690001 -2.026 0.19
-18.844999 -2.529 -2.026 0.37
-18.849001 -2.589 -2.027 0.23
-18.844999 -2.6489999 -2.0280001 0.19
-18.864 -2.7119999 -2.0309999 0.41999999
-18.858999 -2.7720001 -2.0320001 0.23
-18.872999 -2.8039999 -2.0339999 0.23999999
-18.870001 -2.865 -2.0339999 0.25
-18.839001 -2.9200001 -2.0320001 0.28
-18.804001 -2.9760001 -2.029 0.28999999
-18.768999 -3.0309999 -2.026 0.31
-18.688999 -3.0780001 -2.017 0.34999999
-18.601 -3.1240001 -2.0079999 0.46000001
-18.337 -3.109 -1.977 0.31999999
-18.370001 -3.174 -1.983 0.30000001
-18.323 -3.2260001 -1.978 0.38999999
-18.426001 -3.303 -1.992 0.41
-18.393 -3.3570001 -1.989 0.23999999
-18.347 -3.408 -1.985 0.19
-18.34 -3.467 -1.985 0.41
-18.305 -3.49 -1.982 0.25
-18.288 -3.546 -1.9809999 0.2
-18.287001 -3.6059999 -1.982 0.14
-18.297001 -3.6670001 -1.985 0.23
-18.26 -3.72 -1.982 0.49000001
-18.25 -3.777 -1.982 0.62
-18.224001 -3.832 -1.98 0.38
-18.195 -3.8559999 -1.977 0.23
-18.177 -3.911 -1.977 0.2
-18.146999 -3.9649999 -1.975 0.38
-18.121 -4.0190001 -1.973 0.22
-18.124001 -4.079 -1.975 0.2
-18.118999 -4.138 -1.976 0.38
-18.115 -4.197 -1.977 0.22
-18.112 -4.256 -1.978 0.19
-18.138 -4.2919998 -1.982 0.40000001
-18.138 -4.3520002 -1.984 0.23999999
-18.139 -4.4130001 -1.9859999 0.16
-18.174 -4.4819999 -1.9910001 0.43000001
-18.216999 -4.553 -1.998 0.22
-18.222 -4.6149998 -2.0009999 0.2
-18.225 -4.677 -2.003 0.44999999
-18.198 -4.7010002 -2 0.23999999
-18.18 -4.757 -2 0.2
-18.167 -4.8140001 -2 0.41
-18.155001 -4.8730001 -2.0009999 0.23999999
-18.142 -4.9299998 -2.0009999 0.23999999
-18.125999 -4.987 -2.0009999 0.18000001
-18.107 -5.0430002 -2 0.44999999
-18.120001 -5.0770001 -2.003 0.22
-18.052 -5.1199999 -1.997 0.25
-18.077999 -5.1880002 -2.0020001 0.15000001
-17.951 -5.2129998 -1.988 0.49000001
-18.042999 -5.3010001 -2.0020001 0.25999999
-18.035999 -5.3610001 -2.003 0.25999999
-18.004 -5.4130001 -2.0009999 0.25
-17.955 -5.4289999 -1.9960001 0.28999999
-17.929001 -5.4819999 -1.995 0.28999999
-17.896 -5.5339999 -1.993 0.22
-17.818001 -5.5710001 -1.9859999 0.25
-17.664 -5.5840001 -1.969 0.51999998
-17.546 -5.6079998 -1.956 0.23
-17.375 -5.6139998 -1.938 0.23
-17.194 -5.586 -1.916 0.28
-17.016001 -5.5869999 -1.897 0.23999999
-16.861 -5.5949998 -1.88 0.33000001
-16.658001 -5.586 -1.857 0.2
-16.486 -5.5869999 -1.8380001 0.51999998
-16.294001 -5.579 -1.816 0.23
-16.129999 -5.5799999 -1.798 0.16
-15.904 -5.5580001 -1.772 0.54000002
-15.816 -5.5549998 -1.763 0.31999999
-15.668 -5.559 -1.7460001 0.28
-15.298 -5.4819999 -1.7029999 0.33000001
-14.747 -5.3899999 -1.638 0.51999998
-14.722 -5.434 -1.637 0.30000001
-14.684 -5.4720001 -1.635 0.55000001
-13.46 -5.0430002 -1.483 0.23
-13.43 -5.079 -1.4809999 0.41
-9.4799995 -3.6619999 -0.99000001 0.51999998
-9.4309998 -3.677 -0.98500001 0.33000001
-9.4119997 -3.704 -0.98400003 0.41
-9.3970003 -3.7320001 -0.98400003 0.40000001
-9.3950005 -3.7479999 -0.98400003 0.44
-9.4840002 -3.8180001 -0.99699998 0.56
-9.198 -3.737 -0.963 0.20999999
-9.217 -3.779 -0.96600002 0.11
-9.0179996 -3.7309999 -0.94300002 0.16
-9.1049995 -3.8 -0.95499998 0.55000001
-9.1040001 -3.8340001 -0.95700002 0.20999999
-12.783 -5.4419999 -1.427 0.41
-12.41 -5.3299999 -1.381 0.34999999
-12.437 -5.388 -1.387 0.44999999
-12.281 -5.3670001 -1.369 0.23999999
-12.299 -5.4200001 -1.374 0.63999999
-12.271 -5.454 -1.372 0.41
-12.17 -5.4320002 -1.36 0.25
-12.074 -5.4359999 -1.35 0.25999999
-11.931 -5.4159999 -1.334 0.33000001
-11.843 -5.4219999 -1.325 0.50999999
-11.77 -5.4330001 -1.318 0.37
-11.681 -5.4369998 -1.308 0.28999999
-11.575 -5.4320002 -1.2970001 0.38
-11.47 -5.427 -1.286 0.38
-7.053 -3.362 -0.71499997 0.17
-7.0079999 -3.3670001 -0.70999998 0.34999999
-6.974 -3.378 -0.70700002 0.30000001
-6.9400001 -3.3889999 -0.704 0.30000001
-6.9130001 -3.4030001 -0.70200002 0.28999999
-6.8969998 -3.4219999 -0.70200002 0.34999999
-6.8790002 -3.4400001 -0.70099998 0.43000001
-6.789 -3.408 -0.69 0.37
-6.8410001 -3.4890001 -0.699 0.31
-6.8499999 -3.52 -0.70200002 0.31
-6.848 -3.546 -0.70300001 0.38999999
-6.8400002 -3.569 -0.704 0.41
-6.8449998 -3.599 -0.70599997 0.31999999
-6.8579998 -3.6199999 -0.708 0.31999999
-6.8720002 -3.654 -0.71100003 0.41
-6.9060001 -3.7 -0.71700001 0.17
-9.9949999 -5.3829999 -1.1289999 0.23
-10.067 -5.4619999 -1.141 0.19
-6.211 -3.4070001 -0.63 0
-6.1739998 -3.4119999 -0.62599999 0
-6.0799999 -3.3970001 -0.616 0.30000001
-6.0830002 -3.424 -0.61699998 0.28999999
-6.0770001 -3.4460001 -0.61799997 0.22
-6.0580001 -3.46 -0.61699998 0.28999999
-6.059 -3.4860001 -0.61900002 0.20999999
-6.0619998 -3.513 -0.62099999 0.31
-6.046 -3.517 -0.61900002 0.11
-6.0479999 -3.5439999 -0.62099999 0
-6.0409999 -3.5650001 -0.62099999 0
-6.0570002 -3.5999999 -0.625 0.14
-8.823 -5.3060002 -1.006 0.31999999
-8.6479998 -5.2379999 -0.98400003 0.52999997
-8.6400003 -5.2519999 -0.98400003 0.17
-8.349 -5.1110001 -0.94599998 0.56999999
-8.6239996 -5.316 -0.986 0.28999999
-8.5349998 -5.2979999 -0.97600001 0.2
-8.5500002 -5.3449998 -0.98100001 0.57999998
-8.0719995 -5.0830002 -0.917 0.22
-8.2139997 -5.2080002 -0.93900001 0.16
-7.9489999 -5.0580001 -0.903 0.41
-8.099 -5.1890001 -0.926 0.40000001
-8.0909996 -5.2199998 -0.92699999 0.23
-8.0120001 -5.2049999 -0.91900003 0.25999999
-7.9860001 -5.224 -0.917 0.18000001
-7.9330001 -5.2249999 -0.912 0.36000001
-7.8099999 -5.1799998 -0.89700001 0.20999999
-7.7080002 -5.1469998 -0.88499999 0.41
-7.6900001 -5.1529999 -0.884 0.27000001
-7.6360002 -5.152 -0.87900001 0.41999999
-7.6030002 -5.164 -0.87599999 0.41
-7.598 -5.1960001 -0.87800002 0.23
-7.5029998 -5.1659999 -0.86699998 0.28999999
-7.4089999 -5.1360002 -0.85600001 0.27000001
-7.3829999 -5.152 -0.85399997 0.55000001
-7.4099998 -5.1890001 -0.85900003 0.15000001
-7.3189998 -5.1589999 -0.84899998 0.30000001
-7.1799998 -5.0949998 -0.83099997 0.43000001
-7.1550002 -5.112 -0.82999998 0.34999999
-7.1230001 -5.1230001 -0.82700002 0.28
-7.1389999 -5.1690001 -0.83200002 0.44
-7.0300002 -5.1230001 -0.81900001 0.23
-6.9850001 -5.1079998 -0.81300002 0.27000001
-6.941 -5.1100001 -0.80900002 0.23999999
-6.8800001 -5.098 -0.80299997 0.28999999
-6.8629999 -5.119 -0.80299997 0.37
-6.8369999 -5.1329999 -0.801 0.38
-6.8099999 -5.1459999 -0.80000001 0.38999999
-6.743 -5.1290002 -0.792 0.30000001
-6.6370001 -5.0650001 -0.778 0.27000001
-6.638 -5.0999999 -0.77999997 0.44999999
-6.6100001 -5.1110001 -0.778 0.33000001
-6.5570002 -5.1030002 -0.773 0.31999999
-6.527 -5.1129999 -0.77100003 0.36000001
-6.4699998 -5.1020002 -0.76499999 0.34999999
-6.4330001 -5.105 -0.76200002 0.28999999
-6.4200001 -5.1110001 -0.76099998 0.31999999
-6.3509998 -5.0890002 -0.75300002 0.34
-6.335 -5.1090002 -0.75300002 0.25
-6.296 -5.1100001 -0.75 0.38999999
-6.2659998 -5.119 -0.74699998 0.37
-6.2600002 -5.1469998 -0.74900001 0.31
-6.23 -5.1560001 -0.74699998 0.22
-6.1849999 -5.1350002 -0.741 0.43000001
-6.0929999 -5.0910001 -0.73000002 0.28
-6.0689998 -5.1040001 -0.72899997 0.31999999
-6.033 -5.1059999 -0.72600001 0.25999999
-5.987 -5.099 -0.72100002 0.38
-5.9710002 -5.118 -0.72100002 0.40000001
-5.9790001 -5.158 -0.72500002 0.25999999
-5.8449998 -5.0749998 -0.70700002 0.34999999
-5.8099999 -5.0609999 -0.70200002 0.19
-5.7600002 -5.0489998 -0.69700003 0.46000001
-5.8649998 -5.1729999 -0.71600002 0.16
-5.7210002 -5.079 -0.69599998 0.31999999
-5.6329999 -5.033 -0.685 0.23
-5.6409998 -5.072 -0.68800002 0.20999999
-5.5900002 -5.0580001 -0.68300003 0.46000001
-5.5739999 -5.0599999 -0.68199998 0.30000001
-5.5609999 -5.0799999 -0.68199998 0.28999999
-5.5560002 -5.1069999 -0.68400002 0.28999999
-5.4970002 -5.086 -0.67699999 0.34
-5.467 -5.0890002 -0.67500001 0.28999999
-5.4229999 -5.0809999 -0.67000002 0.34
-5.3740001 -5.0669999 -0.66500002 0.33000001
-5.382 -5.0900002 -0.667 0.20999999
-5.329 -5.073 -0.662 0.34999999
-5.2789998 -5.0570002 -0.65600002 0.36000001
-5.256 -5.066 -0.65499997 0.2
-5.2810001 -5.1230001 -0.662 0.2
-5.1479998 -5.026 -0.64300001 0.51999998
-5.164 -5.073 -0.648 0.25
-5.1300001 -5.0560002 -0.64399999 0.23
-5.0650001 -5.0229998 -0.63499999 0.31
-5.0419998 -5.0320001 -0.634 0.23
-5.0009999 -5.0229998 -0.63 0.41
-5.0469999 -5.0999999 -0.63999999 0.18000001
-4.9790001 -5.0640001 -0.63200003 0.28999999
-4.9369998 -5.052 -0.62699997 0.36000001
-4.9060001 -5.0380001 -0.62400001 0.36000001
-4.9219999 -5.086 -0.62900001 0.25
-4.8499999 -5.0430002 -0.61900002 0.28
-4.8270001 -5.0510001 -0.61799997 0.31999999
-4.8039999 -5.059 -0.61699998 0.28
-4.6950002 -4.9759998 -0.60100001 0
-4.8299999 -5.1490002 -0.62699997 0.13
-4.73 -5.0599999 -0.611 0.23
-4.6950002 -5.0549998 -0.60799998 0.28999999
-4.6669998 -5.0560002 -0.60600001 0.23
-4.6339998 -5.052 -0.60299999 0.30000001
-4.6129999 -5.0609999 -0.602 0.25999999
-4.6599998 -5.1440001 -0.61299998 0.23999999
-4.6170001 -5.1290002 -0.60799998 0.31
-4.5910001 -5.1170001 -0.60500002 0.25
-4.5079999 -5.0560002 -0.59299999 0.23
-4.474 -5.0510001 -0.58999997 0.44999999
-4.4650002 -5.073 -0.59100002 0.23
-4.4559999 -5.0939999 -0.59299999 0.15000001
-4.4039998 -5.0679998 -0.58600003 0.47999999
-4.3649998 -5.0549998 -0.58200002 0.25
-4.3559999 -5.0760002 -0.583 0.2
-4.329 -5.0619998 -0.57999998 0.28
-4.3499999 -5.1170001 -0.58700001 0.20999999
-4.309 -5.1020002 -0.58200002 0.27000001
-4.27 -5.0879998 -0.57800001 0.23
-4.2340002 -5.0780001 -0.574 0.23
-4.2090001 -5.0799999 -0.57300001 0.44
-4.2379999 -5.1479998 -0.58099997 0.18000001
-4.1729999 -5.086 -0.57099998 0.19
-4.1399999 -5.0780001 -0.56699997 0.49000001
-4.119 -5.085 -0.56599998 0.23
-4.098 -5.0910001 -0.565 0.27000001
-4.0869999 -5.1100001 -0.56599998 0.23
-4.0819998 -5.1370001 -0.56800002 0.2
-4.052 -5.1329999 -0.56599998 0.20999999
-4.0289998 -5.1199999 -0.56300002 0.31
-4.0009999 -5.1170001 -0.56099999 0.28999999
-3.9860001 -5.132 -0.56099999 0.25
-3.9560001 -5.1269999 -0.55800003 0.37
-3.927 -5.1220002 -0.55599999 0.28
-3.914 -5.1389999 -0.55699998 0.22
-3.8670001 -5.1100001 -0.551 0.36000001
-3.8559999 -5.1129999 -0.55000001 0.25
-3.8199999 -5.098 -0.546 0.23999999
-3.7980001 -5.1020002 -0.54500002 0.38999999
-3.7720001 -5.1009998 -0.54299998 0.25
-3.7550001 -5.112 -0.54299998 0.25
-3.7320001 -5.1139998 -0.54100001 0.23999999
-3.7179999 -5.1290002 -0.542 0.34
-3.6830001 -5.098 -0.537 0.31
-3.6730001 -5.1170001 -0.53799999 0.25999999
-3.658 -5.1300001 -0.53799999 0.23999999
-3.6489999 -5.152 -0.53899997 0.38
-3.6259999 -5.1529999 -0.53799999 0.28
-3.5739999 -5.1139998 -0.53100002 0.23
-3.5439999 -5.1059999 -0.528 0.30000001
-3.5569999 -5.1409998 -0.53200001 0.15000001
-3.5090001 -5.1059999 -0.52600002 0.14
-3.5 -5.1269999 -0.52700001 0.16
-3.47 -5.118 -0.52399999 0.23999999
-3.437 -5.105 -0.52100003 0.37
-3.4219999 -5.1170001 -0.52100003 0.20999999
-3.3859999 -5.098 -0.51700002 0.31999999
-3.388 -5.118 -0.51899999 0.27000001
-3.365 -5.119 -0.51800001 0.27000001
-3.25 -4.9790001 -0.49599999 0
-3.2309999 -4.9840002 -0.49599999 0
-2.862 -4.4510002 -0.41999999 0
-2.829 -4.4299998 -0.41600001 0
-2.8050001 -4.4239998 -0.414 0
-2.7909999 -4.4159999 -0.412 0
-2.777 -4.4250002 -0.412 0.07
-2.757 -4.4239998 -0.41100001 0.18000001
-2.7460001 -4.4369998 -0.41100001 0.23999999
-2.73 -4.4429998 -0.41100001 0.25
-2.7130001 -4.4460001 -0.41 0.19
-2.707 -4.4679999 -0.412 0.17
-2.6930001 -4.461 -0.41 0.31999999
-2.6760001 -4.4640002 -0.41 0.2
-2.677 -4.4980001 -0.41299999 0
-2.648 -4.4809999 -0.41 0
-2.6370001 -4.494 -0.41 0
-2.632 -4.5180001 -0.412 0
-2.615 -4.5229998 -0.412 0
-2.612 -4.5500002 -0.41499999 0
-2.6110001 -4.5640001 -0.41600001 0
-2.6110001 -4.598 -0.419 0
-2.836 -5.026 -0.47600001 0.07
-2.8640001 -5.112 -0.486 0.23999999
-2.8410001 -5.1090002 -0.48500001 0.17
-2.825 -5.118 -0.48500001 0.23
-2.8099999 -5.1290002 -0.48500001 0.15000001
-2.786 -5.1030002 -0.48100001 0.38999999
-2.7709999 -5.1139998 -0.48100001 0.25
-2.7550001 -5.1230001 -0.48100001 0.23
-2.73 -5.1149998 -0.479 0.28999999
-2.7130001 -5.1220002 -0.479 0.31
-2.6960001 -5.1290002 -0.479 0.25999999
-2.671 -5.1199999 -0.47600001 0.27000001
-2.658 -5.1149998 -0.47499999 0
-2.638 -5.1170001 -0.47400001 0
-2.608 -5.0970001 -0.47099999 0
-2.6099999 -5.1399999 -0.47499999 0
-2.573 -5.1079998 -0.47 0
-2.5510001 -5.105 -0.46799999 0
-2.5450001 -5.1329999 -0.47099999 0
-2.5339999 -5.131 -0.47 0
-2.5009999 -5.1040001 -0.46599999 0
-2.4879999 -5.118 -0.46700001 0.12
-2.4630001 -5.1079998 -0.46399999 0.2
-2.4349999 -5.0910001 -0.461 0.25999999
-2.4289999 -5.1199999 -0.46399999 0.25999999
-2.401 -5.1030002 -0.461 0.20999999
-2.3929999 -5.1059999 -0.461 0.38999999
-2.368 -5.0939999 -0.458 0.23
-2.349 -5.0960002 -0.45699999 0
-2.3340001 -5.105 -0.458 0
-2.312 -5.098 -0.456 0
-2.289 -5.0910001 -0.454 0
-2.266 -5.0840001 -0.45199999 0
-2.2509999 -5.0710001 -0.44999999 0
-2.2390001 -5.0869999 -0.45100001 0
-2.2219999 -5.0900002 -0.45100001 0
-2.21 -5.1079998 -0.45199999 0
-2.184 -5.092 -0.449 0
-2.1700001 -5.1020002 -0.449 0
-2.148 -5.0960002 -0.44800001 0
-2.141 -5.1009998 -0.44800001 0
-2.1210001 -5.099 -0.447 0
-2.0999999 -5.0939999 -0.44499999 0
-2.0780001 -5.086 -0.44400001 0
-2.0599999 -5.0869999 -0.44299999 0
-2.039 -5.0809999 -0.44100001 0
-2.023 -5.0869999 -0.44100001 0
-2.01 -5.079 -0.44 0
-1.994 -5.0840001 -0.44 0
-1.98 -5.0960002 -0.44 0
-1.957 -5.0830002 -0.43799999 0
-1.941 -5.0910001 -0.43799999 0
-1.923 -5.092 -0.43799999 0
-1.9 -5.079 -0.435 0
-1.891 -5.0799999 -0.435 0
-1.869 -5.0689998 -0.433 0
-1.864 -5.1030002 -0.43599999 0
-1.839 -5.085 -0.433 0
-1.823 -5.0910001 -0.433 0
-1.803 -5.085 -0.43200001 0
-1.783 -5.0809999 -0.43099999 0
-1.776 -5.086 -0.43099999 0
-1.757 -5.0840001 -0.43000001 0
-1.74 -5.0840001 -0.42899999 0
-1.7180001 -5.0739999 -0.428 0
-1.7 -5.0739999 -0.42699999 0
-1.6799999 -5.066 -0.42500001 0
-1.664 -5.0700002 -0.42500001 0
-1.646 -5.0710001 -0.42500001 0
-1.638 -5.072 -0.42399999 0
-1.619 -5.0689998 -0.42300001 0
-1.602 -5.0710001 -0.42300001 0
-1.592 -5.0929999 -0.42500001 0
-1.5650001 -5.0630002 -0.421 0
-1.551 -5.0739999 -0.42199999 0
-1.533 -5.0710001 -0.421 0
-1.522 -5.066 -0.41999999 0
-1.502 -5.0580001 -0.41800001 0
-1.487 -5.0640001 -0.41800001 0
-1.469 -5.0630002 -0.41800001 0
-1.442 -5.0279999 -0.41299999 0
-1.408 -4.9689999 -0.405 0
-1.3890001 -4.9619999 -0.40400001 0
-1.378 -4.9530001 -0.40200001 0
-1.362 -4.9549999 -0.40200001 0
-1.346 -4.9590001 -0.40200001 0
-1.33 -4.9619999 -0.40200001 0
-1.313 -4.9619999 -0.40099999 0
-1.291 -4.941 -0.398 0
-1.278 -4.9549999 -0.39899999 0
-1.27 -4.9549999 -0.39899999 0
-1.2539999 -4.9590001 -0.39899999 0
-1.234 -4.9439998 -0.39700001 0.050000001
-1.219 -4.9510002 -0.39700001 0.14
-1.202 -4.9489999 -0.39700001 0.1
-1.191 -4.9699998 -0.39899999 0.14
-1.173 -4.9640002 -0.398 0.2
-1.164 -4.9619999 -0.39700001 0.11
-1.15 -4.9720001 -0.398 0.15000001
-1.131 -4.96 -0.396 0
-1.119 -4.9790001 -0.398 0
-1.096 -4.9520001 -0.39399999 0
-1.086 -4.9780002 -0.39700001 0
-1.067 -4.9679999 -0.39500001 0
-1.058 -4.9640002 -0.39500001 0
-1.041 -4.9590001 -0.39399999 0
-1.021 -4.9450002 -0.39199999 0
-1.0039999 -4.941 -0.391 0
-0.98699999 -4.934 -0.389 0
-0.972 -4.9429998 -0.38999999 0
-0.96200001 -4.973 -0.39300001 0
-0.95099998 -4.9590001 -0.39199999 0
-0.93099999 -4.9369998 -0.38800001 0
-0.917 -4.9489999 -0.38999999 0.13
-0.90200001 -4.9520001 -0.38999999 0.1
-0.88499999 -4.9489999 -0.389 0
-0.87300003 -4.9699998 -0.391 0
-0.85900003 -4.9840002 -0.39199999 0
-0.85699999 -5.0190001 -0.396 0.07
-0.84399998 -5.0349998 -0.398 0
-0.833 -5.0650001 -0.40099999 0
-0.81699997 -5.0700002 -0.40200001 0
-0.79900002 -5.0560002 -0.40000001 0
-0.78399998 -5.0689998 -0.40099999 0
-0.76499999 -5.0500002 -0.398 0
-0.75599998 -5.0469999 -0.398 0
-0.74199998 -5.059 -0.39899999 0.13
-0.72399998 -5.0479999 -0.39700001 0.1
-0.70700002 -5.0440001 -0.39700001 0
-0.69099998 -5.04 -0.396 0
-0.67400002 -5.0359998 -0.39500001 0.07
-0.66000003 -5.052 -0.39700001 0.2
-0.65200001 -5.0489998 -0.396 0.23999999
-0.634 -5.04 -0.39500001 0.11
-0.61900002 -5.0440001 -0.39500001 0.14
-0.60100001 -5.0339999 -0.39399999 0.12
-0.58499998 -5.0349998 -0.39399999 0.14
-0.57099998 -5.0489998 -0.39500001 0.18000001
-0.55500001 -5.0469999 -0.39500001 0.16
-0.546 -5.0419998 -0.39399999 0.17
-0.53100002 -5.0510001 -0.39500001 0.17
-0.514 -5.0409999 -0.39399999 0.16
-0.498 -5.039 -0.39300001 0.17
-0.48100001 -5.0349998 -0.39199999 0.090000004
-0.465 -5.0279999 -0.39199999 0.19
-0.44999999 -5.0430002 -0.39300001 0.23999999
-0.43399999 -5.0430002 -0.39300001 0.25999999
-0.426 -5.0409999 -0.39300001 0.25
-0.41100001 -5.0489998 -0.39300001 0.23999999
-0.39500001 -5.046 -0.39300001 0.25999999
-0.37900001 -5.0469999 -0.39300001 0.2
-0.36199999 -5.039 -0.39199999 0.17
-0.345 -5.0279999 -0.38999999 0.1
-0.33000001 -5.027 -0.38999999 0.15000001
-0.32300001 -5.0430002 -0.39199999 0.28999999
-0.30599999 -5.0359998 -0.391 0.19
-0.29100001 -5.0370002 -0.391 0.18000001
-0.27399999 -5.0279999 -0.38999999 0
-0.25799999 -5.0250001 -0.389 0
-0.242 -5.026 -0.389 0
-0.234 -5.02 -0.389 0
-0.219 -5.0450001 -0.39199999 0
-0.20299999 -5.0240002 -0.389 0
-0.18700001 -5.0219998 -0.389 0
-0.171 -5.0289998 -0.389 0
-0.155 -5.0209999 -0.38800001 0
-0.14 -5.0500002 -0.39199999 0
-0.124 -5.0279999 -0.389 0
-0.116 -5.026 -0.389 0.12
-0.1 -5.0149999 -0.38800001 0.090000004
-0.083999999 -5.013 -0.38699999 0.090000004
-0.068000004 -5.0209999 -0.38800001 0.090000004
-0.052999999 -5.0469999 -0.391 0.14
-0.037 -5.02 -0.38800001 0.090000004
-0.021 -5.0139999 -0.38699999 0.090000004
-0.013 -5.0219998 -0.38800001 0
0.003 -5.0139999 -0.38699999 0
0.017999999 -5.0040002 -0.38600001 0
0.034000002 -5.0450001 -0.391 0
0.050000001 -5.0409999 -0.391 0
0.066 -5.0170002 -0.38800001 0
0.081 -5.0009999 -0.38600001 0.07
0.089000002 -5.0190001 -0.38800001 0.090000004
0.105 -5.027 -0.389 0.14
0.121 -5.0019999 -0.38600001 0.1
0.13699999 -5.04 -0.391 0
0.152 -5.006 -0.38699999 0
0.168 -5.0029998 -0.38600001 0
0.184 -5.006 -0.38699999 0
0.192 -5.006 -0.38699999 0
0.207 -4.9959998 -0.38600001 0
0.223 -5.007 -0.38699999 0
0.23899999 -5 -0.38600001 0.07
0.255 -5.0089998 -0.38800001 0
0.27200001 -5.0440001 -0.39199999 0
0.28600001 -4.9959998 -0.38600001 0.059999999
0.29499999 -5.033 -0.391 0
0.31 -5.0040002 -0.38699999 0
0.32699999 -5.0250001 -0.38999999 0
0.34200001 -5.02 -0.389 0
0.35699999 -4.9970002 -0.38699999 0
0.37200001 -4.9959998 -0.38699999 0.07
0.38800001 -4.9970002 -0.38699999 0.079999998
0.39700001 -5.0040002 -0.38800001 0.079999998
0.412 -4.9990001 -0.38800001 0.090000004
0.42699999 -4.9959998 -0.38699999 0
0.44299999 -4.9920001 -0.38699999 0
0.45899999 -4.993 -0.38699999 0
0.477 -5.013 -0.38999999 0.13
0.491 -5 -0.38800001 0.090000004
0.498 -4.993 -0.38800001 0.090000004
0.51599997 -5.0110002 -0.38999999 0.14
0.52999997 -4.9959998 -0.38800001 0.090000004
0.54799998 -5.0120001 -0.391 0.16
0.56300002 -5.0040002 -0.38999999 0.16
0.579 -5.0040002 -0.38999999 0.16
0.59399998 -4.994 -0.389 0.090000004
0.60299999 -5.0009999 -0.38999999 0.090000004
0.61799997 -4.9980001 -0.38999999 0.090000004
0.63700002 -5.0229998 -0.39300001 0
0.65100002 -5.0029998 -0.391 0
0.66500002 -4.9899998 -0.38999999 0
0.68000001 -4.9819999 -0.389 0
0.69599998 -4.9850001 -0.38999999 0
0.70599997 -5 -0.39199999 0
0.72100002 -4.9920001 -0.391 0
0.736 -4.9879999 -0.391 0
0.75300002 -4.9910002 -0.391 0
0.76999998 -4.9970002 -0.39199999 0
0.78500003 -4.9920001 -0.39199999 0
0.80299997 -5.0050001 -0.39399999 0.11
0.81699997 -4.993 -0.39300001 0.23
0.82800001 -5.0089998 -0.39500001 0.18000001
0.84200001 -4.9970002 -0.39399999 0.16
0.85799998 -4.9920001 -0.39300001 0.1
0.87599999 -5.0050001 -0.39500001 0
0.89099997 -4.9990001 -0.39500001 0.13
0.90700001 -4.9980001 -0.39500001 0.22
0.91500002 -4.994 -0.39500001 0.11
0.93099999 -4.993 -0.39500001 0.090000004
0.94499999 -4.9850001 -0.39399999 0.079999998
0.96399999 -4.9990001 -0.396 0
0.98100001 -5.0019999 -0.39700001 0
0.99699998 -5.0029998 -0.398 0.11
1.011 -4.9899998 -0.396 0.20999999
1.013 -4.9590001 -0.39300001 0.27000001
1.03 -4.96 -0.39300001 0.20999999
1.0470001 -4.9640002 -0.39399999 0.18000001
1.061 -4.9549999 -0.39399999 0.47999999
1.077 -4.9520001 -0.39399999 0.25
1.099 -4.9790001 -0.39700001 0.12
1.115 -4.9759998 -0.39700001 0
1.123 -4.9759998 -0.398 0
1.146 -5.007 -0.40200001 0
1.156 -4.9770002 -0.398 0
1.171 -4.9710002 -0.398 0.12
1.189 -4.9790001 -0.40000001 0.16
1.205 -4.973 -0.39899999 0
1.22 -4.9689999 -0.39899999 0
1.24 -4.9829998 -0.40200001 0.13
1.2460001 -4.973 -0.40099999 0.23
1.261 -4.9660001 -0.40000001 0.27000001
1.278 -4.9689999 -0.40099999 0.11
1.294 -4.967 -0.40099999 0
1.308 -4.9569998 -0.40099999 0
1.3279999 -4.9699998 -0.403 0
1.344 -4.9640002 -0.40200001 0
1.351 -4.96 -0.40200001 0
1.3660001 -4.9559999 -0.40200001 0
1.383 -4.9559999 -0.403 0
1.403 -4.9660001 -0.405 0
1.4170001 -4.9580002 -0.40400001 0
1.4349999 -4.961 -0.405 0
1.4579999 -4.9819999 -0.40799999 0
1.464 -4.974 -0.40700001 0
1.4859999 -4.9920001 -0.41 0
1.502 -4.9889998 -0.41 0
1.51 -4.9580002 -0.40700001 0
1.528 -4.961 -0.40799999 0.079999998
1.549 -4.973 -0.41 0.079999998
1.563 -4.9640002 -0.41 0
1.572 -4.9650002 -0.41 0
1.589 -4.9640002 -0.41100001 0
1.605 -4.961 -0.41100001 0
1.6210001 -4.9580002 -0.41100001 0
1.636 -4.9489999 -0.41100001 0
1.653 -4.9499998 -0.41100001 0
1.6720001 -4.954 -0.412 0
1.6799999 -4.9530001 -0.41299999 0
1.702 -4.9650002 -0.41499999 0
1.719 -4.9650002 -0.41499999 0
1.735 -4.961 -0.41600001 0
1.749 -4.9499998 -0.41499999 0
1.7690001 -4.9580002 -0.417 0
1.785 -4.9520001 -0.417 0
1.796 -4.961 -0.41800001 0
1.811 -4.9530001 -0.41800001 0
1.83 -4.9549999 -0.419 0
1.844 -4.9450002 -0.41800001 0
1.862 -4.947 -0.419 0
1.876 -4.9380002 -0.419 0
1.892 -4.9320002 -0.419 0
1.906 -4.9450002 -0.421 0
1.923 -4.9429998 -0.421 0
1.9400001 -4.941 -0.42199999 0
1.961 -4.9489999 -0.42399999 0
1.975 -4.9390001 -0.42300001 0
1.9910001 -4.9349999 -0.42300001 0
2.0090001 -4.934 -0.42399999 0
2.033 -4.9720001 -0.42899999 0
2.0510001 -4.9710002 -0.43000001 0
2.056 -4.9390001 -0.42699999 0
2.0739999 -4.9380002 -0.42699999 0
2.102 -4.9619999 -0.43099999 0
2.118 -4.9559999 -0.43099999 0
2.1370001 -4.9580002 -0.43200001 0
2.1370001 -4.9359999 -0.43000001 0
2.1530001 -4.9299998 -0.43000001 0
2.184 -4.9590001 -0.435 0
2.2019999 -4.9580002 -0.435 0
2.22 -4.9559999 -0.43599999 0
2.227 -4.9289999 -0.43399999 0
2.2460001 -4.9320002 -0.435 0
2.2639999 -4.9499998 -0.43799999 0
2.2839999 -4.9530001 -0.43900001 0
2.299 -4.9439998 -0.43900001 0
2.3069999 -4.921 -0.43700001 0
2.3310001 -4.9320002 -0.43900001 0
2.3510001 -4.9349999 -0.44 0.15000001
2.3640001 -4.9219999 -0.44 0.16
2.369 -4.9109998 -0.43900001 0.37
2.3840001 -4.9039998 -0.43900001 0.16
2.395 -4.888 -0.43799999 0.38999999
2.4159999 -4.8909998 -0.43900001 0.23999999
2.4349999 -4.8899999 -0.44 0.28999999
2.4460001 -4.875 -0.43900001 0.25999999
2.4719999 -4.8889999 -0.442 0.16
2.4820001 -4.8889999 -0.442 0.16
2.5109999 -4.9070001 -0.44600001 0.16
2.5250001 -4.8979998 -0.44499999 0.28999999
2.5420001 -4.8930001 -0.44600001 0.2
2.5539999 -4.8779998 -0.44499999 0.41
2.569 -4.8699999 -0.44499999 0.25
2.576 -4.8460002 -0.44299999 0.2
2.586 -4.8460002 -0.44299999 0.38999999
2.632 -4.895 -0.45100001 0.22
2.654 -4.8990002 -0.45300001 0.2
2.671 -4.895 -0.45300001 0.28999999
2.694 -4.9000001 -0.45500001 0.18000001
2.7060001 -4.8860002 -0.454 0.31999999
2.72 -4.8740001 -0.454 0.25
2.7190001 -4.855 -0.45199999 0.25999999
2.7360001 -4.849 -0.45199999 0.27000001
2.747 -4.8340001 -0.45100001 0.23999999
2.76 -4.8200002 -0.45100001 0.25999999
2.7739999 -4.8099999 -0.44999999 0.2
2.7820001 -4.789 -0.449 0.2
2.799 -4.783 -0.449 0.38999999
2.7950001 -4.7600002 -0.447 0.25
2.8099999 -4.7509999 -0.447 0.27000001
2.819 -4.7319999 -0.44499999 0.20999999
2.822 -4.7030001 -0.442 0.41
2.809 -4.6479998 -0.43599999 0.22
2.826 -4.6430001 -0.43700001 0.27000001
2.839 -4.632 -0.43599999 0.22
2.8540001 -4.6389999 -0.43799999 0.30000001
2.994 -4.835 -0.46599999 0.23
3.0569999 -4.9039998 -0.477 0.23999999
3.0799999 -4.9060001 -0.47799999 0.23
3.0869999 -4.8829999 -0.477 0.30000001
3.1059999 -4.8800001 -0.47799999 0.25
3.122 -4.8699999 -0.47799999 0.20999999
3.1289999 -4.8649998 -0.47799999 0.23
3.1040001 -4.7919998 -0.46900001 0.51999998
3.155 -4.8369999 -0.47600001 0.22
3.1719999 -4.8299999 -0.477 0.28999999
3.2019999 -4.8429999 -0.47999999 0.25
3.2160001 -4.8319998 -0.47999999 0.25
3.266 -4.8730001 -0.48699999 0
3.303 -4.9120002 -0.493 0
3.329 -4.9190001 -0.49599999 0
3.348 -4.9130001 -0.49599999 0
3.359 -4.8959999 -0.495 0
3.392 -4.9120002 -0.49900001 0
3.414 -4.9089999 -0.5 0
3.4189999 -4.8839998 -0.498 0
3.4330001 -4.888 -0.5 0.07
3.461 -4.895 -0.50199997 0.079999998
3.4809999 -4.8909998 -0.50300002 0.090000004
3.503 -4.8889999 -0.505 0.090000004
3.5309999 -4.8959999 -0.50700003 0.14
3.5469999 -4.8850002 -0.50700003 0.1
3.5780001 -4.8959999 -0.50999999 0.16
3.585 -4.8889999 -0.50999999 0.1
3.6029999 -4.881 -0.51099998 0.090000004
3.6300001 -4.8860002 -0.51300001 0
3.654 -4.8870001 -0.51499999 0
3.6760001 -4.8839998 -0.51599997 0
3.7160001 -4.9050002 -0.52100003 0
3.7249999 -4.8860002 -0.51999998 0
3.7479999 -4.8990002 -0.52200001 0
3.7509999 -4.8709998 -0.51999998 0
3.7839999 -4.8829999 -0.52399999 0
3.7950001 -4.8649998 -0.523 0
3.826 -4.8730001 -0.52600002 0
3.8510001 -4.8740001 -0.528 0
3.868 -4.8629999 -0.528 0
3.9000001 -4.888 -0.53200001 0
3.9200001 -4.882 -0.53299999 0
3.937 -4.8709998 -0.53399998 0
3.9820001 -4.8959999 -0.53899997 0
3.9879999 -4.8730001 -0.53799999 0
4.0040002 -4.8600001 -0.53799999 0
4.0339999 -4.8660002 -0.54000002 0
4.0539999 -4.8600001 -0.54100001 0
4.072 -4.8649998 -0.54299998 0
4.0949998 -4.862 -0.54400003 0
4.1090002 -4.8470001 -0.54400003 0
4.138 -4.8509998 -0.54699999 0
4.1609998 -4.8470001 -0.54799998 0
4.1929998 -4.8540001 -0.551 0
4.2350001 -4.8709998 -0.55599999 0
4.2329998 -4.8530002 -0.55400002 0
4.2610002 -4.855 -0.55699998 0.07
4.2880001 -4.855 -0.55900002 0.079999998
4.3169999 -4.8559999 -0.56099999 0.14
4.3499999 -4.8639998 -0.56400001 0.090000004
4.3779998 -4.8629999 -0.56599998 0.14
4.388 -4.8439999 -0.565 0.090000004
4.4239998 -4.869 -0.57099998 0.14
4.4369998 -4.8520002 -0.56999999 0.090000004
4.4640002 -4.8520002 -0.57200003 0.090000004
4.4850001 -4.8429999 -0.57300001 0.079999998
4.5219998 -4.8530002 -0.57700002 0.14
4.5489998 -4.8509998 -0.579 0.1
4.5609999 -4.849 -0.57999998 0
4.6059999 -4.8660002 -0.58499998 0
4.6170001 -4.8470001 -0.58399999 0
4.6560001 -4.8569999 -0.588 0.12
4.6680002 -4.8400002 -0.588 0.1
4.704 -4.8460002 -0.59100002 0.14
4.7579999 -4.8720002 -0.59799999 0.18000001
4.7620001 -4.8449998 -0.59600002 0.31
4.7680001 -4.836 -0.59500003 0.11
4.8000002 -4.8379998 -0.59799999 0
4.8530002 -4.8610001 -0.60399997 0
4.8699999 -4.848 -0.60500002 0.059999999
4.914 -4.862 -0.61000001 0.12
4.9320002 -4.849 -0.61000001 0
4.9320002 -4.8179998 -0.60799998 0
4.9689999 -4.8400002 -0.61199999 0.07
5.0029998 -4.842 -0.61500001 0.14
5.027 -4.835 -0.61699998 0.23
5.0609999 -4.8369999 -0.62 0.25
5.0890002 -4.8330002 -0.62199998 0.25
5.1110001 -4.8239999 -0.62300003 0.1
5.1490002 -4.8299999 -0.62699997 0.16
5.171 -4.835 -0.62900001 0.23
5.197 -4.8280001 -0.63099998 0.11
5.2350001 -4.8340001 -0.634 0.14
5.2589998 -4.8249998 -0.63599998 0.1
5.296 -4.829 -0.639 0.14
5.3189998 -4.8189998 -0.64099997 0.18000001
5.3540001 -4.8210001 -0.64399999 0.16
5.3769999 -4.8260002 -0.64600003 0.090000004
5.414 -4.829 -0.64999998 0.16
5.4559999 -4.836 -0.65399998 0.18000001
5.4840002 -4.8299999 -0.65600002 0.22
5.507 -4.8200002 -0.65700001 0.20999999
5.5430002 -4.8210001 -0.66000003 0.20999999
5.5739999 -4.8330002 -0.66399997 0.23999999
5.5900002 -4.8150001 -0.66399997 0.31
5.579 -4.776 -0.66000003 0
5.586 -4.7519999 -0.65899998 0.13
5.585 -4.7199998 -0.65600002 0.1
5.6040001 -4.7059999 -0.65700001 0
5.6479998 -4.7129998 -0.66100001 0
5.6529999 -4.6869998 -0.66000003 0
5.6929998 -4.7049999 -0.66500002 0.07
5.7340002 -4.7090001 -0.66900003 0.14
5.7709999 -4.71 -0.67199999 0.16
5.7969999 -4.6999998 -0.67400002 0.16
5.836 -4.7020001 -0.67799997 0.16
5.8730001 -4.7010002 -0.68099999 0.18000001
5.9109998 -4.7010002 -0.68400002 0.18000001
5.9320002 -4.7030001 -0.68699998 0.28999999
5.9619999 -4.697 -0.68900001 0.27000001
5.9879999 -4.6869998 -0.69099998 0.1
6.0359998 -4.6939998 -0.69499999 0.15000001
6.0609999 -4.6830001 -0.69700003 0.1
6.099 -4.6820002 -0.70099998 0
6.198 -4.7270002 -0.713 0
6.2979999 -4.789 -0.727 0.13
6.3460002 -4.7940001 -0.73100001 0.17
6.3759999 -4.7849998 -0.73400003 0.16
6.4130001 -4.7820001 -0.73699999 0.16
6.4569998 -4.783 -0.741 0.17
6.507 -4.789 -0.74599999 0.16
6.5419998 -4.783 -0.74900001 0.31999999
6.5879998 -4.8010001 -0.755 0.20999999
6.6360002 -4.8039999 -0.759 0.25
6.664 -4.7930002 -0.76099998 0.18000001
6.691 -4.7810001 -0.76300001 0.46000001
6.7319999 -4.7779999 -0.76700002 0.27000001
6.7649999 -4.77 -0.76899999 0
6.8210001 -4.777 -0.77499998 0.14
6.848 -4.7800002 -0.778 0.30000001
6.8920002 -4.7789998 -0.78200001 0.18000001
6.928 -4.7719998 -0.78500003 0.19
6.974 -4.7719998 -0.79000002 0.20999999
7.0349998 -4.7810001 -0.796 0.18000001
7.0500002 -4.7589998 -0.796 0.31999999
7.0949998 -4.757 -0.80000001 0.23
7.1350002 -4.7680001 -0.80500001 0.28999999
7.1830001 -4.7680001 -0.81 0.18000001
7.2259998 -4.7639999 -0.81300002 0.36000001
7.2659998 -4.757 -0.81699997 0.22
7.3189998 -4.7589998 -0.82200003 0.2
7.362 -4.7550001 -0.82599998 0.37
7.4159999 -4.756 -0.83200002 0.23
7.4510002 -4.763 -0.83600003 0.25999999
7.5110002 -4.7690001 -0.84200001 0.27000001
7.5430002 -4.756 -0.84399998 0.31999999
7.592 -4.7529998 -0.84899998 0.27000001
7.6399999 -4.75 -0.85299999 0.36000001
7.684 -4.744 -0.85699999 0.27000001
7.7360001 -4.743 -0.86299998 0.23999999
7.7740002 -4.7490001 -0.86699998 0.54000002
7.8140001 -4.7399998 -0.87 0.31999999
7.8579998 -4.7329998 -0.87400001 0.31
7.9099998 -4.7309999 -0.87900001 0.31
7.974 -4.7360001 -0.88599998 0.31
8.0319996 -4.7360001 -0.89200002 0.31
8.1000004 -4.7420001 -0.89899999 0.31
8.1190004 -4.7360001 -0.90100002 0.31999999
8.1960001 -4.7470002 -0.90899998 0.34999999
8.2539997 -4.7459998 -0.91500002 0.25999999
8.2939997 -4.7350001 -0.91799998 0.28999999
8.3400002 -4.7270002 -0.92299998 0.30000001
8.3909998 -4.7210002 -0.92699999 0.25999999
8.4499998 -4.7189999 -0.93300003 0.34
8.4919996 -4.7249999 -0.93800002 0.28
8.5480003 -4.7210002 -0.94300002 0.23999999
8.5229998 -4.6719999 -0.93800002 0.55000001
8.6700001 -4.7179999 -0.95599997 0.22
8.7299995 -4.7160001 -0.96200001 0.28999999
8.7709999 -4.7020001 -0.96499997 0.30000001
8.8330002 -4.6999998 -0.972 0.25
8.8760004 -4.7049999 -0.97600001 0.20999999
8.9320002 -4.6989999 -0.98199999 0.34999999
8.9840002 -4.691 -0.98699999 0.27000001
9.0480003 -4.6880002 -0.99299997 0.30000001
9.1160002 -4.6869998 -1 0.34999999
9.1709995 -4.6789999 -1.006 0.25
9.2639999 -4.6900001 -1.016 0.38
9.3240004 -4.684 -1.022 0.31999999
9.3780003 -4.6929998 -1.028 0.27000001
9.4399996 -4.6869998 -1.034 0.31
9.4940004 -4.677 -1.039 0.31999999
9.566 -4.6750002 -1.0470001 0.28999999
9.6309996 -4.6690001 -1.053 0.27000001
9.7019997 -4.6669998 -1.061 0.30000001
9.7799997 -4.6849999 -1.0700001 0.36000001
9.8430004 -4.678 -1.076 0.31999999
9.8999996 -4.6669998 -1.082 0.30000001
9.9799995 -4.6669998 -1.09 0.36000001
10.054 -4.6630001 -1.098 0.27000001
10.115 -4.6529999 -1.104 0.23999999
10.195 -4.651 -1.112 0.38999999
10.247 -4.6560001 -1.118 0.36000001
10.312 -4.6459999 -1.124 0.30000001
10.383 -4.6389999 -1.132 0.28999999
10.458 -4.6329999 -1.1390001 0.28999999
10.559 -4.6389999 -1.15 0.40000001
10.63 -4.6300001 -1.158 0.28999999
10.707 -4.6240001 -1.166 0.34
10.779 -4.6350002 -1.174 0.38999999
10.867 -4.6329999 -1.183 0.28
10.935 -4.6209998 -1.1900001 0.25999999
11.028 -4.6199999 -1.2 0.37
11.114 -4.6149998 -1.209 0.34999999
11.194 -4.6079998 -1.217 0.27000001
11.264 -4.5949998 -1.224 0.34
11.335 -4.6040001 -1.232 0.28
11.433 -4.6020002 -1.243 0.23999999
11.521 -4.5949998 -1.252 0.44999999
11.622 -4.5939999 -1.263 0.30000001
11.708 -4.585 -1.272 0.25
11.821 -4.5869999 -1.285 0.34
11.918 -4.5819998 -1.295 0.38999999
12.005 -4.5939999 -1.3049999 0.34999999
12.092 -4.5840001 -1.314 0.30000001
12.183 -4.5749998 -1.324 0.40000001
12.258 -4.559 -1.331 0.25
12.375 -4.559 -1.344 0.33000001
12.475 -4.5510001 -1.355 0.36000001
12.5 -4.5159998 -1.3559999 0.34
12.508 -4.4970002 -1.3559999 0.38999999
12.537 -4.4629998 -1.358 0.34999999
12.622 -4.448 -1.367 0.15000001
12.716 -4.4369998 -1.377 0.44999999
12.805 -4.4229999 -1.386 0.25
12.935 -4.4229999 -1.401 0.33000001
13.323 -4.5100002 -1.447 0.2
13.458 -4.5079999 -1.462 0.37
13.554 -4.5170002 -1.473 0.34999999
13.677 -4.5110002 -1.4859999 0.2
13.801 -4.5040002 -1.5 0.30000001
13.93 -4.4980001 -1.5140001 0.36000001
14.056 -4.4899998 -1.528 0.38
14.162 -4.4749999 -1.539 0.25
14.29 -4.4660001 -1.553 0.28
14.381 -4.4699998 -1.563 0.23999999
14.393 -4.4239998 -1.563 0.44
14.496 -4.4060001 -1.574 0.37
14.494 -4.3559999 -1.572 0.23999999
14.485 -4.3039999 -1.569 0.41999999
14.506 -4.2600002 -1.5700001 0.40000001
14.508 -4.2119999 -1.569 0.20999999
14.467 -4.1750002 -1.563 0.46000001
14.52 -4.1409998 -1.568 0.34
14.541 -4.0970001 -1.569 0.47
14.53 -4.0450001 -1.566 0.25
14.53 -3.9960001 -1.564 0.33000001
14.538 -3.9489999 -1.564 0.37
14.543 -3.901 -1.563 0.31999999
14.564 -3.8829999 -1.5650001 0.34999999
14.554 -3.8310001 -1.562 0.25999999
14.546 -3.78 -1.5599999 0.37
14.573 -3.7379999 -1.561 0.34
14.576 -3.6900001 -1.5599999 0.38999999
14.585 -3.6440001 -1.5599999 0.28999999
14.577 -3.5929999 -1.558 0.28
14.556 -3.5639999 -1.554 0.28
14.555 -3.5150001 -1.553 0.28999999
14.534 -3.461 -1.549 0.30000001
14.531 -3.4130001 -1.548 0.28999999
14.516 -3.3610001 -1.544 0.28999999
14.511 -3.312 -1.543 0.28
14.496 -3.26 -1.54 0.28
14.496 -3.2360001 -1.539 0.28
14.506 -3.191 -1.539 0.28
14.52 -3.1459999 -1.539 0.28
14.528 -3.0999999 -1.539 0.28
14.557 -3.059 -1.541 0.27000001
14.556 -3.0109999 -1.54 0.22
14.545 -2.937 -1.5369999 0.56999999
14.543 -2.8889999 -1.536 0.69999999
14.538 -2.8410001 -1.534 0.56999999
14.549 -2.7950001 -1.534 0.28999999
14.558 -2.7490001 -1.534 0.31
14.558 -2.7019999 -1.534 0.28999999
14.58 -2.6589999 -1.535 0.28999999
14.577 -2.635 -1.534 0.28999999
14.569 -2.586 -1.5319999 0.28999999
14.581 -2.5409999 -1.533 0.28999999
14.593 -2.4960001 -1.533 0.28999999
14.638 -2.4560001 -1.538 0.28999999
14.638 -2.4089999 -1.5369999 0.27000001
14.637 -2.362 -1.536 0.28
14.612 -2.3340001 -1.5319999 0.27000001
14.615 -2.2869999 -1.5319999 0.28
14.618 -2.2409999 -1.531 0.28
14.613 -2.1930001 -1.53 0.28
14.614 -2.1459999 -1.529 0.28999999
14.641 -2.1029999 -1.5319999 0.30000001
14.643 -2.0569999 -1.531 0.31
14.631 -2.0320001 -1.529 0.27000001
14.606 -1.9809999 -1.526 0.28999999
14.596 -1.933 -1.524 0.31999999
14.584 -1.885 -1.522 0.30000001
14.592 -1.839 -1.522 0.30000001
14.6 -1.794 -1.522 0.30000001
14.603 -1.748 -1.522 0.28999999
14.586 -1.722 -1.52 0.30000001
14.564 -1.673 -1.516 0.30000001
14.552 -1.626 -1.5140001 0.28
14.527 -1.577 -1.511 0.30000001
14.512 -1.529 -1.508 0.28
14.386 -1.47 -1.493 0.30000001
14.399 -1.425 -1.494 0.28
14.449 -1.4069999 -1.5 0.31
14.465 -1.363 -1.501 0.36000001
14.493 -1.3200001 -1.5039999 0.38
14.75 -1.2970001 -1.534 0.19
15.019 -1.274 -1.5650001 0.23999999
15.049 -1.229 -1.568 0.55000001
15.191 -1.192 -1.584 0.33000001
15.215 -1.17 -1.587 0.28999999
15.218 -1.122 -1.587 0.25999999
15.236 -1.076 -1.5880001 0.28999999
15.247 -1.028 -1.589 0.28999999
15.252 -0.98100001 -1.589 0.28999999
15.243 -0.93199998 -1.5880001 0.28999999
15.256 -0.88499999 -1.589 0.31999999
15.244 -0.86000001 -1.587 0.31
15.246 -0.81199998 -1.587 0.28
15.229 -0.76300001 -1.585 0.28999999
15.223 -0.71499997 -1.584 0.27000001
15.213 -0.66600001 -1.5829999 0.2
15.212 -0.61799997 -1.582 0.41999999
15.199 -0.56999999 -1.581 0.23999999
15.202 -0.546 -1.581 0.2
15.198 -0.498 -1.58 0.38
15.178 -0.44999999 -1.5779999 0.22
15.153 -0.40200001 -1.575 0.17
15.164 -0.354 -1.576 0.38999999
15.132 -0.30599999 -1.572 0.23
15.144 -0.25799999 -1.573 0.18000001
15.137 -0.235 -1.572 0.38999999
15.116 -0.18700001 -1.5700001 0.25
15.096 -0.139 -1.567 0.19
15.101 -0.092 -1.568 0.41
15.089 -0.044 -1.567 0.23
14.479 0.044 -1.5779999 0.28
14.457 0.066 -1.576 0.28999999
14.45 0.112 -1.575 0.30000001
14.438 0.15700001 -1.573 0.28999999
14.436 0.20200001 -1.573 0.31
14.429 0.24699999 -1.572 0.30000001
14.416 0.292 -1.571 0.31
14.405 0.33700001 -1.5700001 0.31999999
14.417 0.36000001 -1.571 0.25999999
14.401 0.405 -1.5700001 0.30000001
14.41 0.45100001 -1.571 0.30000001
14.409 0.49599999 -1.571 0.28999999
14.411 0.542 -1.571 0.30000001
14.409 0.58700001 -1.571 0.28999999
14.413 0.63200003 -1.572 0.30000001
14.41 0.65499997 -1.572 0.28999999
14.426 0.70099998 -1.574 0.30000001
14.439 0.74699998 -1.576 0.28999999
14.443 0.79299998 -1.577 0.28999999
14.429 0.838 -1.575 0.2
14.454 0.88499999 -1.579 0.46000001
14.429 0.92900002 -1.576 0.25
14.428 0.97399998 -1.576 0.2
14.448 0.99800003 -1.579 0.38999999
14.435 1.043 -1.5779999 0.23999999
14.424 1.0880001 -1.577 0.19
14.436 1.1339999 -1.579 0.41999999
14.409 1.178 -1.576 0.23
14.411 1.223 -1.576 0.2
14.421 1.27 -1.5779999 0.41
14.403 1.291 -1.576 0.23999999
14.399 1.336 -1.576 0.25999999
14.395 1.382 -1.576 0.2
14.4 1.428 -1.577 0.28999999
14.382 1.472 -1.576 0.20999999
14.369 1.516 -1.575 0.28999999
14.37 1.562 -1.575 0.27000001
14.354 1.5829999 -1.574 0.28999999
14.349 1.628 -1.574 0.31
14.328 1.671 -1.572 0.28
14.321 1.716 -1.571 0.28999999
