# .PCD v0.7 - Point Cloud Data file format
VERSION 0.7
FIELDS x y z intensity
SIZE 4 4 4 4
TYPE F F F F
COUNT 1 1 1 1
WIDTH 1498
HEIGHT 1
VIEWPOINT 0 0 0 1 0 0 0
POINTS 1498
DATA ascii
-17.603001 29.937 -0.70099998 0.27000001
-17.962999 30.327999 -0.71399999 0.25
-18.283001 30.649 -0.72600001 0.15000001
-18.289 30.441 -0.72100002 0.15000001
-18.298 30.240999 -0.71700001 0
-18.155001 29.792999 -0.70499998 0.11
-18.35 30.007 -0.71200001 0.30000001
-18.43 29.927 -0.71200001 0.27000001
-18.347 29.583 -0.70300001 0.11
-18.451 29.542 -0.704 0.14
-18.827 29.934 -0.71700001 0.2
-18.862 29.782 -0.71499997 0.2
-18.694 29.313 -0.70200002 0
-15.002 23.452999 -0.52100003 0
-14.978 23.254999 -0.51700002 0
-14.982 23.1 -0.51300001 0
-14.993 22.959 -0.50999999 0
-15 22.813999 -0.50700003 0
-15.135 22.174999 -0.495 0.23
-15.18 22.093 -0.49399999 0.25
-15.262 22.063 -0.495 0
-15.355 22.049 -0.49599999 0
-16.382999 22.160999 -0.514 0
-17.889 21.952999 -0.53399998 0
-18.047001 22.004999 -0.537 0.079999998
-24.349001 29.485001 -0.792 0.19
-24.676001 29.785 -0.80400002 0.25999999
-24.778 29.716999 -0.80400002 0.13
-25.007 29.801001 -0.81 0.43000001
-24.875999 29.457001 -0.801 0.18000001
-25.115 29.551001 -0.80699998 0.37
-25.23 29.497 -0.80699998 0.18000001
-25.216 29.295 -0.80299997 0.25999999
-25.524 29.558001 -0.81400001 0.14
-25.702 29.576 -0.81699997 0.14
-25.701 29.388 -0.81300002 0.16
-25.690001 29.190001 -0.80900002 0.20999999
-25.896999 29.24 -0.81400001 0.15000001
-26.448 29.673 -0.83200002 0.13
-26.457001 29.496 -0.829 0.15000001
-26.502001 29.452999 -0.829 0.20999999
-26.545 29.313999 -0.82700002 0.2
-26.684999 29.284 -0.82800001 0.20999999
-26.903 29.337 -0.833 0.37
-27.014999 29.274 -0.83399999 0.18000001
-27.26 29.353001 -0.83999997 0.36000001
-27.368 29.285 -0.84100002 0.19
-27.625999 29.468 -0.84899998 0.33000001
-27.694 29.355 -0.84799999 0.2
-27.905001 29.392 -0.852 0.23999999
-28.031 29.341 -0.85299999 0.2
-28.184 29.316 -0.85600001 0.28999999
-28.496 29.454 -0.86400002 0.18000001
-28.636 29.413 -0.866 0
-28.721001 29.408001 -0.86699998 0
-28.846001 29.35 -0.86799997 0
-28.931999 29.254 -0.86799997 0.050000001
-31.594999 31.743 -0.963 0
-31.608999 31.558001 -0.95999998 0.1
-31.594999 31.347 -0.95599997 0.1
-31.611 31.166 -0.95300001 0.2
-31.611 31.069 -0.95099998 0.11
-31.802999 31.062 -0.95499998 0
-31.971001 31.030001 -0.95700002 0
-31.783001 30.655001 -0.94700003 0
-31.813999 30.492001 -0.94400001 0
-24.507 23.349001 -0.67799997 0
-24.447001 22.785999 -0.667 0
-24.601999 22.289 -0.66100001 0
-24.653999 22.195 -0.66000003 0
-35.487999 28.843 -0.98799998 0
-35.598 28.747999 -0.98900002 0.059999999
-36.792 29.52 -1.025 0
-36.912998 29.521999 -1.028 0.07
-40.084 31.85 -1.13 0.090000004
-40.398998 31.893 -1.138 0.079999998
-40.700001 31.924 -1.1440001 0.090000004
-40.916 31.886 -1.148 0.11
-30.504999 23.628 -0.80199999 0.2
-30.521 23.487 -0.80000001 0.36000001
-30.492001 23.389 -0.79699999 0.31999999
-30.502001 23.243999 -0.79500002 0.41
-30.495001 23.087999 -0.79299998 0.25999999
-30.51 22.948999 -0.79100001 0.36000001
-30.504 22.794001 -0.78799999 0.30000001
-30.509001 22.65 -0.78600001 0.27000001
-30.482 22.481001 -0.78299999 0.52999997
-30.516001 22.431999 -0.78299999 0.17
-30.683001 22.407 -0.78600001 0.31999999
-30.875999 22.4 -0.79000002 0.28
-31.080999 22.399 -0.79400003 0.31
-31.275 22.389999 -0.79799998 0.31999999
-31.469 22.379999 -0.80199999 0.31
-31.673 22.375 -0.80699998 0.30000001
-31.829 22.410999 -0.81 0.30000001
-32.040001 22.409 -0.815 0.31999999
-32.258999 22.410999 -0.81999999 0.28999999
-32.456001 22.396999 -0.824 0.28999999
-32.660999 22.386999 -0.82800001 0.28999999
-32.754002 22.299999 -0.829 0
-33.035999 22.34 -0.83499998 0
-44.213001 29.787001 -1.186 0
-44.521999 29.792 -1.192 0
-44.743999 29.737 -1.196 0
-45.062 29.745001 -1.2029999 0
-45.393002 29.759001 -1.211 0
-45.823002 29.834999 -1.221 0
-46.203999 29.877001 -1.23 0
-46.419998 29.913 -1.235 0
-46.617001 29.833 -1.239 0
-46.875999 29.791 -1.244 0
-47.157001 29.761999 -1.249 0.12
-47.604 29.836 -1.26 0.090000004
-47.847 29.778999 -1.265 0
-48.397999 29.910999 -1.279 0
-48.629002 29.948 -1.285 0
-48.773998 29.826 -1.286 0
-49.109001 29.819 -1.294 0
-49.405998 29.788 -1.3 0
-49.773998 29.796 -1.308 0
-50.123001 29.792 -1.316 0
-50.542 29.826 -1.326 0
-50.873001 29.914 -1.334 0
-51.292999 29.944 -1.344 0
-51.620998 29.917999 -1.351 0
-52.067001 29.958 -1.362 0
-52.435001 29.951 -1.37 0
-52.824001 29.954 -1.3789999 0
-53.23 29.962999 -1.388 0
-53.581001 30.049 -1.397 0
-53.937 30.027 -1.405 0
-59.801998 33.042999 -1.577 0
-59.909 32.856998 -1.577 0
-59.973 32.646999 -1.576 0
-60.120998 32.484001 -1.577 0.16
-19.743 10.567 -0.37900001 0.31
-19.702 10.466 -0.377 0.37
-19.701 10.386 -0.37599999 0.36000001
-19.700001 10.307 -0.375 0.38
-19.726999 10.242 -0.375 0.38999999
-19.775 10.188 -0.375 0.38
-19.825001 10.135 -0.37599999 0.44999999
-20.131001 10.251 -0.384 0.19
-20.083 10.148 -0.382 0
-61.771999 30.909 -1.597 0
-61.896999 30.729 -1.597 0
-62.049 30.562 -1.599 0
-62.269001 30.427 -1.603 0
-62.483002 30.289 -1.6059999 0
-62.797001 30.319 -1.614 0
-63.047001 30.195999 -1.618 0
-63.370998 30.107 -1.625 0
-63.800999 30.066 -1.635 0
-64.203003 30.009001 -1.643 0
-64.691002 29.99 -1.655 0
-65.148003 29.952999 -1.665 0
-65.445999 29.965 -1.6720001 0
-65.291 26.966999 -1.637 0
-65.572998 26.841999 -1.643 0
-65.342003 26.509001 -1.6339999 0
-65.260002 26.237 -1.63 0
-65.241997 25.992001 -1.627 0
-65.414001 25.823 -1.6289999 0
-65.484001 25.613001 -1.6289999 0
-65.670998 25.566999 -1.633 0
-65.810997 25.382999 -1.635 0
-65.857002 25.164 -1.6339999 0
-65.961998 24.966999 -1.635 0
-66.205002 24.820999 -1.6390001 0
-66.349998 24.638 -1.641 0
-66.387001 24.415001 -1.64 0
-66.671997 24.4 -1.647 0
-66.907997 24.249001 -1.651 0
-67.280998 24.145 -1.659 0
-67.644997 24.035999 -1.6670001 0
-72.975998 25.413 -1.8099999 0
-65.203003 14.721 -1.538 0
-43.183998 9.474 -0.94800001 0.2
-43.168999 9.3290005 -0.94700003 0
-43.237999 9.2729998 -0.94800001 0
-64.894997 13.478 -1.524 0
-65.235001 13.335 -1.5319999 0
-65.393997 13.154 -1.535 0
-57.891998 11.27 -1.3329999 0.059999999
-57.863998 11.17 -1.332 0
-57.858002 10.98 -1.331 0
-58.098 10.837 -1.337 0
-58.242001 10.675 -1.339 0
-67.800003 12.202 -1.592 0
-68.242996 12.06 -1.603 0
-68.975998 11.966 -1.6210001 0
-69.249001 11.901 -1.628 0
-69.268997 11.681 -1.627 0
-69.439003 11.485 -1.631 0
-69.578003 11.284 -1.633 0
-69.846001 11.102 -1.64 0
-70.022003 10.905 -1.643 0
-30.243 4.191 -0.59100002 0
-30.209 4.0890002 -0.58999997 0
-30.355 3.48 -0.59200001 0
-30.364 3.3840001 -0.59200001 0
-63.859001 5.4679999 -1.467 0.2
-63.810001 5.2620001 -1.465 0.18000001
-63.799999 5.059 -1.464 0.20999999
-63.804001 4.8579998 -1.464 0.18000001
-63.814999 4.6570001 -1.464 0.23
-63.811001 4.4549999 -1.4630001 0.20999999
-63.838001 4.3559999 -1.464 0.30000001
-63.883999 4.158 -1.465 0.2
-63.93 3.9590001 -1.466 0
-53.131001 2.04 -1.182 0.23
-53.143002 1.873 -1.182 0.16
-53.389 1.714 -1.188 0
-53.049 1.4529999 -1.179 0
-53.089001 1.2869999 -1.1799999 0
-53.132999 1.1210001 -1.181 0
-53.085999 0.95300001 -1.1799999 0
-53.173 0.78799999 -1.182 0
-53.112999 0.62 -1.1799999 0
-53.16 0.20299999 -1.182 0.27000001
-53.181999 0.035999998 -1.182 0
-53.181999 -0.131 -1.182 0
-73.919998 -1.9349999 -1.724 0
-73.882004 -2.1659999 -1.723 0
-74.363998 -2.5309999 -1.7359999 0
-73.264999 -2.724 -1.707 0
-73.110001 -2.948 -1.7029999 0
-54.695 -2.3710001 -1.223 0
-52.839001 -2.4560001 -1.175 0
-51.189999 -2.54 -1.132 0
-49.547001 -2.6129999 -1.089 0
-48.134998 -2.6140001 -1.052 0
-46.736 -2.6849999 -1.016 0
-45.363998 -2.7479999 -0.98000002 0
-44.200001 -2.816 -0.94999999 0
-43.037998 -2.8770001 -0.92000002 0.050000001
-42.160999 -2.951 -0.89700001 0
-36.991001 -2.7609999 -0.76300001 0.28999999
-36.873001 -2.869 -0.75999999 0.11
-36.820999 -2.9809999 -0.759 0.16
-36.674 -3.085 -0.755 0.31
-36.618999 -3.197 -0.75400001 0.11
-36.618999 -3.312 -0.75400001 0
-36.638 -3.4300001 -0.755 0
-36.754002 -3.5 -0.75800002 0.11
-37.914001 -3.7909999 -0.78899997 0
-36.990002 -3.816 -0.76499999 0
-36.067001 -3.777 -0.741 0
-35.212002 -3.799 -0.71899998 0
-34.372002 -3.8169999 -0.69700003 0
-33.513 -3.8269999 -0.67500001 0
-32.723 -3.8410001 -0.65399998 0
-31.913 -3.8469999 -0.634 0
-31.273001 -3.869 -0.61699998 0
-30.65 -3.8399999 -0.60100001 0
-30.011999 -3.855 -0.58399999 0
-29.455999 -3.878 -0.56999999 0.13
-28.913 -3.898 -0.55599999 0.23
-21.673 -3.0539999 -0.366 0
-27.216999 -3.9289999 -0.51200002 0.07
-26.768 -3.9070001 -0.50099999 0.14
-26.351999 -3.931 -0.49000001 0.17
-25.780001 -3.928 -0.47499999 0.090000004
-25.333 -3.9400001 -0.46399999 0.14
-24.858999 -3.9460001 -0.45199999 0.22
-24.444 -3.9590001 -0.44100001 0.23999999
-24.023001 -3.9679999 -0.43000001 0.2
-23.693001 -3.951 -0.42199999 0.17
-23.247 -3.951 -0.41 0.16
-22.870001 -3.961 -0.40099999 0.17
-22.521 -3.973 -0.39199999 0.16
-22.166 -3.9820001 -0.38299999 0.17
-21.823 -3.99 -0.37400001 0.18000001
-21.507999 -4.0019999 -0.366 0.18000001
-21.323 -4.0019999 -0.361 0.34
-20.908001 -3.9920001 -0.34999999 0.25
-15.958 -3.0929999 -0.219 0.23
-16.559999 -3.2639999 -0.235 0.18000001
-14.163 -2.8340001 -0.17200001 0.27000001
-14.162 -2.8800001 -0.17200001 0.20999999
-14.073 -2.885 -0.17 0.56999999
-13.23 -2.7539999 -0.148 0.23999999
-13.104 -2.7709999 -0.145 0.41
-13.029 -2.7969999 -0.14300001 0.47999999
-12.899 -2.812 -0.14 0.23
-12.857 -2.845 -0.139 0.54000002
-12.916 -2.901 -0.14 0.28999999
-12.204 -2.779 -0.122 0.30000001
-12.079 -2.7709999 -0.118 0.44
-11.914 -2.7720001 -0.114 0.28999999
-11.487 -2.71 -0.103 0.16
-9.9119997 -2.3670001 -0.061000001 0.51999998
-11.27 -2.733 -0.097999997 0.33000001
-11.139 -2.7379999 -0.093999997 0.36000001
-11.002 -2.7409999 -0.090999998 0.34
-10.733 -2.691 -0.083999999 0.43000001
-10.681 -2.714 -0.082999997 0.34
-10.479 -2.697 -0.077 0.5
-10.593 -2.7620001 -0.081 0.31
-10.545 -2.7850001 -0.079999998 0.31999999
-10.015 -2.677 -0.066 0.31
-9.9280005 -2.687 -0.063000001 0.41
-9.9329996 -2.7049999 -0.064000003 0.30000001
-9.809 -2.704 -0.061000001 0.47999999
-9.8850002 -2.7590001 -0.063000001 0.38999999
-9.6820002 -2.7349999 -0.057999998 0.25
-9.4870005 -2.711 -0.052999999 0.37
-9.2749996 -2.6819999 -0.046999998 0.41
-9.4250002 -2.7409999 -0.050999999 0.23999999
-8.927 -2.6259999 -0.037999999 0.38999999
-8.7930002 -2.6159999 -0.034000002 0.28
-8.6389999 -2.599 -0.030999999 0.33000001
-8.5939999 -2.615 -0.029999999 0.31999999
-8.5559998 -2.6329999 -0.028999999 0.25
-8.5780001 -2.6689999 -0.029999999 0.50999999
-8.5810003 -2.6849999 -0.029999999 0.25999999
-8.5100002 -2.6919999 -0.028000001 0.36000001
-8.6969995 -2.7820001 -0.033 0.28999999
-8.4829998 -2.7420001 -0.028000001 0.37
-8.3299999 -2.721 -0.024 0.34
-8.2139997 -2.711 -0.021 0.25999999
-8.0459995 -2.6830001 -0.016000001 0.36000001
-7.96 -2.668 -0.014 0.36000001
-8.5039997 -2.882 -0.028999999 0.23
-8.21 -2.8099999 -0.022 0.38999999
-7.8860002 -2.7260001 -0.013 0.28
-7.777 -2.7160001 -0.0099999998 0.46000001
-7.678 -2.7079999 -0.0080000004 0.27000001
-7.651 -2.7249999 -0.0070000002 0.18000001
-7.4640002 -2.671 -0.0020000001 0.31
-7.4070001 -2.677 -0.001 0.38
-7.3400002 -2.6789999 0.001 0.25
-7.2810001 -2.6830001 0.0020000001 0.30000001
-7.2750001 -2.707 0.0020000001 0.28999999
-7.0939999 -2.664 0.0070000002 0.28999999
-7.237 -2.744 0.003 0.23
-6.9899998 -2.6619999 0.0099999998 0.20999999
-6.9650002 -2.678 0.0099999998 0.31999999
-7.118 -2.763 0.0060000001 0.20999999
-6.7010002 -2.6240001 0.017000001 0.28
-6.7150002 -2.654 0.016000001 0.23
-6.8270001 -2.723 0.013 0.31999999
-6.6440001 -2.674 0.017999999 0.18000001
-6.6199999 -2.6760001 0.018999999 0.31999999
-6.441 -2.6270001 0.023 0.14
-6.368 -2.6199999 0.025 0
-6.5219998 -2.7079999 0.021 0.13
-7.125 -2.987 0.003 0.12
-6.6960001 -2.8310001 0.015 0.079999998
-6.4710002 -2.7579999 0.021 0.15000001
-6.1950002 -2.651 0.028999999 0.28999999
-6.1609998 -2.6589999 0.029999999 0.20999999
-6.1469998 -2.6760001 0.029999999 0.23
-6.1570001 -2.704 0.028999999 0.20999999
-6.1300001 -2.7149999 0.029999999 0.30000001
-6.1009998 -2.7249999 0.030999999 0.19
-6.02 -2.711 0.033 0.12
-5.8959999 -2.6659999 0.035999998 0.14
-5.8260002 -2.6559999 0.037999999 0.11
-5.8280001 -2.6789999 0.037 0.16
-5.7540002 -2.6670001 0.039000001 0.12
-5.829 -2.724 0.037 0
-5.6269999 -2.6500001 0.043000001 0
-5.783 -2.747 0.037999999 0
-5.7550001 -2.7449999 0.037999999 0
-5.8200002 -2.799 0.035999998 0.12
-5.6729999 -2.7490001 0.039999999 0.1
-5.8779998 -2.872 0.034000002 0.14
-5.79 -2.8510001 0.035999998 0
-5.9419999 -2.95 0.032000002 0
-6.204 -3.1059999 0.024 0
-5.474 -2.7479999 0.045000002 0.059999999
-5.3150001 -2.688 0.048999999 0.12
-5.2779999 -2.6900001 0.050000001 0.14
-5.2470002 -2.6949999 0.050999999 0.28999999
-5.2379999 -2.711 0.050999999 0.11
-5.2719998 -2.75 0.050000001 0
-5.198 -2.7320001 0.052000001 0
-5.1479998 -2.7160001 0.052999999 0
-5.2729998 -2.8039999 0.048999999 0
-5.3509998 -2.8670001 0.046 0
-5.2729998 -2.8469999 0.048 0
-5.0500002 -2.7460001 0.055 0
-5.2010002 -2.8499999 0.050000001 0
-5.3779998 -2.9590001 0.045000002 0
-4.9710002 -2.753 0.057 0
-4.9889998 -2.783 0.056000002 0
-4.921 -2.7650001 0.057999998 0
-4.855 -2.7479999 0.059 0
-4.8909998 -2.789 0.057999998 0
-4.9070001 -2.819 0.057 0
-4.9260001 -2.8399999 0.056000002 0
-4.9450002 -2.872 0.056000002 0
-5.3990002 -3.161 0.041999999 0
-5.0929999 -3.0020001 0.050999999 0
-4.6599998 -2.7639999 0.063000001 0
-4.5300002 -2.7060001 0.067000002 0
-4.4640002 -2.6849999 0.068999998 0.07
-4.4679999 -2.697 0.068999998 0.2
-4.4239998 -2.6889999 0.07 0.25999999
-4.4120002 -2.701 0.07 0.1
-4.3909998 -2.707 0.07 0.18000001
-4.3509998 -2.701 0.071000002 0.11
-4.3239999 -2.7019999 0.071999997 0.14
-4.2880001 -2.6989999 0.072999999 0.17
-4.27 -2.697 0.072999999 0.16
-4.2589998 -2.7079999 0.072999999 0.090000004
-4.2480001 -2.721 0.072999999 0
-4.2649999 -2.75 0.071999997 0
-4.2059999 -2.7309999 0.074000001 0
-4.1830001 -2.734 0.074000001 0
-4.1370001 -2.723 0.075999998 0
-4.1479998 -2.7390001 0.075000003 0
-4.164 -2.7690001 0.074000001 0
-4.1420002 -2.773 0.075000003 0
-4.1149998 -2.7739999 0.075000003 0.079999998
-3.971 -2.694 0.079999998 0.20999999
-3.9549999 -2.701 0.079999998 0.23
-3.954 -2.7190001 0.079999998 0.18000001
-3.9419999 -2.7190001 0.079999998 0.43000001
-3.948 -2.7420001 0.079000004 0.23999999
-3.904 -2.7290001 0.081 0.11
-3.8640001 -2.7190001 0.082000002 0
-3.872 -2.743 0.081 0
-3.733 -2.661 0.085000001 0
-3.7219999 -2.671 0.085000001 0
-3.7079999 -2.6700001 0.086000003 0
-3.7490001 -2.7179999 0.083999999 0
-3.7939999 -2.7690001 0.082000002 0
-3.885 -2.855 0.079000004 0
-3.8039999 -2.813 0.081 0
-3.9100001 -2.9119999 0.078000002 0
-3.7060001 -2.776 0.083999999 0
-3.6059999 -2.71 0.086999997 0
-3.5739999 -2.7030001 0.088 0
-3.6459999 -2.776 0.085000001 0
-4.2350001 -3.2509999 0.066 0
-3.9579999 -3.056 0.074000001 0
-3.516 -2.7290001 0.089000002 0
-3.4809999 -2.7190001 0.090000004 0
-3.4519999 -2.704 0.090000004 0
-3.4070001 -2.687 0.092 0
-3.4779999 -2.7609999 0.089000002 0
-3.6860001 -2.947 0.082000002 0
-3.734 -3.0050001 0.079999998 0
-3.378 -2.733 0.090999998 0.050000001
-3.3039999 -2.6900001 0.093999997 0.14
-3.2880001 -2.6849999 0.093999997 0.16
-3.2780001 -2.694 0.093999997 0.2
-3.2590001 -2.6960001 0.093999997 0
-3.267 -2.72 0.093999997 0.13
-3.237 -2.7119999 0.094999999 0
-3.2950001 -2.779 0.092 0
-3.2609999 -2.7590001 0.093000002 0.059999999
-3.21 -2.7320001 0.094999999 0
-3.23 -2.767 0.093999997 0
-3.201 -2.76 0.094999999 0
-3.2179999 -2.793 0.093999997 0
-3.3039999 -2.8859999 0.090000004 0
-3.1960001 -2.809 0.093999997 0
-3.2160001 -2.835 0.093000002 0
-3.1129999 -2.7609999 0.096000001 0
-3.049 -2.721 0.097999997 0
-3.0309999 -2.721 0.098999999 0
-3.062 -2.767 0.097000003 0.13
-3.033 -2.7579999 0.097999997 0.23
-3.0599999 -2.802 0.097000003 0
-3.033 -2.7850001 0.097000003 0.059999999
-3.02 -2.79 0.097999997 0
-2.993 -2.783 0.097999997 0
-2.9979999 -2.8050001 0.097999997 0
-2.905 -2.734 0.101 0.07
-2.9349999 -2.7809999 0.098999999 0.07
-2.8499999 -2.7160001 0.102 0.15000001
-2.882 -2.7550001 0.101 0.13
-2.8570001 -2.7490001 0.101 0
-2.8670001 -2.776 0.101 0.1
-2.836 -2.763 0.102 0.22
-2.8 -2.7449999 0.103 0
-2.8139999 -2.776 0.102 0.12
-2.753 -2.733 0.104 0.22
-2.7349999 -2.723 0.104 0.14
-2.721 -2.7260001 0.104 0.15000001
-2.7249999 -2.747 0.104 0.17
-2.7520001 -2.793 0.103 0.28
-2.717 -2.7739999 0.103 0.19
-2.6900001 -2.7639999 0.104 0.15000001
-2.661 -2.7509999 0.105 0.14
-2.655 -2.753 0.105 0.50999999
-2.654 -2.7690001 0.105 0.2
-2.6500001 -2.783 0.105 0.18000001
-2.618 -2.767 0.105 0.14
-2.5929999 -2.757 0.106 0.14
-2.595 -2.777 0.106 0.28999999
-2.585 -2.7839999 0.106 0.19
-2.5450001 -2.7479999 0.107 0.23
-2.5369999 -2.7579999 0.107 0.19
-2.5009999 -2.734 0.108 0.20999999
-2.483 -2.7320001 0.109 0.20999999
-2.497 -2.7650001 0.108 0.20999999
-2.4519999 -2.7320001 0.109 0.23
-2.437 -2.7320001 0.109 0.12
-2.418 -2.72 0.11 0
-2.4189999 -2.7379999 0.109 0.07
-2.385 -2.717 0.11 0.19
-2.3640001 -2.7090001 0.111 0.25999999
-2.382 -2.7479999 0.11 0.14
-2.3529999 -2.7309999 0.111 0.16
-2.3740001 -2.7739999 0.11 0
-2.3499999 -2.7550001 0.11 0.059999999
-2.3369999 -2.756 0.111 0.14
-2.2909999 -2.7190001 0.112 0.28
-2.2609999 -2.7 0.113 0.19
-2.24 -2.691 0.113 0.19
-2.2690001 -2.7449999 0.112 0
-2.323 -2.8199999 0.109 0
-2.319 -2.8329999 0.109 0
-2.201 -2.7049999 0.114 0
-2.267 -2.806 0.111 0
-2.309 -2.8770001 0.109 0
-2.3239999 -2.914 0.108 0
-2.2950001 -2.8959999 0.108 0
-2.2060001 -2.7909999 0.112 0.090000004
-2.128 -2.7090001 0.115 0.25
-2.1159999 -2.711 0.115 0.11
-2.1140001 -2.7260001 0.115 0.14
-2.0910001 -2.7130001 0.115 0.14
-2.0869999 -2.7260001 0.115 0.44999999
-2.0680001 -2.7179999 0.116 0.22
-2.073 -2.734 0.115 0.28999999
-2.0610001 -2.7360001 0.115 0
-2.063 -2.757 0.115 0
-2.0769999 -2.7939999 0.114 0
-2.056 -2.7850001 0.114 0
-2.0139999 -2.7460001 0.116 0
-2.1059999 -2.892 0.111 0
-2.1140001 -2.9130001 0.111 0
-2.0880001 -2.895 0.112 0.050000001
-1.998 -2.7869999 0.115 0.19
-1.925 -2.7019999 0.118 0.11
-1.97 -2.7850001 0.116 0
-1.96 -2.789 0.116 0.12
-1.91 -2.7349999 0.118 0.12
-1.91 -2.744 0.118 0.15000001
-1.8940001 -2.74 0.118 0.17
-1.88 -2.7379999 0.118 0
-1.903 -2.79 0.117 0.12
-1.846 -2.7249999 0.119 0.16
-1.84 -2.734 0.119 0.41999999
-1.827 -2.733 0.119 0.22
-1.826 -2.7409999 0.119 0.23
-1.834 -2.7720001 0.118 0.15000001
-1.799 -2.737 0.119 0.31999999
-1.798 -2.7550001 0.119 0.2
-1.79 -2.7620001 0.119 0.17
-1.786 -2.7739999 0.119 0.15000001
-1.7690001 -2.766 0.119 0.23
-1.775 -2.786 0.119 0
-1.7690001 -2.7969999 0.118 0
-1.734 -2.76 0.12 0
-1.733 -2.777 0.119 0.07
-1.698 -2.74 0.121 0.11
-1.67 -2.7130001 0.122 0.13
-1.675 -2.7309999 0.121 0
-1.664 -2.7320001 0.121 0
-1.663 -2.75 0.121 0
-1.671 -2.7820001 0.12 0
-1.837 -3.086 0.111 0
-1.614 -2.7249999 0.122 0
-1.618 -2.753 0.121 0
-1.651 -2.8199999 0.12 0
-1.579 -2.7149999 0.123 0
-1.595 -2.7620001 0.122 0
-1.745 -3.05 0.113 0
-1.706 -3.003 0.115 0
-1.739 -3.085 0.112 0
-1.765 -3.155 0.11 0
-1.655 -2.967 0.116 0
-1.66 -2.9979999 0.115 0
-1.6849999 -3.0669999 0.114 0
-1.635 -2.9960001 0.116 0
-1.586 -2.927 0.118 0
-1.554 -2.8900001 0.119 0
-1.579 -2.9590001 0.117 0
-1.648 -3.1029999 0.113 0
-1.59 -3.016 0.116 0
-1.566 -2.9920001 0.117 0
-1.524 -2.9330001 0.119 0
-1.599 -3.1040001 0.114 0
-1.6440001 -3.2179999 0.111 0
-1.623 -3.201 0.111 0
-1.61 -3.188 0.112 0
-1.521 -3.0309999 0.116 0
-1.493 -2.9979999 0.117 0
-1.471 -2.9779999 0.118 0
-1.552 -3.1700001 0.113 0
-1.5549999 -3.2019999 0.112 0
-1.37 -2.825 0.123 0
-1.354 -2.8150001 0.123 0
-1.513 -3.1800001 0.113 0
-1.452 -3.0739999 0.116 0
-1.424 -3.0380001 0.117 0
-1.439 -3.095 0.116 0.050000001
-1.3430001 -2.9100001 0.121 0.07
-1.278 -2.7780001 0.125 0.38
-1.277 -2.8 0.125 0.25999999
-1.262 -2.789 0.125 0.16
-1.2460001 -2.777 0.125 0.40000001
-1.24 -2.786 0.125 0.16
-1.23 -2.7880001 0.125 0.40000001
-1.226 -2.803 0.125 0.22
-1.222 -2.8050001 0.125 0.31999999
-1.21 -2.8010001 0.125 0.11
-1.211 -2.829 0.125 0.12
-1.1849999 -2.7920001 0.126 0.31999999
-1.156 -2.7460001 0.127 0.11
-1.151 -2.7590001 0.127 0.15000001
-1.16 -2.8069999 0.126 0.28999999
-1.142 -2.7739999 0.127 0
-1.161 -2.848 0.125 0
-1.161 -2.8740001 0.124 0.07
-1.122 -2.8010001 0.126 0.14
-1.094 -2.7539999 0.127 0.16
-1.08 -2.743 0.12800001 0.20999999
-1.066 -2.733 0.12800001 0.2
-1.04 -2.677 0.13 0
-1.059 -2.7550001 0.12800001 0
-1.056 -2.7709999 0.127 0
-1.0549999 -2.7950001 0.127 0
-1.1799999 -3.1689999 0.117 0
-1.216 -3.2980001 0.113 0
-1.23 -3.3699999 0.111 0
-1.456 -4.0240002 0.093000002 0
-1.404 -3.9170001 0.096000001 0
-1.1160001 -3.128 0.118 0
-1.01 -2.8540001 0.126 0.11
-0.98100001 -2.7969999 0.127 0.1
-0.97600001 -2.8110001 0.127 0
-1.056 -3.0669999 0.12 0
-0.99400002 -2.9100001 0.125 0
-1.2819999 -3.8199999 0.1 0
-1.169 -3.5120001 0.108 0
-0.99000001 -2.9920001 0.123 0.039999999
-0.94499999 -2.8829999 0.126 0.13
-0.92500001 -2.8510001 0.127 0.16
-0.903 -2.7969999 0.12800001 0
-0.90700001 -2.842 0.127 0.15000001
-0.884 -2.799 0.12800001 0.25999999
-0.86400002 -2.7639999 0.12899999 0.11
-0.85100001 -2.753 0.13 0.15000001
-0.81900001 -2.675 0.132 0.17
-0.80699998 -2.6659999 0.132 0.15000001
-0.80199999 -2.6659999 0.132 0.38
-0.78399998 -2.635 0.133 0.25
-0.77899998 -2.6489999 0.133 0.23
-0.77600002 -2.6689999 0.132 0.18000001
-0.77100003 -2.6849999 0.132 0.31
-0.76899999 -2.711 0.131 0.2
-0.75800002 -2.7049999 0.131 0.34999999
-0.755 -2.71 0.131 0.19
-0.74400002 -2.701 0.132 0.14
-0.73900002 -2.717 0.131 0.17
-0.72899997 -2.7149999 0.131 0.12
-0.72399998 -2.7290001 0.131 0.17
-0.71399999 -2.7279999 0.131 0.20999999
-0.70499998 -2.7279999 0.131 0.18000001
-0.69400001 -2.7019999 0.132 0.12
-0.68400002 -2.6960001 0.132 0.16
-0.66600001 -2.661 0.133 0.30000001
-0.66000003 -2.671 0.133 0.19
-0.64899999 -2.664 0.133 0.17
-0.64200002 -2.6730001 0.133 0.18000001
-0.64399999 -2.7179999 0.132 0.16
-0.63800001 -2.714 0.132 0.1
-0.63200003 -2.727 0.132 0.16
-0.62199998 -2.7190001 0.132 0.20999999
-0.60500002 -2.684 0.133 0.11
-0.58999997 -2.655 0.134 0.090000004
-0.59100002 -2.7 0.133 0.15000001
-0.57700002 -2.654 0.134 0.1
-0.56800002 -2.654 0.134 0.17
-0.565 -2.6849999 0.133 0.12
-0.583 -2.8180001 0.13 0.14
-0.55400002 -2.7160001 0.132 0
-0.55199999 -2.7509999 0.132 0
-0.54799998 -2.776 0.131 0.13
-0.54400003 -2.783 0.131 0
-0.53500003 -2.783 0.131 0
-0.54699999 -2.8959999 0.12800001 0
-0.667 -3.6329999 0.108 0
-0.62300003 -3.4489999 0.113 0
-0.565 -3.1730001 0.121 0
-0.565 -3.234 0.119 0
-0.55800003 -3.2190001 0.12 0
-0.52200001 -3.063 0.124 0
-0.47 -2.796 0.131 0.029999999
-0.45500001 -2.7579999 0.132 0.18000001
-0.44100001 -2.7260001 0.133 0.11
-0.44299999 -2.8010001 0.131 0.079999998
-0.44600001 -2.8770001 0.12899999 0
-0.44299999 -2.8900001 0.12899999 0
-0.43399999 -2.891 0.12899999 0
-0.426 -2.9059999 0.12800001 0
-0.40799999 -2.8380001 0.13 0.050000001
-0.38600001 -2.7390001 0.133 0.17
-0.375 -2.7219999 0.133 0.25
-0.368 -2.733 0.133 0
-0.38499999 -2.9059999 0.12800001 0
-0.36500001 -2.8180001 0.131 0.13
-0.33899999 -2.6760001 0.134 0.25999999
-0.32800001 -2.6489999 0.13500001 0.2
-0.31799999 -2.6370001 0.13600001 0.16
-0.30700001 -2.618 0.13600001 0.33000001
-0.30500001 -2.6359999 0.13600001 0.2
-0.29899999 -2.6570001 0.13500001 0.17
-0.289 -2.6400001 0.13600001 0.18000001
-0.29100001 -2.7479999 0.133 0.20999999
-0.27399999 -2.6659999 0.13500001 0.25999999
-0.26699999 -2.6719999 0.13500001 0.17
-0.25799999 -2.675 0.13500001 0.36000001
-0.25400001 -2.6760001 0.13500001 0.2
-0.245 -2.664 0.13500001 0.34
-0.237 -2.677 0.13500001 0.2
-0.23100001 -2.7019999 0.134 0
-0.22 -2.6730001 0.13500001 0.11
-0.20999999 -2.6470001 0.13600001 0.16
-0.20200001 -2.6500001 0.13500001 0.18000001
-0.197 -2.642 0.13600001 0.23
-0.19 -2.6670001 0.13500001 0.20999999
-0.18000001 -2.641 0.13600001 0.25999999
-0.17299999 -2.654 0.13500001 0.27000001
-0.16500001 -2.671 0.13500001 0.16
-0.155 -2.6429999 0.13600001 0.41999999
-0.147 -2.648 0.13600001 0.22
-0.14399999 -2.6659999 0.13500001 0.23
-0.13500001 -2.6500001 0.13600001 0.33000001
-0.12800001 -2.6830001 0.13500001 0.25999999
-0.118 -2.6570001 0.13500001 0
-0.109 -2.6270001 0.13600001 0
-0.105 -2.786 0.132 0
-0.093999997 -2.674 0.13500001 0
-0.098999999 -3.0840001 0.124 0.07
-0.62699997 -29.164 -0.55599999 0.22
-0.53399998 -29.08 -0.55400002 0
-0.050000001 -3.0450001 0.125 0
-0.44299999 -29.115 -0.55500001 0
-0.046 -3.017 0.126 0
-0.035999998 -2.891 0.12899999 0.07
-0.352 -29.18 -0.55599999 0
-0.027000001 -2.823 0.131 0.12
-0.017999999 -2.822 0.131 0.15000001
-0.0089999996 -2.8139999 0.131 0.14
-0 -2.7980001 0.132 0.36000001
0.0089999996 -2.8099999 0.131 0.19
0.014 -2.832 0.131 0.34
0.022 -2.8169999 0.131 0.18000001
0.030999999 -2.8069999 0.132 0.20999999
0.039999999 -2.803 0.132 0
0.046999998 -2.7650001 0.133 0.07
0.056000002 -2.7650001 0.133 0.16
0.064000003 -2.757 0.133 0.19
0.068999998 -2.773 0.132 0.38999999
0.078000002 -2.7839999 0.132 0.20999999
0.086999997 -2.7780001 0.132 0.23
0.097000003 -2.796 0.132 0.19
0.107 -2.8299999 0.131 0.28
0.115 -2.8110001 0.131 0.11
0.127 -2.8670001 0.13 0.14
0.131 -2.855 0.13 0.23999999
0.141 -2.888 0.12899999 0.18000001
0.161 -3.059 0.125 0.27000001
0.17299999 -3.1010001 0.124 0
0.183 -3.1059999 0.124 0.1
0.193 -3.1010001 0.124 0.20999999
0.192 -3.0250001 0.126 0.23999999
0.198 -2.9690001 0.127 0
0.207 -2.97 0.127 0.059999999
0.211 -2.9000001 0.12899999 0.19
0.21699999 -2.8610001 0.13 0.27000001
0.222 -2.819 0.131 0.23
0.23199999 -2.8340001 0.131 0.12
0.235 -2.8180001 0.131 0.17
0.243 -2.803 0.131 0.18000001
0.25299999 -2.8139999 0.131 0.41
0.26199999 -2.819 0.131 0.20999999
0.273 -2.836 0.13 0.14
0.28600001 -2.8770001 0.12899999 0.17
0.287 -2.8050001 0.131 0.28999999
0.29800001 -2.862 0.13 0.11
0.31200001 -2.8989999 0.12899999 0.2
0.32300001 -2.9119999 0.12800001 0.11
0.331 -2.9030001 0.12899999 0.15000001
0.33000001 -2.8239999 0.131 0.12
0.352 -2.9260001 0.12800001 0.14
0.36500001 -2.9489999 0.127 0.12
0.36199999 -2.8929999 0.12899999 0.14
0.373 -2.9100001 0.12800001 0.16
0.38100001 -2.901 0.12800001 0.20999999
0.389 -2.891 0.12899999 0.18000001
0.40000001 -2.898 0.12800001 0.34
0.412 -2.9170001 0.12800001 0
0.414 -2.902 0.12800001 0
0.426 -2.921 0.12800001 0.12
0.44 -2.947 0.127 0.090000004
0.44499999 -2.918 0.12800001 0.14
0.449 -2.8889999 0.12899999 0.28
0.458 -2.885 0.12899999 0.25
0.46700001 -2.8859999 0.12899999 0.23999999
0.47 -2.8710001 0.12899999 0.2
0.479 -2.872 0.12899999 0.19
0.48199999 -2.8369999 0.13 0.30000001
0.49700001 -2.8670001 0.12899999 0.2
0.50400001 -2.8570001 0.12899999 0.14
0.51099998 -2.8440001 0.12899999 0.36000001
0.509 -2.783 0.131 0.14
0.50800002 -2.7590001 0.132 0.38999999
0.52499998 -2.799 0.131 0.23
0.53299999 -2.793 0.131 0.17
0.54000002 -2.7820001 0.131 0.41
0.54500002 -2.7639999 0.131 0.22
0.55800003 -2.7820001 0.131 0.22
0.56800002 -2.7839999 0.131 0.38
0.574 -2.7909999 0.13 0.25
0.583 -2.7909999 0.13 0.2
0.60600001 -2.852 0.12899999 0.090000004
0.62400001 -2.8929999 0.12800001 0.079999998
0.63099998 -2.881 0.12800001 0
0.60799998 -2.7409999 0.132 0
0.61000001 -2.71 0.132 0
0.60799998 -2.684 0.133 0.12
0.62400001 -2.7130001 0.132 0.090000004
0.66000003 -2.823 0.12899999 0.15000001
0.69099998 -2.911 0.127 0
0.69999999 -2.9100001 0.127 0
0.71899998 -2.9449999 0.126 0.12
0.71899998 -2.9260001 0.126 0
0.73100001 -2.9360001 0.126 0.07
0.74400002 -2.9449999 0.126 0
0.75700003 -2.96 0.125 0
0.80699998 -3.1059999 0.121 0
0.722 -2.7590001 0.13 0
0.76800001 -2.8889999 0.127 0
0.79799998 -2.964 0.125 0
0.81900001 -3.02 0.123 0
0.838 -3.052 0.122 0
0.84899998 -3.052 0.122 0.079999998
2.8099999 -9.7729998 -0.059999999 0
0.86500001 -3.0009999 0.123 0
0.96600002 -3.3239999 0.114 0
2.7409999 -9.4230003 -0.050999999 0
0.86400002 -2.948 0.125 0
0.84399998 -2.8510001 0.127 0
0.91000003 -3.0320001 0.122 0
0.912 -3.006 0.123 0
0.91500002 -2.98 0.123 0
0.90899998 -2.9300001 0.125 0
1.388 -4.4050002 0.083999999 0
1.4 -4.395 0.083999999 0
1.207 -3.7620001 0.102 0
1.165 -3.595 0.106 0
0.94400001 -2.9000001 0.125 0.050000001
0.94300002 -2.8659999 0.126 0.18000001
0.94700003 -2.848 0.126 0.18000001
0.95499998 -2.858 0.126 0
0.972 -2.878 0.126 0.13
0.98100001 -2.875 0.126 0.18000001
1.007 -2.9189999 0.124 0
1.016 -2.914 0.124 0.090000004
1.007 -2.8610001 0.126 0
1.041 -2.941 0.123 0
1.036 -2.9000001 0.124 0
1.053 -2.9170001 0.124 0
1.03 -2.8280001 0.126 0
1.027 -2.793 0.127 0.11
1.0190001 -2.7460001 0.12800001 0.16
1.031 -2.753 0.12800001 0.1
1.05 -2.786 0.127 0.14
1.087 -2.858 0.125 0.16
1.102 -2.869 0.125 0
1.154 -2.973 0.122 0
1.143 -2.9200001 0.123 0
1.1160001 -2.8269999 0.126 0.07
1.125 -2.822 0.126 0.090000004
1.1210001 -2.8010001 0.126 0
1.135 -2.809 0.126 0.07
1.123 -2.756 0.127 0
1.156 -2.8110001 0.126 0
1.165 -2.8069999 0.126 0.07
1.161 -2.7720001 0.126 0.15000001
1.171 -2.7720001 0.126 0.090000004
1.1799999 -2.7820001 0.126 0.16
1.174 -2.7449999 0.127 0.16
1.197 -2.7720001 0.126 0.22
1.323 -3.033 0.118 0.11
1.352 -3.0710001 0.117 0
1.365 -3.0739999 0.117 0
1.369 -3.059 0.117 0
1.395 -3.102 0.116 0
1.553 -3.4189999 0.107 0
1.5779999 -3.4430001 0.106 0.050000001
1.365 -2.9619999 0.12 0.19
1.363 -2.934 0.12 0.25999999
1.367 -2.9189999 0.121 0.25999999
1.383 -2.941 0.12 0.11
1.3890001 -2.931 0.12 0.079999998
1.456 -3.0450001 0.117 0
1.5 -3.1099999 0.115 0.090000004
1.41 -2.9030001 0.121 0.1
1.37 -2.8 0.123 0.14
1.3609999 -2.7620001 0.124 0.31
1.357 -2.7420001 0.125 0.19
1.367 -2.7420001 0.125 0.1
1.3660001 -2.7179999 0.125 0.090000004
1.399 -2.7609999 0.124 0
1.4119999 -2.766 0.124 0
1.405 -2.7309999 0.125 0.13
1.405 -2.711 0.125 0.1
1.388 -2.668 0.126 0.079999998
1.375 -2.6229999 0.12800001 0.15000001
1.381 -2.615 0.12800001 0.090000004
1.382 -2.5969999 0.12800001 0
1.456 -2.714 0.124 0
1.5599999 -2.882 0.119 0
1.604 -2.9519999 0.117 0
1.6950001 -3.0929999 0.113 0
1.706 -3.0899999 0.113 0
1.698 -3.053 0.114 0
1.753 -3.1270001 0.111 0
1.724 -3.0539999 0.113 0
1.646 -2.8970001 0.118 0.11
1.6619999 -2.915 0.117 0.22
1.6569999 -2.885 0.118 0.1
1.6670001 -2.882 0.118 0.15000001
1.646 -2.825 0.12 0.12
1.679 -2.8610001 0.118 0
1.7410001 -2.9430001 0.116 0.12
1.701 -2.8570001 0.118 0.16
1.699 -2.8429999 0.118 0.22
1.72 -2.858 0.118 0.27000001
1.76 -2.9030001 0.116 0.25999999
1.767 -2.8940001 0.116 0.25999999
1.781 -2.8959999 0.116 0.27000001
1.78 -2.875 0.117 0.11
1.7869999 -2.875 0.116 0.17
1.7970001 -2.8710001 0.116 0.12
1.8150001 -2.8789999 0.116 0.16
1.846 -2.9089999 0.115 0.090000004
1.85 -2.895 0.115 0.17
1.8430001 -2.8640001 0.116 0.12
1.8559999 -2.865 0.116 0.14
1.867 -2.872 0.115 0.28
1.873 -2.8610001 0.116 0.2
1.9 -2.881 0.115 0.18000001
1.902 -2.865 0.115 0.19
1.909 -2.8559999 0.115 0.31
1.919 -2.852 0.115 0.27000001
1.937 -2.859 0.115 0.17
1.926 -2.8329999 0.115 0.34999999
1.936 -2.8280001 0.115 0.19
1.941 -2.8169999 0.116 0.36000001
1.965 -2.8329999 0.115 0.19
1.9680001 -2.8180001 0.115 0.2
1.978 -2.8139999 0.115 0.18000001
1.975 -2.7909999 0.116 0.38999999
1.9910001 -2.8039999 0.115 0.2
2 -2.7980001 0.115 0.18000001
1.993 -2.7709999 0.116 0.28
2.013 -2.779 0.115 0.27000001
2.0050001 -2.75 0.116 0
2.0350001 -2.773 0.115 0
2.0710001 -2.803 0.114 0
2.095 -2.825 0.113 0
2.1789999 -2.918 0.11 0.12
2.2279999 -2.9630001 0.108 0.16
2.2520001 -2.9749999 0.107 0.23
2.27 -2.9790001 0.107 0.25999999
2.266 -2.9549999 0.108 0.18000001
2.2590001 -2.937 0.108 0.19
2.2550001 -2.9130001 0.109 0.28
2.2609999 -2.902 0.109 0.2
2.2839999 -2.9119999 0.108 0.18000001
2.29 -2.901 0.108 0.31999999
2.319 -2.918 0.108 0.2
2.332 -2.9159999 0.107 0.16
2.3429999 -2.9200001 0.107 0.090000004
2.369 -2.934 0.106 0.090000004
2.4300001 -2.9879999 0.104 0
2.4260001 -2.9649999 0.105 0
2.4549999 -2.9809999 0.104 0
2.572 -3.1010001 0.1 0
2.7249999 -3.263 0.093999997 0
2.6500001 -3.164 0.097000003 0
2.6240001 -3.1129999 0.098999999 0
2.619 -3.0880001 0.098999999 0
2.6889999 -3.1489999 0.097000003 0
2.6630001 -3.0999999 0.097999997 0
2.664 -3.0810001 0.098999999 0
2.71 -3.115 0.097000003 0
2.7579999 -3.1589999 0.094999999 0
2.74 -3.119 0.097000003 0
2.8540001 -3.2260001 0.092 0
2.8239999 -3.1730001 0.093999997 0
2.7739999 -3.099 0.096000001 0
2.7750001 -3.079 0.097000003 0
2.766 -3.0599999 0.097000003 0
2.7579999 -3.033 0.097999997 0
2.8399999 -3.102 0.094999999 0
3.164 -3.4300001 0.082999997 0
3.227 -3.4760001 0.081 0
3.4590001 -3.7 0.072999999 0
3.3699999 -3.5829999 0.075999998 0
3.461 -3.6670001 0.072999999 0
3.0880001 -3.2550001 0.088 0
3.2509999 -3.404 0.082000002 0
5.8569999 -6.0650001 -0.015 0
5.8280001 -5.9959998 -0.013 0
5.8720002 -6.0040002 -0.014 0
2.9920001 -3.0480001 0.093000002 0
4.1329999 -4.211 0.050999999 0
3.007 -3.0450001 0.093000002 0
3.0250001 -3.0439999 0.093000002 0.11
3.007 -3.007 0.093999997 0.18000001
3.0220001 -3.0039999 0.093999997 0.2
3.0050001 -2.9679999 0.094999999 0.22
3.023 -2.9660001 0.093999997 0.28999999
3.029 -2.9630001 0.093999997 0.11
3.0539999 -2.9690001 0.093999997 0
3.046 -2.9430001 0.093999997 0
3.0739999 -2.951 0.093999997 0
3.0699999 -2.9289999 0.093999997 0
3.089 -2.9289999 0.093999997 0
3.277 -3.085 0.086999997 0
3.3010001 -3.098 0.086999997 0.029999999
3.1300001 -2.921 0.093000002 0.090000004
3.1270001 -2.9000001 0.093999997 0.090000004
3.168 -2.918 0.092 0.13
3.174 -2.9059999 0.093000002 0.090000004
3.2049999 -2.9159999 0.092 0.2
3.21 -2.911 0.092 0.11
3.223 -2.905 0.092 0.090000004
3.237 -2.8989999 0.090999998 0.079999998
3.2550001 -2.8959999 0.090999998 0
3.3 -2.918 0.090000004 0
3.2690001 -2.872 0.090999998 0
3.2750001 -2.859 0.090999998 0
3.3280001 -2.8959999 0.090000004 0
3.562 -3.0769999 0.082000002 0
3.6370001 -3.122 0.079999998 0
3.506 -2.9920001 0.085000001 0
3.451 -2.927 0.086999997 0
3.4360001 -2.895 0.088 0.050000001
3.365 -2.8180001 0.090000004 0.13
3.4059999 -2.8440001 0.089000002 0.16
3.415 -2.8329999 0.089000002 0.20999999
3.4189999 -2.8180001 0.089000002 0.25
3.4200001 -2.8010001 0.089000002 0.11
3.3989999 -2.767 0.090000004 0.15000001
3.3859999 -2.7390001 0.090999998 0.22
3.434 -2.7679999 0.090000004 0.2
3.4349999 -2.7509999 0.090000004 0.17
3.467 -2.7590001 0.089000002 0
3.49 -2.7590001 0.089000002 0
3.447 -2.7079999 0.090000004 0
3.539 -2.7609999 0.088 0
3.562 -2.7609999 0.086999997 0
3.586 -2.77 0.086999997 0
3.6659999 -2.813 0.083999999 0.07
3.6670001 -2.796 0.085000001 0.13
3.684 -2.79 0.083999999 0.25
3.6359999 -2.737 0.086000003 0
3.6949999 -2.7620001 0.083999999 0
3.7190001 -2.7620001 0.083999999 0
3.724 -2.757 0.083999999 0
3.839 -2.822 0.081 0.13
3.8900001 -2.8410001 0.079000004 0.12
3.902 -2.8310001 0.079000004 0.079999998
3.937 -2.8369999 0.078000002 0
4.0229998 -2.8789999 0.075999998 0
4.0419998 -2.8729999 0.075000003 0
4.0250001 -2.852 0.075999998 0
4.0650001 -2.8610001 0.075000003 0
4.1279998 -2.8859999 0.072999999 0
4.2969999 -2.983 0.068000004 0
4.23 -2.9170001 0.071000002 0
4.1729999 -2.859 0.072999999 0
4.1329999 -2.822 0.074000001 0
4.1950002 -2.845 0.072999999 0
4.2069998 -2.8340001 0.071999997 0
4.1999998 -2.8099999 0.072999999 0
4.1999998 -2.7909999 0.072999999 0
4.2319999 -2.793 0.072999999 0
4.2859998 -2.809 0.071000002 0.050000001
4.5359998 -2.961 0.064000003 0
4.52 -2.9300001 0.064000003 0
4.5100002 -2.904 0.064999998 0
4.2220001 -2.7019999 0.074000001 0.090000004
4.1630001 -2.6459999 0.075999998 0.12
4.1869998 -2.6429999 0.075999998 0
4.1539998 -2.6040001 0.077 0
4.2020001 -2.625 0.075999998 0
4.2919998 -2.6619999 0.072999999 0
4.099 -2.526 0.079000004 0
4.073 -2.4920001 0.079999998 0
4.0890002 -2.4849999 0.079999998 0
4.8010001 -2.891 0.059 0
4.9879999 -2.9809999 0.052999999 0
5.059 -3.013 0.050999999 0
5.1220002 -3.0280001 0.050000001 0.07
5.1389999 -3.016 0.048999999 0.13
5.1339998 -2.9920001 0.050000001 0
5.1490002 -2.9790001 0.050000001 0.11
5.118 -2.9400001 0.050999999 0.12
5.1409998 -2.9319999 0.050000001 0
5.223 -2.967 0.048 0.07
5.3769999 -3.0309999 0.044 0.18000001
5.4070001 -3.026 0.043000001 0.1
5.408 -3.0039999 0.043000001 0.14
5.4400001 -3 0.043000001 0.12
5.4829998 -3.0009999 0.041999999 0.14
5.5279999 -3.0139999 0.041000001 0.17
5.5689998 -3.013 0.039999999 0.22
5.6300001 -3.023 0.037999999 0.23999999
5.645 -3.0079999 0.037999999 0.25
5.6680002 -2.9979999 0.037999999 0.11
5.7059999 -2.9949999 0.037 0.13
5.7420001 -2.9909999 0.035999998 0.31999999
5.7449999 -2.9809999 0.035999998 0.2
5.7649999 -2.9679999 0.035999998 0.18000001
5.7659998 -2.9449999 0.035999998 0
5.7090001 -2.8940001 0.037999999 0.090000004
5.428 -2.7320001 0.046 0.12
5.4920001 -2.7420001 0.045000002 0.12
5.8940001 -2.918 0.033 0
5.6570001 -2.7909999 0.039999999 0
5.5780001 -2.73 0.043000001 0
6.0170002 -2.9200001 0.029999999 0.090000004
5.9780002 -2.878 0.032000002 0.34
6.1199999 -2.9219999 0.028000001 0.18000001
6.086 -2.882 0.028999999 0.19
6.2459998 -2.9330001 0.025 0.28999999
6.2410002 -2.9189999 0.025 0.2
6.2340002 -2.892 0.026000001 0.13
6.381 -2.9349999 0.022 0.16
6.369 -2.9059999 0.022 0.2
6.3189998 -2.859 0.024 0.34999999
6.4510002 -2.8940001 0.02 0.18000001
6.618 -2.9560001 0.016000001 0.38
6.7610002 -2.994 0.012 0.22
6.789 -2.98 0.011 0.25999999
6.256 -2.7249999 0.027000001 0.28
6.3049998 -2.723 0.026000001 0.16
6.9860001 -2.9879999 0.0070000002 0.27000001
6.5580001 -2.7820001 0.018999999 0.18000001
6.2470002 -2.6400001 0.028000001 0.17
6.954 -2.9100001 0.0080000004 0.16
6.6040001 -2.7409999 0.017999999 0.2
6.5739999 -2.704 0.018999999 0.28999999
6.5359998 -2.665 0.021 0.2
8.0459995 -3.2449999 -0.021 0.30000001
8.415 -3.3610001 -0.032000002 0.23
7.8979998 -3.142 -0.017000001 0.18000001
9.3710003 -3.6889999 -0.057999998 0.50999999
8.1409998 -3.1789999 -0.023 0.15000001
8.3210001 -3.2190001 -0.028000001 0.34999999
8.1059999 -3.1070001 -0.022 0.34
7.8520002 -2.983 -0.014 0.30000001
7.7189999 -2.905 -0.0099999998 0.25999999
7.651 -2.8659999 -0.0080000004 0.34
7.579 -2.812 -0.0060000001 0.28
7.697 -2.8280001 -0.0089999996 0.33000001
7.6360002 -2.7780001 -0.0070000002 0.36000001
7.8330002 -2.822 -0.012 0.27000001
7.8379998 -2.796 -0.012 0.18000001
7.802 -2.7550001 -0.011 0.44999999
7.8439999 -2.756 -0.012 0.25
7.777 -2.7049999 -0.0099999998 0.40000001
7.908 -2.723 -0.013 0.25999999
7.8899999 -2.6889999 -0.013 0.23999999
7.8039999 -2.6329999 -0.0099999998 0.36000001
7.8499999 -2.6210001 -0.011 0.28999999
7.9200001 -2.6300001 -0.013 0.41999999
8.0139999 -2.6329999 -0.015 0.22
8.9069996 -2.892 -0.039000001 0.40000001
10.046 -3.224 -0.07 0.23999999
9.6940002 -3.0780001 -0.059999999 0.25999999
9.7040005 -3.0480001 -0.059999999 0.34
9.3269997 -2.8989999 -0.050000001 0.30000001
7.98 -2.47 -0.013 0.28999999
7.961 -2.437 -0.012 0.28999999
9.6239996 -2.9070001 -0.057 0.14
9.4200001 -2.8139999 -0.052000001 0.56
9.6339998 -2.8440001 -0.057 0.22
9.8789997 -2.882 -0.064000003 0.34
9.9840002 -2.8959999 -0.066 0.28
10.275 -2.944 -0.074000001 0.30000001
9.9879999 -2.829 -0.066 0.36000001
10.132 -2.835 -0.07 0.40000001
10.154 -2.8069999 -0.07 0.31999999
10.283 -2.8069999 -0.072999999 0.31
10.17 -2.7420001 -0.07 0.47
10.479 -2.8080001 -0.078000002 0.36000001
10.585 -2.8 -0.081 0.20999999
10.348 -2.7030001 -0.074000001 0.33000001
10.41 -2.684 -0.075999998 0.27000001
10.269 -2.6140001 -0.071999997 0.16
10.214 -2.566 -0.07 0.57999998
10.631 -2.6340001 -0.081 0.28999999
10.785 -2.654 -0.085000001 0.25999999
10.83 -2.6289999 -0.086000003 0.66000003
11.089 -2.654 -0.093000002 0.28999999
11.265 -2.6589999 -0.097000003 0.38
11.523 -2.681 -0.104 0.30000001
11.625 -2.6659999 -0.106 0
12.548 -2.8340001 -0.131 0.12
12.709 -2.849 -0.13500001 0.12
13.136 -2.9000001 -0.146 0.23
13.205 -2.872 -0.148 0.44
16.549 -3.5380001 -0.237 0.20999999
13.534 -2.8540001 -0.156 0.15000001
13.833 -2.8710001 -0.164 0.18000001
13.983 -2.8559999 -0.167 0.43000001
14.107 -2.858 -0.171 0.27000001
14.324 -2.855 -0.176 0.28
14.515 -2.845 -0.18099999 0.23999999
14.475 -2.7909999 -0.18000001 0.23
14.35 -2.72 -0.176 0.22
14.451 -2.6919999 -0.17900001 0.30000001
14.361 -2.6289999 -0.176 0.41999999
16.263 -2.8940001 -0.226 0.44999999
16.454 -2.875 -0.23100001 0.18000001
16.934 -2.9030001 -0.243 0.23
17.229 -2.8970001 -0.25099999 0.19
17.413 -2.872 -0.255 0.16
17.805 -2.9070001 -0.266 0.25
17.914 -2.8670001 -0.26800001 0.20999999
16.143 -2.5339999 -0.221 0.28999999
16.098 -2.4749999 -0.22 0.36000001
16.084 -2.4219999 -0.219 0.36000001
16.056 -2.3659999 -0.21799999 0.36000001
16.070999 -2.3169999 -0.219 0.33000001
16.09 -2.2939999 -0.219 0.34
16.113001 -2.2449999 -0.22 0.36000001
16.158001 -2.2 -0.221 0.47
16.242001 -2.1589999 -0.223 0.2
21.827 -2.823 -0.36899999 0.38999999
22.225 -2.803 -0.37900001 0.20999999
22.355 -2.747 -0.38299999 0.31
23.844 -2.891 -0.42199999 0.23
23.445999 -2.7679999 -0.41100001 0.25999999
23.343 -2.6819999 -0.40799999 0.18000001
22.219 -2.483 -0.37799999 0.34
22.226 -2.4130001 -0.37799999 0.36000001
22.232 -2.3429999 -0.37799999 0.30000001
22.683001 -2.3180001 -0.38999999 0.19
22.775999 -2.2920001 -0.39199999 0.51999998
22.992001 -2.24 -0.398 0.25999999
23.295 -2.1960001 -0.405 0.20999999
22.827999 -2.0799999 -0.39300001 0.27000001
22.819 -2.007 -0.39300001 0.28999999
22.855 -1.937 -0.39300001 0.36000001
22.900999 -1.869 -0.39399999 0.14
32.451 -2.586 -0.64399999 0
33.383999 -2.5539999 -0.66799998 0
34.040001 -2.4960001 -0.685 0
35.369999 -2.4809999 -0.72000003 0
36.464001 -2.4419999 -0.74800003 0
37.685001 -2.404 -0.77999997 0.039999999
39.062 -2.4289999 -0.81599998 0.16
38.841999 -2.293 -0.81 0
38.757 -2.1659999 -0.80800003 0
42.487 -2.2379999 -0.90499997 0
43.928001 -2.175 -0.94199997 0
45.773998 -2.1210001 -0.99000001 0
49.243 -2.0469999 -1.081 0
53.337002 -1.88 -1.187 0
54.282001 -1.742 -1.212 0
56.391998 -1.631 -1.266 0
57.708 -1.487 -1.301 0
62.285 -1.408 -1.42 0
62.469002 -1.313 -1.425 0
63.488998 -1.135 -1.451 0
30.868999 0.07 -0.78399998 0
30.84 0.167 -0.78299999 0
30.84 0.264 -0.78299999 0
30.830999 0.361 -0.78200001 0
30.820999 0.458 -0.78200001 0
30.82 0.55400002 -0.78200001 0
30.837 0.60299999 -0.78299999 0
30.847 0.69999999 -0.78299999 0
30.834 0.79699999 -0.78299999 0
30.846001 0.89399999 -0.78299999 0
60.800999 3.1719999 -1.744 0
60.236 6.4770002 -1.735 0
59.755001 6.6149998 -1.72 0
57.993999 6.605 -1.664 0
56.601002 6.6269999 -1.62 0
55.137001 6.5440001 -1.573 0
54.291 6.6170001 -1.546 0
53.966 6.75 -1.536 0
53.335999 6.842 -1.517 0
52.813 6.9439998 -1.501 0
52.236 7.0349998 -1.483 0
51.439999 7.0110002 -1.457 0
51.341 7.1620002 -1.455 0
50.648998 7.2280002 -1.433 0
50.187 7.323 -1.419 0
50.014 7.4580002 -1.414 0
49.810001 7.5879998 -1.408 0
50.820999 7.9050002 -1.442 0
50.548 7.9439998 -1.433 0
50.251999 8.059 -1.425 0
49.978001 8.177 -1.4170001 0
49.986 8.3389997 -1.418 0
49.624001 8.4390001 -1.4069999 0
49.023998 8.4960003 -1.388 0
48.873001 8.6280003 -1.3839999 0
48.692001 8.6750002 -1.3789999 0
48.34 8.7700005 -1.368 0
49.034 9.0539999 -1.392 0
48.929001 9.1940002 -1.3890001 0
49.188 9.4029999 -1.399 0
48.813 9.4899998 -1.387 0
48.453999 9.5790005 -1.376 0
48.25 9.6169996 -1.37 0
47.332001 9.5889997 -1.341 0
48.130001 9.908 -1.368 0
48.139999 10.068 -1.37 0
45.043999 9.5699997 -1.27 0
48.348999 10.429 -1.3789999 0
48.147999 10.544 -1.373 0
47.834999 10.554 -1.364 0
45.712002 10.238 -1.295 0
47.150002 10.715 -1.3430001 0
46.584 10.74 -1.326 0
45.923 10.741 -1.3049999 0
45.333 10.753 -1.2869999 0
44.612 10.657 -1.2640001 0
46.366001 11.229 -1.323 0
37.589001 9.2329998 -1.035 0.13
37.598999 9.3610001 -1.036 0.25
37.275002 9.4049997 -1.026 0.23999999
37.185001 9.507 -1.024 0.28999999
37.154999 9.6230001 -1.024 0.34
37.141998 9.6820002 -1.024 0.34999999
37.136002 9.8059998 -1.025 0.34
37.034 9.9029999 -1.023 0.28999999
37.062 10.036 -1.025 0.27000001
37.208 10.2 -1.03 0.34999999
37.264 10.342 -1.033 0
43.744999 12.284 -1.25 0.07
45.013 12.715 -1.293 0.079999998
44.554001 12.737 -1.279 0.19
44.127998 12.766 -1.266 0.11
43.868999 12.84 -1.2589999 0.16
43.411999 12.855 -1.245 0.12
43.157001 12.927 -1.238 0.079999998
42.757999 12.955 -1.226 0.090000004
42.451 12.935 -1.216 0.19
42.426998 13.073 -1.217 0.11
42.509998 13.245 -1.221 0.14
42.231998 13.304 -1.2130001 0
42.110001 13.411 -1.21 0
41.955002 13.507 -1.206 0
41.493999 13.503 -1.192 0
41.216999 13.485 -1.184 0
42.095001 13.918 -1.215 0
42.762001 14.287 -1.239 0
41.847 14.129 -1.209 0
42.075001 14.353 -1.219 0.07
41.833 14.417 -1.212 0
41.27 14.296 -1.194 0
41.258999 14.438 -1.1950001 0
40.521999 14.323 -1.171 0
41.577999 14.843 -1.209 0
41.696999 15.033 -1.214 0
38.905998 14.167 -1.1210001 0
26.889 11.962 -0.73799998 0.13
26.860001 12.05 -0.73799998 0.19
26.827999 12.137 -0.73799998 0.20999999
26.839001 12.244 -0.74000001 0.31999999
26.813 12.334 -0.74000001 0.40000001
26.75 12.356 -0.73900002 0.38
26.829 12.495 -0.74299997 0.18000001
26.974001 12.665 -0.74900001 0.15000001
26.879999 12.724 -0.74699998 0.28999999
26.799999 12.79 -0.74599999 0.34999999
26.794001 12.891 -0.74699998 0
47.021 22.782 -1.4680001 0
46.818001 22.775 -1.462 0.050000001
46.698002 22.898001 -1.46 0.079999998
46.564999 23.014999 -1.4579999 0
46.455002 23.142 -1.457 0
46.308998 23.250999 -1.454 0
46.212002 23.385 -1.4529999 0
46.105999 23.514 -1.452 0
46.018002 23.559999 -1.45 0
45.884998 23.674 -1.448 0
45.778 23.801001 -1.447 0
45.633999 23.909 -1.4450001 0
45.411999 23.975 -1.439 0
45.203999 24.047001 -1.434 0
45.102001 24.174999 -1.434 0
42.053001 22.627001 -1.324 0
41.891998 22.711 -1.321 0
41.652 22.750999 -1.3150001 0
39.421001 22.59 -1.25 0
39.201 22.628 -1.244 0
38.917 22.628 -1.237 0
38.710999 22.671 -1.232 0
38.595001 22.684999 -1.229 0
38.479 22.778999 -1.227 0.07
38.407001 22.9 -1.227 0.13
14.783 8.9589996 -0.34900001 0.30000001
14.608 8.9160004 -0.34299999 0.49000001
14.525 8.9289999 -0.34099999 0.31999999
14.48 8.9329996 -0.34 0.52999997
14.435 8.9680004 -0.34 0.28999999
14.376 8.9940004 -0.338 0.5
14.34 9.0340004 -0.338 0.38
14.299 9.0710001 -0.338 0.38999999
14.281 9.1230001 -0.338 0.34999999
14.256 9.1379995 -0.338 0.66000003
14.248 9.1960001 -0.338 0.33000001
14.222 9.243 -0.33899999 0.63999999
14.198 9.2910004 -0.33899999 0.33000001
14.191 9.3500004 -0.34 0.52999997
14.21 9.4259996 -0.34099999 0.36000001
14.215 9.4940004 -0.34299999 0.62
14.464 9.6929998 -0.35299999 0.19
14.454 9.7519999 -0.354 0
32.673 22.305 -1.062 0
32.473999 22.319 -1.057 0
32.237999 22.306 -1.05 0
32.056 22.33 -1.046 0
31.927 22.315001 -1.0420001 0.090000004
31.823999 22.392 -1.041 0.18000001
31.750999 22.489 -1.041 0.37
31.684999 22.593 -1.041 0.12
31.695999 22.902 -1.0470001 0.88999999
31.622 23.000999 -1.0470001 0.93000001
31.620001 23.075001 -1.049 0.92000002
31.610001 23.219999 -1.051 0.72000003
31.721001 23.455 -1.058 0
31.615999 23.532 -1.057 0
32.993 24.878 -1.118 0.2
32.834999 24.922001 -1.115 0
29.118999 22.322001 -0.97000003 0
28.938999 22.329 -0.96600002 0
28.752001 22.329 -0.96100003 0
26.754 22.445 -0.91299999 0
26.389999 22.282 -0.90100002 0
26.32 22.365 -0.90100002 0
25.629999 23.056999 -0.89899999 0.38
25.627001 23.201 -0.90200001 0.76999998
25.783001 23.49 -0.912 0.74000001
25.687 23.549999 -0.91100001 0
30.059999 27.902 -1.108 0
30.02 27.954 -1.109 0
29.906 28.023001 -1.107 0
29.771 28.073 -1.105 0
29.646 28.132 -1.104 0
29.493999 28.164 -1.101 0
29.379999 28.232 -1.1 0
29.264 28.298 -1.099 0
29.219 28.344 -1.099 0
29.136 28.441 -1.099 0
29.018999 28.506001 -1.098 0
28.868 28.535999 -1.095 0.1
24.867001 24.740999 -0.91799998 0.19
24.764 24.794001 -0.917 0
28.441 28.559999 -1.086 0
24.820999 25.086 -0.92500001 0
28.099001 28.573 -1.0779999 0
27.914 28.563999 -1.074 0
27.785999 28.613001 -1.072 0
27.649 28.650999 -1.0700001 0
27.506001 28.683001 -1.068 0
27.427999 28.691 -1.066 0
27.273001 28.709 -1.063 0
27.134001 28.743999 -1.061 0
26.999001 28.781 -1.059 0
26.861 28.813999 -1.056 0
26.745001 28.872 -1.0549999 0
26.632999 28.933001 -1.054 0
26.555 28.938999 -1.053 0
26.422001 28.976999 -1.051 0
26.283001 29.006001 -1.048 0.07
26.122 29.011 -1.045 0
25.976 29.032 -1.043 0
25.917999 29.150999 -1.044 0.12
25.84 29.156 -1.043 0.28999999
25.722 29.207001 -1.041 0.11
25.569 29.218 -1.038 0.16
25.393 29.202 -1.034 0.28999999
25.226 29.194 -1.031 0.2
25.096001 29.229 -1.029 0.18000001
24.945999 29.24 -1.026 0.28999999
24.823 29.188999 -1.022 0.16
