# .PCD v0.7 - Point Cloud Data file format
VERSION 0.7
FIELDS x y z intensity
SIZE 4 4 4 4
TYPE F F F F
COUNT 1 1 1 1
WIDTH 1446
HEIGHT 1
VIEWPOINT 0 0 0 1 0 0 0
POINTS 1446
DATA ascii
-6.329 -12.851 -0.60699999 0.28999999
-6.2659998 -12.824 -0.60399997 0.54000002
-6.243 -12.879 -0.60600001 0.31
-6.1820002 -12.856 -0.60399997 0.5
-6.1989999 -12.943 -0.60900003 0.27000001
-6.1279998 -12.899 -0.60500002 0.44
-6.092 -12.929 -0.60500002 0.40000001
-6.0370002 -12.916 -0.60299999 0.41
-6.027 -13.002 -0.60699999 0.34
-6.0110002 -13.075 -0.611 0.44999999
-6.5450001 -14.348 -0.68900001 0.44999999
-6.059 -13.343 -0.62599999 0.25
-5.9200001 -13.147 -0.61199999 0.54000002
-6.0619998 -13.574 -0.63800001 0.31
-6.2259998 -14.058 -0.66600001 0.27000001
-6.1760001 -14.065 -0.66600001 0.44
-6.1360002 -14.093 -0.66600001 0.44999999
-6.098 -14.127 -0.667 0.41
-6.112 -14.221 -0.67199999 0.30000001
-6.1859999 -14.517 -0.68900001 0.57999998
-13.215 -31.207001 -1.7130001 0.25
-13.187 -31.416 -1.723 0.14
-5.9980001 -14.451 -0.68199998 0.16
-5.4070001 -13.151 -0.60100001 0.49000001
-5.3280001 -13.075 -0.59500003 0.36000001
-5.2249999 -12.882 -0.583 0.41999999
-5.1950002 -12.924 -0.58499998 0.41999999
-5.1459999 -12.92 -0.583 0.36000001
-5.1079998 -12.942 -0.58399999 0.33000001
-5.0500002 -12.915 -0.58099997 0.41999999
-4.9949999 -12.894 -0.579 0.34
-4.9460001 -12.887 -0.57800001 0.47999999
-4.9299998 -12.906 -0.57800001 0.37
-4.9039998 -12.959 -0.58099997 0.47
-4.9330001 -13.159 -0.59200001 0.37
-4.8299999 -13.01 -0.58200002 0.31
-4.7690001 -12.971 -0.57800001 0.50999999
-4.6820002 -12.86 -0.57099998 0.31
-4.6609998 -12.863 -0.57099998 0.43000001
-4.6399999 -12.932 -0.574 0.33000001
-4.6020002 -12.956 -0.57499999 0.44999999
-4.5500002 -12.939 -0.57300001 0.28999999
-4.4780002 -12.863 -0.56699997 0.49000001
-4.4450002 -12.897 -0.56800002 0.34999999
-4.4169998 -12.947 -0.57099998 0.47
-4.3759999 -12.894 -0.56699997 0.41999999
-4.3379998 -12.915 -0.56699997 0.34
-4.2839999 -12.889 -0.565 0.44999999
-4.243 -12.902 -0.565 0.41
-4.2030001 -12.917 -0.565 0.33000001
-4.1529999 -12.902 -0.56300002 0.43000001
-4.1139998 -12.919 -0.56400001 0.38
-4.112 -12.982 -0.56699997 0.36000001
-4.0780001 -13.016 -0.56800002 0.44
-4.0170002 -12.966 -0.565 0.33000001
-3.9809999 -12.994 -0.565 0.50999999
-3.9449999 -13.019 -0.56599998 0.31
-3.8900001 -12.988 -0.56400001 0.41
-3.8629999 -13.046 -0.56599998 0.40000001
-3.835 -13.025 -0.565 0.46000001
-3.803 -13.07 -0.56699997 0.41
-3.723 -12.947 -0.55900002 0.40000001
-3.684 -12.963 -0.55900002 0.38999999
-3.6170001 -12.882 -0.55400002 0.38
-3.5780001 -12.897 -0.55400002 0.41
-3.569 -12.943 -0.55599999 0.41
-3.5320001 -12.97 -0.55699998 0.23
-3.4690001 -12.898 -0.55199999 0.44999999
-3.4389999 -12.947 -0.55500001 0.38999999
-3.385 -12.908 -0.55199999 0.41
-3.3399999 -12.903 -0.551 0.41
-3.309 -12.95 -0.55299997 0.46000001
-3.283 -12.932 -0.551 0.33000001
-3.2379999 -12.925 -0.55000001 0.38
-3.194 -12.921 -0.55000001 0.40000001
-3.1470001 -12.908 -0.54799998 0.41
-3.095 -12.871 -0.546 0.46000001
-3.0580001 -12.893 -0.546 0.33000001
-3.023 -12.926 -0.54799998 0.50999999
-3.006 -12.944 -0.54799998 0.36000001
-2.9649999 -12.955 -0.54900002 0.41999999
-2.928 -12.978 -0.54900002 0.47999999
-2.8699999 -12.909 -0.54500002 0.40000001
-2.8599999 -13.059 -0.55299997 0.28999999
-2.796 -12.964 -0.54699999 0.44
-2.776 -13.067 -0.55199999 0.34
-2.7739999 -13.159 -0.55699998 0.46000001
-2.7219999 -13.115 -0.55400002 0.31
-2.6659999 -13.053 -0.55000001 0.47
-2.619 -13.034 -0.54900002 0.28999999
-2.572 -13.009 -0.54699999 0.47
-2.5369999 -13.046 -0.54900002 0.34
-2.493 -13.042 -0.54799998 0.46000001
-2.4660001 -13.011 -0.546 0.28
-2.428 -13.034 -0.54699999 0.47999999
-2.3829999 -13.022 -0.546 0.28
-2.3369999 -12.998 -0.54400003 0.62
-2.2950001 -13.001 -0.54400003 0.27000001
-2.2590001 -13.036 -0.54500002 0.51999998
-2.2520001 -13.116 -0.55000001 0.31999999
-2.204 -13.082 -0.54699999 0.41
-2.175 -13.16 -0.551 0.28999999
-2.1289999 -13.141 -0.55000001 0.49000001
-2.089 -13.153 -0.55000001 0.31999999
-2.033 -13.071 -0.54500002 0.56999999
-1.9910001 -13.066 -0.54400003 0.25999999
-1.9680001 -13.055 -0.54400003 0.55000001
-1.934 -13.106 -0.546 0.40000001
-1.892 -13.111 -0.546 0.38
-1.85 -13.108 -0.546 0.44999999
-1.793 -13 -0.53899997 0.37
-1.743 -12.938 -0.53500003 0.40000001
-1.7079999 -12.987 -0.53799999 0.40000001
-1.6900001 -13.009 -0.53899997 0.41999999
-1.6440001 -12.973 -0.53600001 0.43000001
-1.6109999 -13.045 -0.54000002 0.41
-1.569 -13.037 -0.54000002 0.41
-1.53 -13.057 -0.54000002 0.38
-1.485 -13.03 -0.53899997 0.47
-1.469 -13.07 -0.54100001 0.28999999
-1.42 -13.003 -0.537 0.44999999
-1.377 -12.992 -0.53600001 0.36000001
-1.34 -13.032 -0.53799999 0.5
-1.304 -13.082 -0.54000002 0.25
-1.2539999 -13.002 -0.53600001 0.49000001
-1.215 -13.02 -0.53600001 0.33000001
-1.199 -13.066 -0.53899997 0.44
-1.1670001 -13.169 -0.54500002 0.34999999
-1.114 -13.041 -0.537 0.43000001
-1.075 -13.068 -0.53899997 0.50999999
-1.09 -13.768 -0.57800001 0.25
-0.99599999 -13.119 -0.54100001 0.34999999
-0.95999998 -13.19 -0.54500002 0.38999999
-0.93400002 -13.119 -0.54100001 0.34
-0.889 -13.066 -0.53799999 0.5
-0.72000003 -11.152 -0.42899999 0.19
-0.68099999 -11.107 -0.426 0.47
-0.64700001 -11.117 -0.42699999 0.38999999
-0.61199999 -11.119 -0.42699999 0.44
-0.57700002 -11.117 -0.42699999 0.40000001
-0.55900002 -11.114 -0.426 0.41
-0.52399999 -11.115 -0.426 0.55000001
-0.57700002 -13 -0.53299999 0.34
-0.53500003 -12.99 -0.53200001 0.34
-0.50199997 -13.185 -0.54299998 0.44999999
-0.461 -13.196 -0.54400003 0.37
-0.44 -13.187 -0.54299998 0.43000001
-0.396 -13.105 -0.53799999 0.43000001
-0.36000001 -13.267 -0.54799998 0.38999999
-0.315 -13.143 -0.54000002 0.38999999
-0.27399999 -13.178 -0.542 0.36000001
-0.23199999 -13.117 -0.53899997 0.46000001
-0.192 -13.199 -0.54299998 0.30000001
-0.17 -13.163 -0.54100001 0.54000002
-0.12800001 -13.114 -0.53899997 0.37
-0.089000002 -13.258 -0.54699999 0.38999999
-0.046999998 -13.248 -0.546 0.51999998
-0.0049999999 -13.332 -0.551 0.25
0.035999998 -13.134 -0.54000002 0.47999999
0.078000002 -13.122 -0.53899997 0.36000001
0.097999997 -13.092 -0.537 0.44999999
0.139 -13.074 -0.53600001 0.34
0.18000001 -13.051 -0.53500003 0.47999999
0.222 -13.103 -0.53799999 0.31
0.26300001 -13.106 -0.53799999 0.47999999
0.30399999 -13.087 -0.537 0.30000001
0.345 -13.09 -0.537 0.47999999
0.37200001 -13.339 -0.55199999 0.44999999
0.412 -13.294 -0.54900002 0.34
0.45199999 -13.221 -0.54500002 0.28999999
0.49200001 -13.167 -0.542 0.5
0.53100002 -13.124 -0.54000002 0.41
0.574 -13.164 -0.542 0.30000001
0.59500003 -13.163 -0.542 0.55000001
0.63499999 -13.139 -0.54100001 0.25999999
0.68199998 -13.239 -0.54699999 0.44
0.72500002 -13.269 -0.54799998 0.43000001
0.76700002 -13.282 -0.54900002 0.47999999
0.81300002 -13.345 -0.55299997 0.28999999
0.85000002 -13.257 -0.54799998 0.40000001
0.87099999 -13.266 -0.54900002 0.38
0.91299999 -13.267 -0.54900002 0.43000001
0.95300001 -13.232 -0.54699999 0.31
0.99299997 -13.217 -0.54699999 0.51999998
1.041 -13.29 -0.551 0.41
1.098 -13.487 -0.56199998 0.31999999
1.136 -13.43 -0.55900002 0.60000002
1.166 -13.536 -0.565 0.28
1.206 -13.496 -0.56300002 0.50999999
1.238 -13.385 -0.55699998 0.27000001
1.301 -13.602 -0.56999999 0.49000001
1.341 -13.572 -0.56800002 0.41
1.373 -13.458 -0.56199998 0.36000001
1.411 -13.414 -0.56 0.38999999
1.434 -13.428 -0.56099999 0.5
1.48 -13.463 -0.56300002 0.31999999
1.528 -13.504 -0.565 0.46000001
1.564 -13.449 -0.56300002 0.23
1.598 -13.373 -0.55900002 0.52999997
1.646 -13.417 -0.56099999 0.28
1.668 -13.419 -0.56199998 0.55000001
1.716 -13.461 -0.56400001 0.25999999
1.786 -13.673 -0.57700002 0.55000001
1.804 -13.48 -0.56599998 0.31
1.873 -13.668 -0.57700002 0.38999999
1.929 -13.759 -0.583 0.44999999
1.955 -13.632 -0.57599998 0.30000001
1.999 -13.785 -0.58499998 0.52999997
2.0480001 -13.818 -0.58700001 0.41
2.0769999 -13.713 -0.58099997 0.37
2.1400001 -13.835 -0.58899999 0.37
2.1470001 -13.599 -0.57599998 0.41999999
2.2049999 -13.687 -0.58099997 0.38999999
2.253 -13.707 -0.583 0.38
2.2809999 -13.747 -0.58499998 0.47999999
2.3080001 -13.644 -0.579 0.47999999
2.2780001 -13.209 -0.55500001 0.23
2.319 -13.2 -0.55500001 0.2
2.3610001 -13.193 -0.55500001 0.49000001
2.3989999 -13.165 -0.55400002 0.56
2.441 -13.162 -0.55400002 0.54000002
2.464 -13.172 -0.55500001 0.52999997
2.5079999 -13.18 -0.55599999 0.63
2.6159999 -13.291 -0.56300002 0.58999997
2.7539999 -13.768 -0.59100002 0.30000001
2.8239999 -13.891 -0.59899998 0.31999999
2.8440001 -13.88 -0.59799999 0.41
2.905 -13.954 -0.60299999 0.30000001
2.9560001 -13.978 -0.60500002 0.41999999
2.96 -13.783 -0.59399998 0.34999999
3.016 -13.83 -0.597 0.41
3.102 -14.017 -0.60900003 0.22
3.1789999 -14.154 -0.61699998 0.44
3.197 -14.133 -0.616 0.38
3.2119999 -13.991 -0.60900003 0.37
3.2550001 -13.977 -0.60900003 0.28
3.3 -13.974 -0.60900003 0.41
3.3340001 -13.919 -0.60600001 0.43000001
3.3469999 -13.78 -0.59899998 0.25999999
3.4430001 -13.987 -0.61199999 0.44999999
3.441 -13.883 -0.60600001 0.28999999
3.4489999 -13.73 -0.59799999 0.41
3.4679999 -13.625 -0.59200001 0.30000001
3.5469999 -13.753 -0.60000002 0.38999999
3.6289999 -13.892 -0.60900003 0.37
3.658 -13.825 -0.60600001 0.41
3.6949999 -13.79 -0.60399997 0.34
3.74 -13.871 -0.60900003 0.36000001
3.743 -13.709 -0.60100001 0.38
3.776 -13.661 -0.59799999 0.43000001
3.8510001 -13.766 -0.60500002 0.40000001
3.8740001 -13.681 -0.60100001 0.28999999
3.9849999 -13.907 -0.61500001 0.43000001
3.994 -13.858 -0.61299998 0.30000001
4.033 -13.828 -0.61199999 0.38999999
4.059 -13.756 -0.60799998 0.34
4.0809999 -13.673 -0.60399997 0.34999999
4.2340002 -14.025 -0.625 0.33000001
4.296 -14.073 -0.62900001 0.41999999
4.2670002 -13.821 -0.61500001 0.37
4.2410002 -13.657 -0.60600001 0.31999999
4.2800002 -13.633 -0.60500002 0.28999999
4.381 -13.804 -0.616 0.38999999
4.3579998 -13.581 -0.60399997 0.34999999
4.4169998 -13.62 -0.60699999 0.31
4.4949999 -13.713 -0.61299998 0.43000001
4.5450001 -13.719 -0.61400002 0.33000001
4.5949998 -13.799 -0.61900002 0.38999999
4.6129999 -13.709 -0.61500001 0.36000001
4.7090001 -13.852 -0.62400001 0.38999999
4.7459998 -13.818 -0.62300003 0.44
4.6389999 -13.367 -0.597 0.18000001
4.8569999 -13.857 -0.62699997 0.49000001
4.8390002 -13.737 -0.62099999 0.34999999
4.8569999 -13.65 -0.616 0.28999999
5.04 -14.026 -0.63999999 0.44999999
5.0760002 -13.987 -0.63800001 0.25
5.0760002 -13.851 -0.63099998 0.5
5.138 -13.886 -0.634 0.33000001
5.2129998 -13.954 -0.639 0.41999999
5.263 -14.02 -0.64399999 0.34999999
5.2870002 -13.951 -0.64099997 0.31
5.3169999 -13.897 -0.63800001 0.43000001
5.368 -13.899 -0.63999999 0.41
5.3839998 -13.814 -0.63499999 0.31999999
5.4850001 -13.942 -0.64399999 0.37
5.5089998 -13.94 -0.64499998 0.38
5.5380001 -13.886 -0.64200002 0.36000001
5.5630002 -13.82 -0.639 0.47
5.6290002 -13.858 -0.64300001 0.41
5.6900001 -13.885 -0.64600003 0.28999999
5.717 -13.826 -0.64300001 0.38999999
5.744 -13.768 -0.64099997 0.36000001
5.7639999 -13.757 -0.63999999 0.34
5.8800001 -13.912 -0.65100002 0.25999999
5.9260001 -13.899 -0.65100002 0.41
5.9689999 -13.876 -0.65100002 0.44
6.0100002 -13.852 -0.65100002 0.33000001
6.0689998 -13.87 -0.653 0.38999999
6.1680002 -13.977 -0.66100001 0.33000001
6.27 -14.148 -0.67199999 0.20999999
6.2789998 -14.05 -0.667 0.56
6.2989998 -13.975 -0.66399997 0.33000001
6.302 -13.864 -0.65799999 0.34999999
6.3709998 -13.901 -0.662 0.40000001
6.3579998 -13.757 -0.65399998 0.31
6.402 -13.739 -0.65399998 0.43000001
6.4619999 -13.812 -0.65899998 0.33000001
6.5050001 -13.792 -0.65899998 0.34999999
6.737 -14.168 -0.68400002 0.34999999
6.8140001 -14.216 -0.68800002 0.37
6.6609998 -13.784 -0.66299999 0.30000001
6.8309999 -14.023 -0.67900002 0.30000001
6.6939998 -13.686 -0.65899998 0.46000001
6.8000002 -13.794 -0.667 0.31999999
6.855 -13.796 -0.66799998 0.34
6.9310002 -13.84 -0.67199999 0.34
7.027 -13.922 -0.67900002 0.38999999
7.0489998 -13.857 -0.676 0.28999999
7.0879998 -13.826 -0.676 0.47
6.895 -13.397 -0.64899999 0.30000001
7.3590002 -14.192 -0.70099998 0.33000001
7.3509998 -14.067 -0.69499999 0.31999999
7.4029999 -14.06 -0.69599998 0.38
7.4219999 -13.989 -0.69300002 0.34
7.5279999 -14.082 -0.69999999 0.43000001
7.4580002 -13.845 -0.68599999 0.37
7.553 -13.969 -0.69499999 0.34
7.6929998 -14.123 -0.70599997 0.34999999
7.6830001 -14 -0.69999999 0.33000001
7.75 -14.016 -0.70300001 0.34999999
7.8000002 -14.004 -0.70300001 0.41
7.8010001 -13.903 -0.69800001 0.37
7.829 -13.85 -0.69700003 0.38
7.829 -13.798 -0.69400001 0.38999999
7.8260002 -13.694 -0.68900001 0.28999999
7.9260001 -13.768 -0.69499999 0.34999999
7.9640002 -13.734 -0.69499999 0.41999999
8.0360003 -13.759 -0.69800001 0.31999999
8.2299995 -13.99 -0.71499997 0.34
8.2840004 -13.982 -0.71600002 0.40000001
8.2770004 -13.919 -0.713 0.34
8.408 -14.04 -0.722 0.31
8.4569998 -14.022 -0.72299999 0.44
8.3900003 -13.811 -0.71100003 0.28999999
8.46 -13.829 -0.71399999 0.27000001
8.5699997 -13.911 -0.72100002 0.34999999
8.5790005 -13.876 -0.71899998 0.44999999
8.6379995 -13.874 -0.72100002 0.31
8.7189999 -13.906 -0.72500002 0.31
8.8129997 -13.96 -0.73100001 0.47999999
8.7589998 -13.777 -0.72000003 0.38999999
8.9639997 -14.004 -0.73699999 0.31
8.6820002 -13.468 -0.70300001 0.28999999
8.7069998 -13.459 -0.70300001 0.41999999
8.7670002 -13.46 -0.70499998 0.41
8.8380003 -13.476 -0.708 0.38
8.8979998 -13.475 -0.70999998 0.47
8.9589996 -13.475 -0.71200001 0.34
9.0120001 -13.464 -0.713 0.40000001
9.0819998 -13.477 -0.71600002 0.28999999
9.1190004 -13.486 -0.71799999 0.44999999
9.1820002 -13.487 -0.72000003 0.56
9.2320004 -13.469 -0.72000003 0.19
9.3140001 -13.498 -0.72399998 0.38999999
9.3780003 -13.5 -0.72600001 0.41999999
9.441 -13.5 -0.72899997 0.44999999
9.4890003 -13.524 -0.73100001 0.31
9.5360003 -13.501 -0.73199999 0.44
9.6120005 -13.518 -0.73500001 0.34999999
9.6660004 -13.504 -0.736 0.44
9.7309999 -13.504 -0.73799998 0.28
9.7869997 -13.493 -0.74000001 0.47999999
9.8620005 -13.508 -0.74299997 0.34
9.8990002 -13.513 -0.74400002 0.44999999
9.9680004 -13.519 -0.74699998 0.41
10.054 -13.545 -0.75099999 0.28999999
10.106 -13.526 -0.75199997 0.55000001
10.201 -13.565 -0.75700003 0.25999999
10.24 -13.528 -0.75599998 0.44999999
10.303 -13.523 -0.75800002 0.44999999
10.359 -13.553 -0.76200002 0.27000001
10.422 -13.547 -0.764 0.56999999
10.484 -13.54 -0.76499999 0.23
10.573 -13.566 -0.76999998 0.5
10.644 -13.569 -0.77200001 0.28
10.705 -13.559 -0.77399999 0.43000001
10.778 -13.563 -0.77700001 0.38999999
10.809 -13.559 -0.778 0.41999999
10.882 -13.564 -0.77999997 0.31
10.936 -13.543 -0.78100002 0.51999998
11.13 -13.695 -0.79500002 0.31999999
11.393 -13.931 -0.815 0.37
11.45 -13.911 -0.81599998 0.34
11.463 -13.882 -0.815 0.38999999
11.598 -13.956 -0.82300001 0.30000001
11.542 -13.8 -0.81400001 0.34
11.589 -13.769 -0.815 0.33000001
11.893 -14.04 -0.83700001 0.28999999
11.995 -14.071 -0.84299999 0.37
12.016 -14.006 -0.84100002 0.41
12.126 -14.09 -0.84799999 0.30000001
12.268 -14.166 -0.85699999 0.38
12.254 -14.059 -0.852 0.28999999
12.333 -14.061 -0.85500002 0.31999999
12.459 -14.115 -0.86199999 0.30000001
12.501 -14.073 -0.861 0.37
12.491 -13.973 -0.85699999 0.31999999
12.483 -13.92 -0.85399997 0.44
12.703 -14.077 -0.86900002 0.25999999
12.865 -14.167 -0.87900001 0.34999999
12.847 -14.057 -0.87400001 0.30000001
12.839 -13.961 -0.87 0.34
12.867 -13.903 -0.86799997 0.28999999
12.875 -13.868 -0.86699998 0.46000001
13.006 -13.921 -0.87400001 0.34
13.123 -13.959 -0.88 0.34
12.857 -13.589 -0.85500002 0.25999999
13.238 -13.905 -0.88300002 0.31
13.531 -14.125 -0.903 0.30000001
13.66 -14.17 -0.91000003 0.41
13.774 -14.243 -0.917 0.31999999
13.807 -14.188 -0.91600001 0.28
13.86 -14.154 -0.917 0.37
13.95 -14.156 -0.921 0.31
13.919 -14.036 -0.91500002 0.31999999
14.003 -14.032 -0.91799998 0.34
14.115 -14.056 -0.92299998 0.28999999
14.247 -14.144 -0.93199998 0.28999999
14.35 -14.156 -0.93699998 0.34
14.389 -14.106 -0.93599999 0.37
14.467 -14.094 -0.93900001 0.33000001
14.613 -14.147 -0.94700003 0.33000001
14.685 -14.127 -0.949 0.36000001
14.719 -14.071 -0.94800001 0.31999999
14.774 -14.08 -0.95099998 0.34
14.776 -13.994 -0.94800001 0.28
14.832 -13.958 -0.949 0.44
15.017 -14.044 -0.95999998 0.30000001
14.992 -13.933 -0.954 0.34
15.064 -13.911 -0.95599997 0.30000001
15.306 -14.046 -0.972 0.38
15.198 -13.904 -0.96200001 0.25
15.176 -13.795 -0.95700002 0.40000001
15.544 -14.042 -0.98199999 0.30000001
15.504 -13.917 -0.97500002 0.19
15.815 -14.108 -0.995 0.30000001
15.851 -14.051 -0.995 0.31999999
15.901 -14.051 -0.99699998 0.34
16.049999 -14.093 -1.005 0.28999999
16.160999 -14.1 -1.01 0.38
16.49 -14.297 -1.031 0.28999999
16.448 -14.171 -1.025 0.19
16.094 -13.777 -0.995 0.30000001
16.148001 -13.736 -0.99599999 0.36000001
16.261999 -13.789 -1.003 0.33000001
16.599001 -13.985 -1.024 0.25
16.561001 -13.865 -1.018 0.41999999
16.855 -14.021 -1.0369999 0.2
16.879999 -13.953 -1.035 0.25999999
16.884001 -13.867 -1.0319999 0.23
16.909 -13.843 -1.033 0.34
16.837999 -13.696 -1.024 0.16
17.239 -13.934 -1.05 0.28
17.283001 -13.88 -1.05 0.33000001
17.32 -13.82 -1.05 0.23
18.275 -14.49 -1.1160001 0.31
18.253 -14.379 -1.1109999 0.38
18.18 -14.275 -1.104 0.28999999
18.16 -14.168 -1.099 0.28
18.037001 -13.981 -1.087 0.23999999
17.665001 -13.603 -1.058 0.31999999
18.153 -13.889 -1.089 0.19
18.125 -13.777 -1.084 0.34999999
18.181 -13.73 -1.085 0.28999999
18.298 -13.774 -1.092 0.30000001
18.375 -13.741 -1.094 0.34
18.549 -13.781 -1.104 0.31
18.577999 -13.712 -1.103 0.34
18.594999 -13.635 -1.101 0.34
18.756001 -13.662 -1.109 0.31
18.924999 -13.695 -1.118 0.28
18.937 -13.658 -1.117 0.34
19.054001 -13.652 -1.122 0.38
19.229 -13.686 -1.132 0.25
19.302 -13.648 -1.1339999 0.23
19.378 -13.61 -1.136 0.46000001
19.945999 -13.916 -1.1720001 0.2
19.945999 -13.87 -1.171 0.28999999
20.023001 -13.83 -1.173 0.31
19.9 -13.653 -1.1619999 0.28
20.858 -14.215 -1.224 0.28999999
20.846001 -14.112 -1.22 0.19
20.940001 -14.079 -1.224 0.25
20.903999 -13.96 -1.2180001 0.28
20.900999 -13.911 -1.217 0.25999999
21.025 -13.898 -1.222 0.28999999
21.125 -13.869 -1.226 0.34
21.281 -13.876 -1.233 0.27000001
21.323999 -13.809 -1.233 0.30000001
21.263 -13.675 -1.226 0.20999999
17.902 -11.429 -0.99800003 0.30000001
17.856001 -11.36 -0.99400002 0.33000001
17.875 -11.293 -0.99299997 0.31
17.899 -11.23 -0.99199998 0.43000001
17.951 -11.184 -0.99299997 0.33000001
18.02 -11.149 -0.995 0.25999999
18.089001 -11.113 -0.99699998 0.54000002
22.368 -13.653 -1.279 0.2
22.513 -13.692 -1.2869999 0.25
22.627001 -13.665 -1.2920001 0.20999999
22.754 -13.644 -1.2970001 0.46000001
22.936001 -13.656 -1.306 0.25
23.537001 -13.914 -1.3430001 0.2
23.737 -13.932 -1.353 0.40000001
23.614 -13.81 -1.344 0.20999999
23.622999 -13.716 -1.342 0.31999999
24.243 -13.975 -1.3789999 0.25999999
24.261 -13.884 -1.378 0
32.672001 -18.572001 -1.9220001 0.1
32.622002 -18.408001 -1.915 0.22
25.881001 -14.491 -1.474 0.15000001
24.497999 -13.664 -1.383 0.40000001
24.725 -13.69 -1.395 0.11
24.889 -13.679 -1.403 0
25.069 -13.675 -1.4119999 0
25.268999 -13.682 -1.4220001 0.12
25.580999 -13.747 -1.439 0.16
25.704 -13.709 -1.444 0.14
25.781 -13.699 -1.448 0.49000001
26.608 -14.032 -1.498 0.16
26.834 -14.044 -1.51 0.38
26.811001 -13.925 -1.505 0.16
26.955999 -13.892 -1.512 0.25999999
27.355 -13.99 -1.534 0.16
27.679001 -14.101 -1.553 0.23
28.028 -14.169 -1.573 0.20999999
28.202 -14.146 -1.581 0.14
23.211 -11.546 -1.263 0.28
23.226 -11.462 -1.261 0.37
23.263 -11.39 -1.262 0.34
23.353001 -11.343 -1.265 0.31999999
29.264999 -14.166 -1.635 0.34999999
29.198 -14.02 -1.628 0.20999999
29.098 -13.859 -1.619 0.31999999
29.096001 -13.747 -1.617 0.23
29.250999 -13.708 -1.624 0.17
29.423 -13.676 -1.632 0.38999999
29.573999 -13.633 -1.638 0.20999999
29.747999 -13.657 -1.648 0.30000001
29.948999 -13.636 -1.658 0.25
30.228001 -13.648 -1.6720001 0.19
30.384001 -13.604 -1.679 0.44999999
30.541 -13.56 -1.686 0.23
30.601999 -13.472 -1.688 0.31
30.48 -13.304 -1.677 0
30.348 -13.19 -1.668 0
30.333 -13.07 -1.665 0
30.278 -12.933 -1.659 0
28.48 -11.952 -1.543 0.15000001
28.062 -11.673 -1.515 0.14
28.247999 -11.647 -1.525 0.34999999
27.042 -11.098 -1.45 0.20999999
27.731001 -11.28 -1.49 0.23
27.568001 -11.113 -1.478 0.20999999
27.67 -11.053 -1.482 0.25
27.794001 -11.001 -1.487 0.27000001
27.822001 -10.912 -1.487 0.30000001
27.802 -10.854 -1.485 0.25
27.877001 -10.782 -1.487 0.28999999
27.907 -10.693 -1.487 0.31999999
27.945 -10.607 -1.487 0.34
28.110001 -10.569 -1.495 0.30000001
28.179001 -10.494 -1.497 0.36000001
28.688999 -10.582 -1.526 0.25999999
28.85 -10.59 -1.535 0.25
28.958 -10.527 -1.539 0.33000001
29.110001 -10.478 -1.546 0.34
29.285 -10.438 -1.5549999 0.20999999
29.51 -10.414 -1.566 0.44999999
29.681999 -10.37 -1.575 0.19
29.806999 -10.309 -1.58 0
29.809999 -10.257 -1.58 0.13
22.698999 -7.724 -1.153 0
22.861 -7.6989999 -1.161 0.11
25.136999 -8.3809996 -1.295 0
23.247999 -7.6680002 -1.181 0
23.844 -7.7820001 -1.215 0.090000004
23.882 -7.6700001 -1.215 0.19
25.417999 -8.0769997 -1.3049999 0.16
22.898001 -7.1939998 -1.154 0.14
19.775 -6.1409998 -0.96799999 0
24.834999 -7.6339998 -1.266 0.1
23.702999 -7.204 -1.198 0.23
23.264 -7.0300002 -1.171 0.20999999
23.344999 -6.974 -1.175 0.28
23.125999 -6.8299999 -1.16 0.17
23.344 -6.8150001 -1.1720001 0.38
23.486 -6.776 -1.179 0.2
24.325001 -6.9369998 -1.227 0.36000001
23.546 -6.6339998 -1.1799999 0.20999999
23.454 -6.5679998 -1.174 0.25
23.941999 -6.6240001 -1.202 0.2
24.792999 -6.777 -1.25 0.23
24.910999 -6.7249999 -1.256 0.34
23.275 -6.2030001 -1.159 0.23999999
23.319 -6.1360002 -1.16 0.25999999
23.908001 -6.2119999 -1.194 0.27000001
24.204 -6.2480001 -1.21 0.19
24.131001 -6.1490002 -1.205 0.18000001
23.724001 -5.9650002 -1.1799999 0.16
23.843 -5.9159999 -1.186 0.18000001
23.92 -5.855 -1.189 0.30000001
23.990999 -5.7930002 -1.193 0.18000001
24.643999 -5.9099998 -1.23 0.31999999
23.888 -5.6490002 -1.1849999 0.20999999
24.191 -5.6409998 -1.202 0.31999999
24.028 -5.5229998 -1.191 0.23999999
24.261 -5.4959998 -1.204 0.28999999
24.591999 -5.4910002 -1.222 0.18000001
24.851 -5.467 -1.2359999 0.28999999
21.691999 -4.7329998 -1.052 0.18000001
25.149 -5.4089999 -1.252 0.20999999
25.246 -5.3470001 -1.256 0.41999999
25.403999 -5.2969999 -1.2640001 0.16
25.412001 -5.2150002 -1.2640001 0.27000001
25.490999 -5.1479998 -1.267 0.17
25.631001 -5.0929999 -1.275 0.31999999
25.448999 -5.0149999 -1.2640001 0.22
25.150999 -4.8740001 -1.2460001 0.25
25.274 -4.8150001 -1.252 0.18000001
25.233999 -4.7259998 -1.249 0.17
25.298 -4.6550002 -1.251 0.43000001
19.955 -3.602 -0.94400001 0.23
24.488001 -4.3070002 -1.2029999 0.19
22.556 -3.892 -1.091 0.17
22.452 -3.7290001 -1.084 0.19
24.215 -3.9449999 -1.184 0
20.113001 -3.2079999 -0.949 0.13
23.695 -3.7460001 -1.153 0.25999999
25.388 -3.852 -1.249 0.19
25.341 -3.763 -1.2460001 0.15000001
20.534 -2.9779999 -0.97000003 0.28999999
25.573 -3.6340001 -1.258 0.2
25.393 -3.527 -1.247 0.23999999
25.511 -3.5020001 -1.253 0.18000001
24.655001 -3.3050001 -1.204 0.34
25.108999 -3.2060001 -1.228 0
25.517 -3.177 -1.251 0.14
24.775999 -3.0050001 -1.2079999 0.20999999
25.096001 -3.0039999 -1.226 0.17
25.309999 -2.9489999 -1.238 0.23
25.914 -2.938 -1.272 0.25
25.224001 -2.779 -1.232 0.1
25.167999 -2.6919999 -1.228 0.15000001
22.780001 -2.29 -1.092 0.19
24.549999 -2.431 -1.192 0.18000001
25.625 -2.457 -1.253 0.2
25.509001 -2.365 -1.2460001 0.2
25.513 -2.2839999 -1.245 0.28
25.466 -2.2 -1.242 0.25
25.608 -2.131 -1.25 0.12
25.792 -2.0650001 -1.26 0.46000001
25.639999 -2.0120001 -1.251 0.20999999
25.844999 -1.947 -1.262 0.25
26.434 -1.908 -1.296 0.18000001
26.875 -1.855 -1.3200001 0.23999999
27.107 -1.786 -1.3329999 0.31
27.444 -1.722 -1.352 0.27000001
27.961 -1.6670001 -1.381 0.22
28.129999 -1.544 -1.39 0.19
28.354 -1.467 -1.402 0.57999998
28.225 -1.372 -1.395 0.27000001
28.197001 -1.281 -1.393 0.11
28.195 -1.193 -1.393 0.15000001
28.223 -1.105 -1.3940001 0
28.212999 -1.0599999 -1.393 0
21.666 -0.46799999 -1.022 0
21.622 -0.36500001 -1.02 0
21.618999 -0.29699999 -1.02 0
21.629999 -0.229 -1.02 0
21.614 -0.161 -1.0190001 0
21.611 -0.093000002 -1.0190001 0
21.601 -0.025 -1.018 0
21.700001 0.53299999 -1.14 0
21.917 0.77999997 -1.154 0
21.98 0.85100001 -1.158 0.050000001
25.898001 1.089 -1.401 0.090000004
25.903 1.171 -1.401 0.14
25.891001 1.252 -1.401 0.090000004
25.886999 1.3329999 -1.401 0.14
25.875 1.373 -1.4 0.1
25.875999 1.455 -1.4 0.15000001
25.836 1.534 -1.398 0.1
25.819 1.614 -1.398 0.16
25.785999 1.694 -1.396 0.23
25.747999 1.772 -1.3940001 0.11
25.740999 1.853 -1.3940001 0.16
25.73 1.893 -1.393 0.12
25.732 1.974 -1.3940001 0.17
25.711 2.0539999 -1.393 0.28
25.712999 2.1359999 -1.393 0.19
25.704 2.2160001 -1.393 0.18000001
25.683001 2.296 -1.392 0.30000001
25.662001 2.375 -1.391 0.17
25.618 2.493 -1.39 0.50999999
25.555 2.5680001 -1.386 0.49000001
25.612 2.655 -1.39 0.11
25.618 2.737 -1.391 0
25.558001 2.8929999 -1.388 0.23999999
25.5 2.927 -1.385 0.11
25.475 3.0050001 -1.3839999 0.16
25.451 3.0829999 -1.383 0.1
25.436001 3.1630001 -1.383 0.14
25.403999 3.24 -1.381 0.090000004
25.392 3.319 -1.381 0.15000001
25.375 3.398 -1.381 0.16
25.341999 3.434 -1.3789999 0
25.330999 3.5139999 -1.3789999 0
25.288 3.589 -1.377 0.14
25.257 3.665 -1.376 0.11
25.243999 3.744 -1.376 0.16
25.243999 3.825 -1.377 0.12
25.243 3.8659999 -1.377 0.17
25.219 3.9430001 -1.376 0.12
25.221001 4.0250001 -1.377 0.17
25.200001 4.1030002 -1.377 0.28999999
25.173 4.1799998 -1.376 0
25.117001 4.2509999 -1.373 0
25.184 4.3439999 -1.378 0.050000001
25.179001 4.3839998 -1.378 0.15000001
25.157 4.4619999 -1.378 0.17
25.157 4.5430002 -1.3789999 0.16
25.139999 4.6220002 -1.3789999 0.16
25.139 4.7030001 -1.3789999 0.23
25.125 4.7820001 -1.3789999 0.23999999
25.1 4.8590002 -1.3789999 0.11
25.098 4.9000001 -1.3789999 0.16
25.063 4.9749999 -1.378 0.28999999
25.035 5.0510001 -1.377 0.2
24.996 5.125 -1.376 0.18000001
24.958 5.1989999 -1.374 0.30000001
24.906 5.27 -1.372 0.2
24.855 5.3410001 -1.37 0
24.856001 5.382 -1.37 0.12
24.804001 5.4520001 -1.368 0.28
24.736 5.5190001 -1.365 0.20999999
24.537001 5.5549998 -1.354 0.27000001
24.278999 5.5770001 -1.3380001 0.31
23.975 5.586 -1.3200001 0.2
23.700001 5.5609999 -1.303 0.20999999
23.555 5.605 -1.295 0.20999999
23.492001 5.6680002 -1.2920001 0.18000001
23.382999 5.7189999 -1.286 0.12
23.297001 5.776 -1.2819999 0.16
23.225 5.835 -1.279 0.28999999
23.16 5.8959999 -1.276 0.18000001
23.073 5.9130001 -1.271 0.16
22.966 5.9619999 -1.265 0.13
22.91 6.0240002 -1.263 0.17
22.853001 6.086 -1.26 0.12
22.801001 6.1490002 -1.258 0.17
22.733 6.2069998 -1.255 0.12
22.679001 6.2690001 -1.253 0.17
22.65 6.2989998 -1.252 0.30000001
22.608999 6.3649998 -1.25 0.20999999
22.545 6.4229999 -1.247 0.18000001
22.476 6.48 -1.244 0.20999999
22.437 6.5450001 -1.243 0.19
22.374001 6.6030002 -1.24 0.30000001
22.302999 6.658 -1.237 0.2
22.261999 6.684 -1.235 0.17
22.176001 6.7340002 -1.2309999 0.31999999
22.096001 6.7849998 -1.227 0.2
22.033001 6.842 -1.224 0.18000001
21.971001 6.8979998 -1.222 0.20999999
21.905001 6.9530001 -1.219 0.19
21.847 6.973 -1.216 0.20999999
21.795 7.0310001 -1.214 0.19
21.733999 7.0869999 -1.211 0.22
21.672001 7.1420002 -1.209 0.19
21.599001 7.1929998 -1.206 0.22
21.540001 7.2490001 -1.2029999 0.18000001
21.472 7.3010001 -1.2 0.31999999
21.421 7.3210001 -1.198 0.19
21.339001 7.368 -1.194 0.34
21.299 7.4289999 -1.193 0.19
21.245001 7.4860001 -1.191 0.34
21.197001 7.5440001 -1.189 0.2
21.125 7.5929999 -1.186 0.34999999
21.070999 7.6479998 -1.184 0.2
21.027 7.6690001 -1.182 0.34
21.000999 7.7350001 -1.182 0.2
20.917999 7.7789998 -1.178 0.34999999
20.834 7.822 -1.174 0.19
20.771999 7.8730001 -1.171 0.36000001
20.723 7.9289999 -1.17 0.20999999
20.674999 7.948 -1.168 0.25
20.636999 8.0080004 -1.1670001 0.19
20.627001 8.0790005 -1.168 0.22
20.566 8.1289997 -1.165 0
20.429001 8.1490002 -1.158 0.1
23.681 9.5380001 -1.377 0.19
23.664 9.6169996 -1.377 0.23
23.686001 9.6700001 -1.38 0.41
23.635 9.7360001 -1.3789999 0.23999999
23.584 9.8009996 -1.377 0.25999999
23.548 9.8730001 -1.377 0.22
23.556999 9.9639997 -1.38 0.16
23.551001 10.049 -1.381 0.14
23.445999 10.091 -1.376 0.36000001
23.392 10.112 -1.374 0.25
23.194 10.112 -1.362 0.27000001
23.131001 10.171 -1.36 0.25999999
23.079 10.235 -1.359 0.25999999
22.957001 10.267 -1.353 0.25999999
22.785999 10.277 -1.344 0.11
22.514 10.239 -1.327 0.16
22.504 10.277 -1.3279999 0.30000001
22.351999 10.292 -1.3200001 0.18000001
22.16 10.288 -1.309 0.36000001
21.983 10.29 -1.299 0.19
21.816999 10.296 -1.29 0.37
21.631001 10.291 -1.279 0.2
21.427999 10.277 -1.267 0.31999999
21.291 10.253 -1.2589999 0
21.098 10.241 -1.248 0.059999999
22.402 11.05 -1.342 0.40000001
22.382999 11.128 -1.344 0.20999999
22.313999 11.182 -1.341 0.25
22.351999 11.245 -1.345 0.23
22.233999 11.273 -1.339 0.49000001
22.177 11.332 -1.3380001 0.25
22.188 11.425 -1.341 0.25
22.124001 11.48 -1.339 0.23
22.142 11.579 -1.3430001 0.15000001
21.979 11.581 -1.334 0.49000001
22.098 11.688 -1.344 0.18000001
11.358 6.039 -0.59299999 0.18000001
11.329 6.0689998 -0.59200001 0.37
11.213 6.052 -0.58600003 0
11.315 6.1539998 -0.59399998 0.15000001
21.879999 12.017 -1.341 0.18000001
21.853001 12.046 -1.341 0.36000001
21.797001 12.105 -1.34 0.2
21.658001 12.117 -1.332 0.23999999
21.594 12.17 -1.331 0.18000001
21.316 12.102 -1.314 0.17
21.183001 12.114 -1.307 0.18000001
21.188 12.205 -1.3099999 0.28
21.127001 12.215 -1.307 0.27000001
21.000999 12.23 -1.301 0.25999999
20.878 12.246 -1.295 0.2
20.662001 12.207 -1.2819999 0.18000001
20.577999 12.244 -1.279 0.28999999
20.469 12.266 -1.273 0.2
20.323 12.266 -1.266 0.18000001
20.209 12.241 -1.2589999 0.20999999
20.077 12.247 -1.252 0.2
19.933001 12.245 -1.244 0.22
19.778 12.235 -1.2359999 0.2
19.643 12.237 -1.229 0.22
19.500999 12.233 -1.221 0.2
19.372999 12.238 -1.215 0.20999999
19.281 12.222 -1.209 0
21.111 13.478 -1.347 0.090000004
20.997999 13.499 -1.341 0.30000001
20.878 13.515 -1.336 0.2
20.721001 13.505 -1.327 0.18000001
20.645 13.548 -1.325 0.31999999
20.552999 13.535 -1.3200001 0.16
20.461 13.566 -1.316 0.34999999
20.440001 13.645 -1.318 0.22
20.379999 13.698 -1.316 0.23
20.25 13.702 -1.3099999 0.19
20.149 13.726 -1.3049999 0.28999999
20.01 13.724 -1.298 0.19
19.854 13.662 -1.288 0.18000001
19.785999 13.708 -1.286 0.31999999
19.697001 13.738 -1.283 0.18000001
19.576 13.744 -1.277 0.36000001
19.454 13.75 -1.271 0.2
19.333 13.756 -1.265 0.25
19.195 13.749 -1.258 0.20999999
19.098 13.724 -1.252 0.18000001
18.985001 13.734 -1.247 0.38999999
18.856001 13.731 -1.24 0.23
18.733999 13.732 -1.234 0.18000001
18.614 13.734 -1.228 0.38999999
18.475 13.721 -1.221 0.19
18.358 13.724 -1.215 0.36000001
18.264999 13.699 -1.21 0.2
18.179001 13.723 -1.206 0.16
18.188999 13.822 -1.21 0.090000004
18.368 14.049 -1.228 0.18000001
18.282 14.075 -1.225 0.27000001
18.191 14.095 -1.221 0.25999999
18.139 14.101 -1.219 0.25999999
18.059999 14.13 -1.216 0.28999999
17.948 14.134 -1.21 0.30000001
17.905001 14.191 -1.211 0.36000001
17.830999 14.224 -1.2079999 0.28
17.767 14.265 -1.207 0.36000001
17.607 14.228 -1.198 0.28
17.587999 14.258 -1.198 0.25999999
17.478001 14.26 -1.193 0.34999999
17.407 14.293 -1.191 0.31
17.298 14.294 -1.1849999 0.30000001
17.184999 14.292 -1.1799999 0.31999999
17.080999 14.296 -1.175 0.25999999
16.979 14.302 -1.171 0.25999999
16.896 14.277 -1.166 0.27000001
16.796 14.284 -1.161 0.25
16.683001 14.278 -1.156 0.28999999
16.584999 14.284 -1.151 0.31999999
16.485001 14.288 -1.147 0.28999999
16.375 14.283 -1.141 0.31999999
16.288 14.252 -1.136 0.30000001
16.194 14.26 -1.132 0.31
16.097 14.264 -1.128 0.31
16.000999 14.27 -1.124 0.31
15.903 14.272 -1.119 0.31999999
15.808 14.276 -1.115 0.31
15.711 14.279 -1.1109999 0.33000001
15.633 14.252 -1.1059999 0.33000001
15.544 14.261 -1.102 0.31999999
15.453 14.267 -1.098 0.31999999
15.365 14.275 -1.095 0.31999999
15.279 14.285 -1.091 0.33000001
15.195 14.296 -1.0880001 0.33000001
15.138 14.333 -1.087 0.30000001
15.105 14.347 -1.086 0.28
15.052 14.386 -1.085 0.31
15.001 14.427 -1.085 0.25999999
14.951 14.47 -1.084 0.30000001
14.905 14.517 -1.084 0.28
14.864 14.568 -1.085 0.23999999
14.813 14.609 -1.084 0.25
14.788 14.631 -1.084 0.2
14.792 14.727 -1.0880001 0.12
14.882 14.91 -1.1 0.14
14.852 14.974 -1.102 0.11
14.999 15.218 -1.119 0.16
15.007 15.323 -1.124 0.12
14.989 15.401 -1.127 0.14
15.087 15.551 -1.138 0.31999999
15.17 15.735 -1.149 0.25999999
15.145 15.809 -1.152 0.1
15.102 15.863 -1.152 0.14
16.379 17.316 -1.272 0.20999999
16.301001 17.343 -1.27 0.27000001
16.253 17.346001 -1.268 0.25999999
16.177999 17.375 -1.266 0.25999999
16.106001 17.407 -1.2640001 0.11
16.037001 17.441 -1.263 0.14
16.000999 17.511999 -1.265 0.12
15.97 17.589001 -1.267 0.16
15.918 17.643999 -1.267 0.12
15.885 17.663 -1.267 0.17
15.844 17.729 -1.268 0.28999999
15.784 17.774 -1.268 0.2
15.736 17.833 -1.2690001 0.17
15.682 17.882999 -1.2690001 0.1
15.629 17.937 -1.2690001 0
15.578 17.992001 -1.2690001 0
15.575 18.045 -1.272 0
15.54 18.120001 -1.274 0
15.492 18.179001 -1.275 0
15.476 18.277 -1.279 0
15.418 18.325001 -1.279 0
15.411 18.433001 -1.284 0
15.393 18.471001 -1.285 0
15.366 18.556999 -1.288 0
15.319 18.618999 -1.289 0
15.283 18.694 -1.291 0
15.224 18.742001 -1.291 0
15.186 18.816999 -1.293 0
15.128 18.865999 -1.293 0
15.117 18.913 -1.295 0.13
15.069 18.974001 -1.296 0.090000004
15.004 19.014999 -1.296 0.090000004
14.963 19.086 -1.298 0.16
14.905 19.136 -1.298 0.090000004
14.865 19.208 -1.3 0.15000001
14.819 19.274 -1.301 0.17
14.801 19.313 -1.302 0.15000001
14.751 19.372999 -1.304 0.14
14.691 19.421 -1.304 0.18000001
14.635 19.474001 -1.304 0.28999999
14.552 19.490999 -1.302 0.13
11.485 15.475 -0.98900002 0.20999999
11.386 15.442 -0.98400003 0.36000001
14.399 19.605 -1.302 0.20999999
14.345 19.660999 -1.303 0.23999999
14.306 19.737 -1.3049999 0.25
14.262 19.806999 -1.307 0.11
14.21 19.867001 -1.308 0.16
14.149 19.913 -1.308 0.28999999
14.104 19.982 -1.3099999 0.25999999
14.072 20.004 -1.3099999 0.11
14.025 20.070999 -1.312 0.16
13.972 20.129999 -1.313 0.28
13.922 20.191999 -1.314 0.18000001
13.868 20.25 -1.316 0.18000001
13.816 20.309999 -1.317 0.16
13.802 20.427999 -1.322 0.16
13.857 20.579 -1.332 0.18000001
13.773 20.594 -1.33 0.23
13.803 20.780001 -1.34 0.20999999
13.771 20.872999 -1.344 0.25
13.714 20.93 -1.345 0.25999999
13.613 20.919001 -1.341 0.28999999
13.54 20.950001 -1.34 0.31999999
13.474 20.919001 -1.337 0.31999999
13.392 20.936001 -1.335 0.34
13.304 20.945 -1.332 0.34
13.218 20.954 -1.33 0.38999999
13.163 21.013 -1.331 0.30000001
13.075 21.018 -1.329 0.33000001
13.024 21.01 -1.326 0.34
12.929 21.003 -1.323 0.31999999
12.843 21.011 -1.321 0.41
12.798 21.086 -1.323 0.31
12.735 21.132999 -1.324 0.34999999
12.614 21.08 -1.317 0.34999999
12.552 21.128 -1.318 0.31999999
12.528 21.163 -1.319 0.28999999
12.412 21.118 -1.313 0.31
12.346 21.157 -1.313 0.28999999
12.235 21.120001 -1.307 0.33000001
12.159 21.141001 -1.306 0.30000001
12.115 21.219 -1.309 0.38
12.038 21.237 -1.307 0.28999999
11.972 21.198999 -1.303 0.30000001
11.874 21.181 -1.299 0.28999999
11.801 21.205999 -1.299 0.34
11.725 21.225 -1.2970001 0.31
11.628 21.208 -1.293 0.31
11.55 21.223 -1.2920001 0.28999999
11.463 21.222 -1.289 0.30000001
11.411 21.205 -1.2869999 0.28999999
11.335 21.223 -1.286 0.31
11.253 21.23 -1.284 0.28999999
11.167 21.229 -1.281 0.28999999
11.08 21.225 -1.278 0.28
10.998 21.229 -1.276 0.31
10.912 21.226 -1.274 0.31
10.87 21.226 -1.272 0.28999999
10.792 21.238001 -1.271 0.28999999
10.709 21.24 -1.2690001 0.27000001
10.646 21.281 -1.2690001 0.27000001
10.564 21.284 -1.267 0.27000001
10.487 21.297001 -1.266 0.25999999
10.409 21.306999 -1.2640001 0.27000001
10.335 21.24 -1.2589999 0.34999999
10.254 21.242001 -1.256 0.34999999
10.2 21.301001 -1.258 0.31999999
10.12 21.306 -1.256 0.33000001
10.037 21.302999 -1.2539999 0.33000001
9.9510002 21.292999 -1.251 0.36000001
9.9160004 21.305 -1.251 0.36000001
9.8540001 21.347 -1.252 0.37
9.7770004 21.356001 -1.25 0.38
9.6879997 21.339001 -1.247 0.38
9.5970001 21.316999 -1.243 0.34
9.5369997 21.362 -1.244 0.41
9.4580002 21.365999 -1.243 0.38
9.3800001 21.370001 -1.2410001 0.37
9.3540001 21.400999 -1.242 0.34
9.2819996 21.421 -1.2410001 0.36000001
9.2309999 21.487 -1.244 0.34
9.1490002 21.483 -1.242 0.36000001
9.0950003 21.542999 -1.244 0.34999999
9.0229998 21.562 -1.243 0.34
8.9890003 21.576 -1.243 0.37
8.9189997 21.599001 -1.243 0.36000001
8.8540001 21.632 -1.243 0.36000001
8.8149996 21.733999 -1.248 0.33000001
8.7320004 21.724001 -1.2460001 0.34999999
8.6920004 21.822001 -1.25 0.31999999
8.5959997 21.781 -1.2460001 0.34
8.5550003 21.775999 -1.245 0.38
8.4860001 21.801001 -1.244 0.30000001
8.4440002 21.898001 -1.249 0.34
8.3590002 21.879999 -1.2460001 0.38999999
8.3109999 21.962 -1.25 0.33000001
8.2259998 21.947001 -1.247 0.38
8.1599998 21.978001 -1.248 0.38999999
8.1339998 22.014999 -1.249 0.33000001
8.0500002 22.000999 -1.247 0.34
7.9790001 22.018999 -1.2460001 0.36000001
7.9029999 22.027 -1.245 0.38999999
7.8369999 22.059 -1.245 0.34
7.7670002 22.082001 -1.245 0.34999999
7.6869998 22.076 -1.243 0.36000001
7.651 22.086 -1.243 0.31999999
7.5809999 22.108 -1.243 0.40000001
7.5019999 22.103001 -1.2410001 0.31999999
7.4349999 22.134001 -1.242 0.34999999
7.3699999 22.169001 -1.242 0.31999999
7.283 22.141001 -1.239 0.36000001
7.2249999 22.198 -1.2410001 0.36000001
7.1820002 22.186001 -1.24 0.36000001
7.112 22.207001 -1.24 0.31999999
7.0370002 22.214001 -1.239 0.36000001
6.987 22.297001 -1.243 0.37
6.9200001 22.327999 -1.243 0.34
6.8379998 22.313999 -1.2410001 0.41999999
2.092 6.8800001 -0.242 0
6.829 22.535999 -1.2539999 0
2.0780001 6.9109998 -0.244 0
6.5180001 22.395 -1.24 0.14
6.447 22.410999 -1.24 0.38
6.3629999 22.385 -1.237 0.36000001
6.2839999 22.374001 -1.235 0.37
6.2389998 22.348 -1.233 0.34
6.178 22.4 -1.235 0.37
6.105 22.409 -1.234 0.36000001
6.0430002 22.461 -1.2359999 0.31999999
5.954 22.409 -1.232 0.38999999
5.8860002 22.438999 -1.232 0.34
5.8460002 22.431 -1.2309999 0.34999999
5.7670002 22.414 -1.229 0.36000001
5.6989999 22.440001 -1.229 0.38
5.6230001 22.438 -1.228 0.31999999
5.5409999 22.408001 -1.225 0.37
5.4699998 22.423 -1.225 0.41
5.3979998 22.431999 -1.225 0.36000001
5.3559999 22.415001 -1.223 0.37
5.2880001 22.440001 -1.223 0.38
5.2160001 22.452999 -1.223 0.37
5.145 22.466999 -1.223 0.34
5.073 22.475 -1.223 0.33000001
4.993 22.450001 -1.22 0.38999999
4.9299998 22.499001 -1.222 0.34
4.8629999 22.532 -1.223 0.34
4.8270001 22.535 -1.223 0.36000001
4.7490001 22.517 -1.221 0.36000001
4.6810002 22.548 -1.222 0.33000001
4.6009998 22.513 -1.219 0.40000001
4.5370002 22.565001 -1.221 0.36000001
4.4679999 22.587 -1.222 0.36000001
4.4299998 22.584 -1.221 0.36000001
4.355 22.573999 -1.219 0.38
4.2849998 22.594 -1.22 0.31999999
4.2090001 22.582001 -1.2180001 0.41999999
4.1469998 22.639999 -1.221 0.33000001
4.0710001 22.629 -1.22 0.41999999
4.04 22.865999 -1.234 0
3.9389999 22.503 -1.21 0
3.4820001 20.643 -1.092 0
3.4130001 20.625999 -1.091 0
3.3469999 20.631001 -1.09 0
3.293 20.708 -1.094 0
3.273 21.011999 -1.113 0
3.2130001 20.84 -1.102 0.07
2.9790001 20.605 -1.085 0.63999999
2.9170001 20.638 -1.087 0.28
2.813 20.843 -1.098 0.57999998
2.756 20.667999 -1.087 0.19
2.665 20.469999 -1.074 0
2.618 20.615 -1.0829999 0
2.5550001 20.639 -1.084 0.11
2.5190001 20.889 -1.099 0
2.4330001 20.726 -1.0880001 0
2.349 20.565001 -1.0779999 0.1
2.3180001 20.579 -1.0779999 0.16
2.253 20.584 -1.0779999 0.18000001
2.1889999 20.597 -1.079 0
2.1240001 20.598 -1.0779999 0
2.0580001 20.594 -1.0779999 0
1.992 20.591 -1.077 0
1.926 20.583 -1.076 0
1.895 20.594 -1.077 0
1.83 20.598 -1.077 0
1.7640001 20.586 -1.075 0
1.697 20.573 -1.074 0
1.632 20.572001 -1.074 0
1.567 20.563999 -1.073 0
1.503 20.577999 -1.074 0
1.47 20.569 -1.073 0
1.405 20.570999 -1.073 0
1.34 20.572001 -1.073 0
1.275 20.568001 -1.072 0
1.21 20.562 -1.071 0
1.1440001 20.547001 -1.0700001 0
1.08 20.563 -1.071 0
1.048 20.563999 -1.071 0.07
0.98299998 20.562 -1.071 0.079999998
0.91799998 20.549 -1.0700001 0.090000004
0.85399997 20.569 -1.071 0.14
0.78899997 20.566 -1.0700001 0.13
0.72399998 20.562 -1.0700001 0.14
0.66600001 20.764 -1.082 0.19
0.63800001 20.919001 -1.092 0
0.56900001 20.830999 -1.086 0
0.49900001 20.625 -1.074 0.059999999
0.43399999 20.629 -1.074 0.11
0.37 20.625999 -1.073 0.22
0.273 20.711 -1.079 0.66000003
0.208 20.67 -1.076 0.34999999
0.142 20.431 -1.061 0
0.078000002 20.593 -1.071 0
0.013 20.597 -1.071 0
-0.052000001 20.707001 -1.0779999 0
-0.119 21.018 -1.098 0
-0.15099999 20.844 -1.087 0
-0.213 20.610001 -1.072 0
-0.27900001 20.643 -1.074 0
-0.34400001 20.664 -1.076 0
-0.40900001 20.683001 -1.077 0
-0.63700002 22.945999 -1.217 0.37
-0.70899999 22.950001 -1.2180001 0.40000001
-0.78100002 22.934999 -1.217 0.41
-0.85399997 22.957001 -1.2180001 0.38
-0.92799997 23.004 -1.221 0.33000001
-1.001 23.003 -1.222 0.38999999
-1.072 22.974001 -1.22 0.36000001
-1.108 22.98 -1.22 0.31999999
-1.1799999 22.966 -1.22 0.38999999
-1.25 22.929001 -1.2180001 0.38
-1.322 22.929001 -1.2180001 0.37
-1.395 22.941999 -1.219 0.40000001
-1.467 22.934 -1.219 0.34
-1.539 22.919001 -1.2180001 0.47999999
-1.594 23.197001 -1.2359999 0
-1.561 20.834 -1.09 0
-1.612 20.652 -1.079 0
-1.671 20.570999 -1.074 0
-1.729 20.488001 -1.069 0.059999999
-1.788 20.423 -1.066 0
-1.818 20.400999 -1.064 0.11
-1.88 20.375 -1.063 0.20999999
-1.954 20.469999 -1.069 0.11
-2.0090001 20.365 -1.063 0.12
-2.1400001 20.382999 -1.0650001 0.28
-2.2049999 20.384001 -1.066 0.49000001
-2.2349999 20.367001 -1.0650001 0.68000001
-2.3280001 20.610001 -1.08 0.38999999
-2.3610001 20.337 -1.064 0.090000004
-2.428 20.355 -1.0650001 0.14
-2.5109999 20.497999 -1.075 0.23
-2.5550001 20.333 -1.0650001 0.2
-2.6199999 20.330999 -1.0650001 0.23999999
-2.651 20.323 -1.0650001 0.37
-2.7149999 20.316999 -1.0650001 0.22
-2.7820001 20.327999 -1.067 0.27000001
-2.848 20.330999 -1.067 0.27000001
-2.911 20.322001 -1.067 0.23999999
-2.9760001 20.318001 -1.068 0.25999999
-3.0420001 20.320999 -1.068 0.33000001
-3.075 20.327999 -1.069 0.34
-3.1389999 20.318001 -1.069 0.34
-3.2049999 20.32 -1.0700001 0.33000001
-3.27 20.316 -1.0700001 0.33000001
-3.335 20.315001 -1.071 0.33000001
-3.4000001 20.311001 -1.071 0.37
-3.4649999 20.306 -1.072 0.31999999
-3.4979999 20.309999 -1.072 0.36000001
-3.5639999 20.311001 -1.073 0.33000001
-3.631 20.315001 -1.074 0.33000001
-3.698 20.320999 -1.075 0.34999999
-3.7609999 20.306 -1.075 0.28999999
-3.8310001 20.325001 -1.077 0.27000001
-3.905 20.365999 -1.08 0.27000001
-3.9300001 20.325001 -1.0779999 0.33000001
-3.9920001 20.304001 -1.077 0.11
-4.0609999 20.319 -1.079 0.16
-4.1300001 20.33 -1.081 0.23
-4.2010002 20.35 -1.0829999 0
-4.2620001 20.325001 -1.082 0.079999998
-4.3280001 20.319 -1.082 0.079999998
-4.3639998 20.334 -1.084 0.14
-4.4330001 20.341 -1.085 0.1
-4.4970002 20.329 -1.085 0.13
-4.5650001 20.334 -1.087 0
-4.6529999 20.424999 -1.0930001 0.13
-4.7030001 20.346001 -1.089 0.23
-4.7329998 20.330999 -1.089 0.15000001
-4.809 20.367001 -1.092 0.17
-4.8730001 20.355 -1.092 0.33000001
-4.9990001 20.594 -1.108 0.57999998
-5.0040002 20.334 -1.0930001 0.25
-5.0689998 20.326 -1.0930001 0.12
-5.1560001 20.400999 -1.099 0
-5.1999998 20.437 -1.102 0
-5.2389998 20.323999 -1.096 0
-5.3109999 20.34 -1.098 0
-5.3850002 20.358 -1.1 0
-5.4499998 20.347 -1.1 0
-5.5250001 20.370001 -1.103 0
-5.6059999 20.416 -1.107 0
-5.6329999 20.386 -1.1059999 0.050000001
-6.493 22.924999 -1.271 0.20999999
-6.573 22.931999 -1.273 0.36000001
-6.6469998 22.92 -1.274 0.38999999
-6.7140002 22.879999 -1.272 0.34
-6.8039999 22.92 -1.276 0.34
-6.8429999 22.921 -1.277 0.36000001
-6.9349999 22.966 -1.281 0.36000001
-7.007 22.943001 -1.281 0.37
-7.0650001 22.875 -1.278 0.34999999
-7.1500001 22.893999 -1.281 0.34
-7.23 22.896 -1.283 0.34
-7.3060002 22.886999 -1.283 0.38
-7.362 22.940001 -1.288 0.30000001
-7.4260001 22.892 -1.286 0.38
-7.5019999 22.879999 -1.2869999 0.36000001
-7.5809999 22.879 -1.288 0.36000001
-7.6799998 22.934999 -1.293 0.36000001
-7.7690001 22.961 -1.2970001 0.31999999
-7.8509998 22.965 -1.299 0.30000001
-7.895 22.975 -1.3 0.36000001
-7.9590001 22.927999 -1.299 0.36000001
-8.0509996 22.959 -1.302 0.38
-8.1260004 22.941 -1.303 0.44
-8.1780005 22.861 -1.299 0.36000001
-8.2659998 22.879 -1.302 0.34999999
-8.3559999 22.900999 -1.3049999 0.36000001
-8.4139996 22.950001 -1.309 0.41999999
-8.4989996 22.957001 -1.312 0.18000001
-8.5979996 23.003 -1.316 0.17
-9.5430002 25.282 -1.469 0.16
-9.6280003 25.264999 -1.47 0.12
-9.7209997 25.27 -1.472 0.16
-9.8109999 25.267 -1.474 0.28
-9.8559999 25.266001 -1.475 0.27000001
-9.9490004 25.268999 -1.477 0.27000001
-10.046 25.282 -1.48 0.27000001
-10.142 25.291 -1.483 0.27000001
-10.236 25.296 -1.485 0.27000001
-10.333 25.306 -1.488 0.27000001
-10.434 25.327 -1.492 0.27000001
-10.482 25.329 -1.493 0.11
-10.584 25.349001 -1.497 0.16
-10.673 25.34 -1.498 0.12
-10.76 25.323 -1.499 0.16
-10.84 25.291 -1.499 0.12
-10.927 25.273001 -1.501 0.16
-11.005 25.235001 -1.5 0.12
-11.055 25.240999 -1.502 0.16
-11.144 25.23 -1.503 0.11
-11.234 25.219 -1.505 0.17
-11.321 25.200001 -1.506 0.28999999
-11.415 25.197001 -1.508 0.19
-11.494 25.160999 -1.508 0.18000001
-11.578 25.135 -1.5089999 0.28999999
-11.632 25.15 -1.511 0.19
-11.715 25.120001 -1.512 0.18000001
-11.805 25.107 -1.513 0.28
-11.892 25.087999 -1.515 0.27000001
-11.98 25.07 -1.516 0.27000001
-12.079 25.073999 -1.5190001 0.27000001
-12.172 25.063999 -1.521 0.25999999
-12.223 25.07 -1.523 0.27000001
-12.316 25.059999 -1.525 0.27000001
-12.414 25.061001 -1.527 0.27000001
-12.497 25.031 -1.528 0.11
-12.598 25.034 -1.531 0.17
-12.689 25.018999 -1.533 0.12
-12.776 24.995001 -1.534 0.18000001
-12.824 24.993 -1.535 0.12
-12.933 25.011 -1.539 0.16
-13.02 24.986 -1.54 0.12
-13.124 24.995001 -1.544 0.16
-13.223 24.992001 -1.546 0.28
-13.321 24.987 -1.549 0.2
-13.388 25.017 -1.552 0.18000001
-13.49 25.018999 -1.556 0.12
-13.583 25.003 -1.557 0.17
-13.674 24.983 -1.559 0.12
-13.76 24.954 -1.5599999 0.16
-13.841 24.916 -1.5599999 0.12
-13.934 24.898001 -1.562 0.16
-13.987 24.900999 -1.564 0.12
-14.086 24.893 -1.567 0.17
-14.176 24.868999 -1.568 0.12
-14.294 24.893999 -1.573 0.16
-14.388 24.877001 -1.575 0.30000001
-14.483 24.861 -1.577 0.2
-14.577 24.841999 -1.579 0.19
-14.648 24.784 -1.5779999 0.31
-14.701 24.785 -1.58 0.2
-14.791 24.76 -1.581 0.19
-14.878 24.728001 -1.582 0.2
-14.961 24.690001 -1.5829999 0.38999999
-15.042 24.648001 -1.5829999 0.19
-15.126 24.613001 -1.584 0.31999999
-15.213 24.58 -1.585 0.20999999
-15.262 24.573 -1.587 0.19
-15.363 24.562 -1.589 0.30000001
-15.454 24.535999 -1.591 0.2
-15.549 24.516001 -1.5930001 0.18000001
-15.634 24.48 -1.594 0.31
-15.742 24.478001 -1.598 0.2
-15.803 24.489 -1.6 0.17
-15.882 24.441999 -1.6 0.13
-15.983 24.429001 -1.603 0.17
-16.080999 24.412001 -1.6059999 0.28
-16.177999 24.391001 -1.608 0.16
-16.302 24.412001 -1.613 0.36000001
-16.389999 24.377001 -1.614 0.19
-16.431999 24.358 -1.615 0.23
-16.51 24.308001 -1.615 0.19
-16.601 24.277 -1.617 0.28999999
-16.695 24.250999 -1.619 0.2
-16.784 24.216999 -1.62 0.16
-16.877001 24.188 -1.622 0.13
-16.969999 24.16 -1.624 0.17
-17.02 24.149 -1.625 0.12
-17.122 24.132999 -1.628 0.17
-17.198999 24.080999 -1.628 0.11
-17.299999 24.062 -1.631 0.17
-17.403 24.045 -1.633 0.12
-17.51 24.034 -1.637 0.17
-17.591999 23.988001 -1.637 0.12
-17.655001 23.993999 -1.64 0.17
-17.740999 23.952999 -1.641 0.12
-17.841 23.931 -1.6440001 0.16
-17.952999 23.924 -1.648 0.27000001
-18.042 23.885 -1.649 0.11
-18.139999 23.858 -1.651 0.17
-18.238001 23.830999 -1.654 0.12
-18.302999 23.839001 -1.656 0.16
-18.399 23.808001 -1.659 0.27000001
-18.493999 23.777 -1.661 0.19
-18.584 23.738001 -1.6619999 0.18000001
-18.674999 23.701 -1.664 0.17
-18.788 23.691 -1.668 0.18000001
-18.881001 23.655001 -1.67 0.17
-18.945999 23.66 -1.6720001 0.18000001
-19.065001 23.656 -1.677 0.18000001
-19.150999 23.610001 -1.678 0.19
-19.26 23.593 -1.681 0.30000001
-19.360001 23.563 -1.684 0.11
-19.479 23.558001 -1.688 0.17
-19.573999 23.521 -1.6900001 0.28
-19.635 23.518999 -1.692 0.25
-19.733 23.486 -1.6950001 0.11
-19.85 23.475 -1.699 0.16
-19.962 23.458 -1.7029999 0.28
-20.066999 23.431 -1.706 0.25999999
-20.186001 23.421 -1.71 0.25
-20.301001 23.406 -1.714 0.27000001
-20.367001 23.407 -1.717 0.11
-20.497 23.407 -1.722 0.16
