# .PCD v0.7 - Point Cloud Data file format
VERSION 0.7
FIELDS x y z intensity
SIZE 4 4 4 4
TYPE F F F F
COUNT 1 1 1 1
WIDTH 1446
HEIGHT 1
VIEWPOINT 0 0 0 1 0 0 0
POINTS 1446
DATA ascii
-1.7 3.869 -1.762 0.28999999
-1.709 3.8729999 -1.766 0.23999999
-1.712 3.848 -1.756 0.16
-1.729 3.852 -1.761 0.28
-1.739 3.8440001 -1.7589999 0.22
-1.752 3.8399999 -1.76 0.25999999
-1.77 3.848 -1.767 0.23999999
-1.7819999 3.842 -1.767 0.19
-1.7819999 3.826 -1.76 0.28999999
-1.793 3.8169999 -1.758 0.23
-1.813 3.8299999 -1.767 0.27000001
-1.825 3.822 -1.767 0.27000001
-1.836 3.8150001 -1.766 0.28
-1.8430001 3.799 -1.761 0.30000001
-1.857 3.7980001 -1.763 0.25999999
-1.863 3.7939999 -1.762 0.31
-1.877 3.793 -1.765 0.25
-1.8839999 3.777 -1.76 0.25
-1.901 3.7809999 -1.765 0.27000001
-1.909 3.7679999 -1.762 0.33000001
-1.925 3.77 -1.766 0.27000001
-1.936 3.763 -1.765 0.28999999
-1.943 3.7609999 -1.766 0.28999999
-1.9529999 3.7520001 -1.7640001 0.28999999
-1.965 3.7460001 -1.7640001 0.28999999
-1.98 3.7460001 -1.767 0.28999999
-1.985 3.727 -1.761 0.28
-1.9960001 3.7190001 -1.76 0.31999999
-2.006 3.71 -1.758 0.28999999
-2.0179999 3.7179999 -1.7640001 0.27000001
-2.0309999 3.7149999 -1.766 0.30000001
-2.0439999 3.711 -1.767 0.28999999
-2.0539999 3.7019999 -1.766 0.28
-2.066 3.6949999 -1.766 0.27000001
-2.0780001 3.6889999 -1.766 0.28
-2.0929999 3.6889999 -1.7690001 0.30000001
-2.0880001 3.6659999 -1.7589999 0.30000001
-2.108 3.675 -1.767 0.27000001
-2.1159999 3.6619999 -1.7640001 0.28
-2.1289999 3.6570001 -1.765 0.27000001
-2.1459999 3.6619999 -1.771 0.30000001
-2.151 3.6440001 -1.765 0.33000001
-2.165 3.6400001 -1.767 0.28999999
-2.1700001 3.635 -1.766 0.25
-2.1819999 3.6300001 -1.767 0.31999999
-2.1900001 3.6170001 -1.763 0.30000001
-2.2060001 3.618 -1.767 0.28999999
-2.214 3.6059999 -1.765 0.30000001
-2.2249999 3.598 -1.7640001 0.23999999
-2.2409999 3.598 -1.768 0.28999999
-2.243 3.5899999 -1.766 0.31999999
-2.2550001 3.5829999 -1.766 0.28
-2.266 3.576 -1.766 0.30000001
-2.2720001 3.5610001 -1.762 0.27000001
-2.289 3.563 -1.767 0.25999999
-2.302 3.559 -1.768 0.30000001
-2.303 3.5480001 -1.7640001 0.33000001
-2.325 3.5580001 -1.773 0.27000001
-2.3329999 3.546 -1.771 0.30000001
-2.3340001 3.523 -1.762 0.30000001
-2.348 3.52 -1.765 0.28
-2.3599999 3.513 -1.765 0.27000001
-2.375 3.5109999 -1.768 0.25
-2.382 3.4979999 -1.765 0.20999999
-2.395 3.506 -1.771 0.27000001
-2.401 3.4909999 -1.767 0
-2.405 3.473 -1.762 0
-2.418 3.4690001 -1.763 0
-0.88599998 1.196 -0.54500002 0
-0.83700001 1.1210001 -0.505 0
-0.82599998 1.097 -0.49399999 0
-2.99 3.023 -1.774 0
-2.9890001 3.003 -1.767 0
-2.997 2.9920001 -1.767 0
-3.0109999 2.987 -1.7690001 0
-3.0280001 2.9849999 -1.774 0
-3.033 2.9719999 -1.771 0
-3.063 2.983 -1.784 0
-3.0680001 2.9779999 -1.784 0
-3.0680001 2.9590001 -1.779 0
-3.075 2.947 -1.777 0
-3.0999999 2.9530001 -1.7869999 0
-3.2869999 2.6889999 -1.771 0
-3.329 2.6889999 -1.786 0
-3.3210001 2.664 -1.776 0
-3.332 2.6559999 -1.778 0
-3.326 2.6340001 -1.77 0
-3.3599999 2.6530001 -1.7869999 0
-3.352 2.6300001 -1.778 0
-3.3429999 2.6059999 -1.768 0
-3.359 2.6010001 -1.772 0.059999999
-3.3789999 2.599 -1.779 0.039999999
-3.382 2.585 -1.776 0.12
-3.3900001 2.575 -1.776 0.050000001
-3.3929999 2.5680001 -1.775 0.17
-3.4000001 2.556 -1.775 0.11
-3.4130001 2.55 -1.778 0.18000001
-3.4189999 2.5369999 -1.776 0.23
-3.4219999 2.523 -1.774 0.22
-3.408 2.4960001 -1.762 0.16
-3.444 2.506 -1.777 0.28999999
-3.4360001 2.4920001 -1.771 0.23
-3.448 2.484 -1.773 0.27000001
-3.4660001 2.4809999 -1.779 0.28
-3.4590001 2.4590001 -1.771 0.28
-3.48 2.4579999 -1.778 0.25
-3.4909999 2.4489999 -1.78 0.28999999
-3.4760001 2.4230001 -1.767 0.17
-3.4849999 2.4200001 -1.77 0.30000001
-3.506 2.4189999 -1.777 0.25
-3.4949999 2.395 -1.767 0.27000001
-3.5120001 2.3900001 -1.772 0.27000001
-3.5250001 2.3829999 -1.775 0.28
-3.5309999 2.3710001 -1.775 0.23
-3.5339999 2.3570001 -1.772 0.12
-3.5439999 2.3559999 -1.775 0.17
-3.5409999 2.3369999 -1.77 0.12
-3.546 2.325 -1.7690001 0.18000001
-3.572 2.326 -1.779 0.2
-3.5669999 2.3069999 -1.772 0.18000001
-3.5699999 2.293 -1.77 0.18000001
-3.586 2.2880001 -1.775 0.20999999
-3.5840001 2.2780001 -1.771 0.22
-3.5880001 2.2650001 -1.77 0.1
-3.602 2.2579999 -1.774 0.18000001
-3.5999999 2.2409999 -1.7690001 0.11
-3.615 2.2349999 -1.773 0.16
-3.622 2.223 -1.773 0.050000001
-3.612 2.201 -1.7640001 0.17
-3.6170001 2.197 -1.765 0.2
-3.6359999 2.1930001 -1.771 0.28
-3.642 2.1800001 -1.771 0.20999999
-3.6389999 2.1630001 -1.766 0.12
-3.671 2.1670001 -1.779 0.18000001
-3.6600001 2.145 -1.77 0.22
-3.6559999 2.1270001 -1.7640001 0
-3.674 2.1300001 -1.771 0
-3.6849999 2.1210001 -1.774 0
-3.4159999 -1.8559999 -1.612 0
-3.4200001 -1.872 -1.617 0
-3.4030001 -1.877 -1.6109999 0
-3.4159999 -1.891 -1.619 0.050000001
-3.402 -1.897 -1.615 0.14
-3.401 -1.911 -1.618 0.23
-3.3870001 -1.9170001 -1.614 0.23999999
-3.3889999 -1.932 -1.618 0.23
-3.3670001 -1.934 -1.61 0.27000001
-3.3640001 -1.946 -1.6109999 0.28999999
-3.3640001 -1.9529999 -1.613 0.30000001
-3.355 -1.962 -1.6109999 0.31999999
-3.352 -1.974 -1.613 0.31
-3.3410001 -1.982 -1.6109999 0.30000001
-3.3340001 -1.993 -1.6109999 0.30000001
-3.3239999 -2 -1.608 0.31999999
-3.3169999 -2.0109999 -1.608 0.31999999
-3.3199999 -2.02 -1.6109999 0.30000001
-3.316 -2.0309999 -1.612 0.31
-3.3110001 -2.0420001 -1.613 0.28999999
-3.293 -2.046 -1.607 0.25999999
-3.2980001 -2.063 -1.613 0.31
-3.2839999 -2.069 -1.609 0.27000001
-3.2750001 -2.0780001 -1.608 0.28999999
-3.2720001 -2.0829999 -1.608 0.31
-3.263 -2.0910001 -1.6059999 0.31
-3.2539999 -2.1010001 -1.6059999 0.31
-3.2479999 -2.1110001 -1.6059999 0.28999999
-3.244 -2.1229999 -1.607 0.30000001
-3.2219999 -2.1229999 -1.599 0.28
-3.2279999 -2.141 -1.6059999 0.31
-3.223 -2.145 -1.605 0.28
-3.2149999 -2.155 -1.604 0.31
-3.2030001 -2.1619999 -1.602 0.30000001
-3.1930001 -2.1700001 -1.6 0.31
-3.1849999 -2.1789999 -1.599 0.31
-3.181 -2.191 -1.601 0.31
-3.168 -2.197 -1.598 0.28999999
-3.165 -2.2019999 -1.598 0.33000001
-3.1530001 -2.2079999 -1.595 0.31999999
-3.148 -2.2190001 -1.596 0.28999999
-3.148 -2.234 -1.6 0.33000001
-3.131 -2.237 -1.594 0.31999999
-3.1210001 -2.2449999 -1.5930001 0.31999999
-3.1199999 -2.2520001 -1.594 0.31999999
-3.118 -2.2650001 -1.597 0.31
-3.109 -2.273 -1.596 0.31999999
-3.092 -2.276 -1.59 0.28999999
-3.0869999 -2.2869999 -1.592 0.28999999
-3.085 -2.3 -1.594 0.31
-3.076 -2.309 -1.5930001 0.31
-3.0710001 -2.313 -1.5930001 0.34
-3.0710001 -2.3280001 -1.597 0.28999999
-3.049 -2.326 -1.589 0.28999999
-3.039 -2.3340001 -1.587 0.19
-3.0439999 -2.3529999 -1.594 0.28999999
-3.0250001 -2.3540001 -1.5880001 0.19
-3.0179999 -2.3629999 -1.5880001 0.23999999
-3.017 -2.3699999 -1.589 0.1
-3.026 -2.392 -1.598 0
-3.0020001 -2.3889999 -1.589 0
-2.993 -2.398 -1.589 0
-2.9790001 -2.401 -1.585 0
-2.9749999 -2.414 -1.587 0
-2.862 -2.539 -1.585 0
-2.8469999 -2.5339999 -1.5779999 0
-2.8610001 -2.562 -1.591 0
-2.8599999 -2.5769999 -1.595 0
-2.8329999 -2.569 -1.584 0
-2.8180001 -2.572 -1.58 0.13
-2.816 -2.5869999 -1.584 0.2
-2.816 -2.595 -1.586 0.19
-2.8039999 -2.5999999 -1.584 0.25
-2.7950001 -2.608 -1.5829999 0.28999999
-2.78 -2.6099999 -1.579 0.28999999
-2.77 -2.618 -1.5779999 0.31999999
-2.7550001 -2.6199999 -1.574 0.27000001
-2.7550001 -2.6359999 -1.579 0.37
-2.7460001 -2.6359999 -1.576 0.30000001
-2.7360001 -2.6429999 -1.575 0.36000001
-2.7360001 -2.6589999 -1.58 0.34999999
-2.7249999 -2.665 -1.5779999 0.37
-2.71 -2.6670001 -1.574 0.30000001
-2.7090001 -2.6830001 -1.579 0.34
-2.684 -2.675 -1.568 0.34
-2.6700001 -2.671 -1.563 0.27000001
-2.697 -2.714 -1.585 0
-2.665 -2.6989999 -1.5700001 0
-2.6700001 -2.72 -1.5779999 0
-0.83099997 -1.168 -0.52100003 0
-0.801 -1.1339999 -0.50099999 0
-2.1589999 -3.072 -1.553 0.02
-2.1489999 -3.079 -1.553 0.14
-2.138 -3.0840001 -1.552 0.22
-2.135 -3.089 -1.553 0.30000001
-2.1240001 -3.0940001 -1.552 0.30000001
-2.112 -3.098 -1.55 0.34
-2.098 -3.098 -1.5470001 0.34
-2.0899999 -3.108 -1.549 0.31999999
-2.0829999 -3.118 -1.55 0.31999999
-2.072 -3.1229999 -1.55 0.34
-2.0639999 -3.1210001 -1.5470001 0.34
-2.0610001 -3.138 -1.553 0.31999999
-2.043 -3.1329999 -1.546 0.33000001
-2.04 -3.1500001 -1.552 0.31
-2.0250001 -3.1470001 -1.5470001 0.31999999
-2.0150001 -3.1530001 -1.5470001 0.31
-2.006 -3.161 -1.548 0.31999999
-2.003 -3.1670001 -1.55 0.33000001
-1.992 -3.1719999 -1.549 0.34
-1.98 -3.175 -1.5470001 0.31999999
-1.966 -3.175 -1.544 0.33000001
-1.961 -3.1889999 -1.548 0.34
-1.951 -3.1949999 -1.548 0.33000001
-1.948 -3.201 -1.55 0.31999999
-1.931 -3.197 -1.544 0.34
-1.9220001 -3.204 -1.545 0.33000001
-1.9170001 -3.2179999 -1.549 0.31
-1.901 -3.2149999 -1.544 0.31999999
-1.8890001 -3.2179999 -1.5420001 0.34
-1.8839999 -3.233 -1.5470001 0.31999999
-1.877 -3.233 -1.546 0.34
-1.868 -3.24 -1.546 0.34999999
-1.862 -3.2520001 -1.55 0.34
-1.8430001 -3.244 -1.5420001 0.30000001
-1.83 -3.2449999 -1.54 0.31999999
-1.822 -3.2539999 -1.541 0.31999999
-1.817 -3.2690001 -1.546 0.37
-1.806 -3.2620001 -1.541 0.34
-1.8 -3.2739999 -1.545 0.30000001
-1.786 -3.2739999 -1.541 0.31999999
-1.777 -3.2820001 -1.543 0.37
-1.767 -3.2880001 -1.543 0.34
-1.751 -3.2820001 -1.5369999 0.31999999
-1.739 -3.286 -1.5369999 0.33000001
-1.739 -3.2969999 -1.541 0.31999999
-1.727 -3.3010001 -1.54 0.38
-1.714 -3.3010001 -1.5369999 0.33000001
-1.712 -3.3210001 -1.545 0.28999999
-1.6950001 -3.3150001 -1.539 0.34
-1.684 -3.319 -1.538 0.36000001
-1.679 -3.336 -1.544 0.33000001
-1.67 -3.3299999 -1.54 0.33000001
-1.658 -3.332 -1.538 0.31
-1.65 -3.342 -1.541 0.46000001
-1.6390001 -3.346 -1.54 0.37
-1.626 -3.348 -1.538 0.34
-1.6210001 -3.3629999 -1.543 0.31
-1.615 -3.365 -1.543 0.28
-1.6 -3.3599999 -1.538 0.46000001
-1.5930001 -3.372 -1.541 0.38
-1.576 -3.3640001 -1.535 0.41999999
-1.569 -3.3770001 -1.539 0.36000001
-1.561 -3.3870001 -1.541 0.41
-1.546 -3.3829999 -1.5369999 0.40000001
-1.539 -3.382 -1.536 0.38999999
-1.534 -3.3989999 -1.541 0.37
-1.517 -3.3900001 -1.535 0.36000001
-1.507 -3.395 -1.535 0.36000001
-1.4960001 -3.4000001 -1.535 0.38
-1.48 -3.3929999 -1.529 0.34
-1.467 -3.391 -1.526 0.38999999
-1.466 -3.4030001 -1.531 0.38
-1.448 -3.3929999 -1.524 0.34999999
-1.432 -3.3840001 -1.517 0.36000001
-1.424 -3.395 -1.52 0.36000001
-1.411 -3.3929999 -1.517 0.36000001
-1.398 -3.392 -1.515 0.34999999
-1.3890001 -3.4000001 -1.516 0.34999999
-1.376 -3.385 -1.508 0.37
-1.363 -3.3829999 -1.505 0.31999999
-1.357 -3.3989999 -1.511 0.34999999
-1.342 -3.3929999 -1.506 0.34
-1.326 -3.3829999 -1.499 0.34
-1.3200001 -3.4000001 -1.505 0.34
-1.306 -3.3929999 -1.5 0.34999999
-1.298 -3.3900001 -1.498 0.34
-1.286 -3.391 -1.4960001 0.37
-1.272 -3.385 -1.4910001 0.36000001
-1.26 -3.3870001 -1.49 0.36000001
-1.252 -3.398 -1.494 0.34999999
-1.237 -3.3900001 -1.488 0.34999999
-1.228 -3.3970001 -1.489 0.38
-1.222 -3.3989999 -1.489 0.31
-1.212 -3.405 -1.49 0.36000001
-1.198 -3.398 -1.485 0.28999999
-1.188 -3.404 -1.4859999 0.31999999
-1.177 -3.4059999 -1.485 0.31999999
-1.168 -3.414 -1.488 0.37
-1.165 -3.4230001 -1.4910001 0.37
-1.149 -3.411 -1.484 0.33000001
-1.1390001 -3.418 -1.485 0.34999999
-1.131 -3.4300001 -1.489 0.36000001
-1.119 -3.4289999 -1.487 0.30000001
-1.103 -3.4170001 -1.48 0.44
-1.0930001 -3.424 -1.4809999 0.40000001
-1.0829999 -3.411 -1.475 0.36000001
-1.0779999 -3.4319999 -1.483 0.38
-1.061 -3.415 -1.473 0.38999999
-1.053 -3.427 -1.477 0.27000001
-1.034 -3.4059999 -1.466 0.47999999
-1.033 -3.438 -1.48 0.34999999
-1.018 -3.428 -1.473 0.34
-1 -3.3870001 -1.454 0.5
-0.995 -3.4100001 -1.4630001 0.34999999
-0.98000002 -3.401 -1.457 0.44999999
-0.98199999 -3.4460001 -1.476 0.34999999
-0.97100002 -3.4489999 -1.476 0.36000001
-0.95899999 -3.448 -1.475 0.38999999
-0.94700003 -3.4460001 -1.472 0.41
-0.94300002 -3.451 -1.474 0.36000001
-0.93099999 -3.45 -1.472 0.37
-0.91799998 -3.448 -1.47 0.37
-0.91000003 -3.46 -1.474 0.38
-0.89700001 -3.454 -1.47 0.34999999
-0.88499999 -3.4530001 -1.4680001 0.31
-0.875 -3.4579999 -1.469 0.41
-0.866 -3.447 -1.4630001 0.38
-0.85900003 -3.4649999 -1.471 0.25
-0.847 -3.4630001 -1.4680001 0.47999999
-0.83899999 -3.4779999 -1.474 0.22
-0.81999999 -3.4449999 -1.4579999 0.5
-0.81099999 -3.4560001 -1.462 0.41
-0.80800003 -3.4660001 -1.466 0.33000001
-0.79400003 -3.4560001 -1.46 0.5
-0.78500003 -3.4660001 -1.4630001 0.27000001
-0.76800001 -3.444 -1.452 0.5
-0.76099998 -3.464 -1.46 0.36000001
-0.75099999 -3.47 -1.462 0.43000001
-0.74000001 -3.47 -1.461 0.38
-0.73500001 -3.4749999 -1.4630001 0.37
-0.72399998 -3.477 -1.4630001 0.38999999
-0.71799999 -3.5009999 -1.472 0.37
-0.704 -3.4890001 -1.466 0.44999999
-0.69300002 -3.493 -1.467 0.44
-0.67900002 -3.4809999 -1.46 0.47999999
-0.66900003 -3.4849999 -1.461 0.38999999
-0.66299999 -3.484 -1.46 0.34999999
-0.65200001 -3.484 -1.459 0.40000001
-0.63800001 -3.4719999 -1.4529999 0.38999999
-0.62900001 -3.483 -1.457 0.34999999
-0.61799997 -3.487 -1.4579999 0.37
-0.60699999 -3.487 -1.457 0.31999999
-0.59899998 -3.5050001 -1.464 0.36000001
-0.59200001 -3.5 -1.462 0.28999999
-0.579 -3.49 -1.456 0.46000001
-0.57200003 -3.517 -1.4680001 0.30000001
-0.55400002 -3.477 -1.449 0.54000002
-0.542 -3.47 -1.4450001 0.44999999
-0.53100002 -3.4690001 -1.444 0.38999999
-0.51899999 -3.464 -1.441 0.31999999
-0.509 -3.4389999 -1.429 0.41
-0.50099999 -3.457 -1.437 0.36000001
-0.49599999 -3.5 -1.455 0.31999999
-0.484 -3.493 -1.451 0.38999999
-0.472 -3.4890001 -1.449 0.41999999
-0.46200001 -3.494 -1.45 0.41
-0.449 -3.483 -1.4450001 0.38
-0.44499999 -3.494 -1.45 0.44999999
-0.43599999 -3.507 -1.455 0.38999999
-0.426 -3.5150001 -1.4579999 0.41
-0.414 -3.5150001 -1.457 0.38
-0.403 -3.5120001 -1.455 0.36000001
-0.39199999 -3.5150001 -1.456 0.38
-0.38800001 -3.527 -1.461 0.28999999
-0.375 -3.5150001 -1.455 0.38
-0.36300001 -3.5090001 -1.452 0.41
-0.354 -3.529 -1.46 0.38
-0.34200001 -3.5190001 -1.455 0.34999999
-0.33000001 -3.5109999 -1.451 0.46000001
-0.32100001 -3.5280001 -1.459 0.36000001
-0.31299999 -3.503 -1.447 0.41
-0.30199999 -3.513 -1.451 0.34
-0.292 -3.5179999 -1.4529999 0.37
-0.28 -3.5079999 -1.448 0.38
-0.26800001 -3.5 -1.444 0.34
-0.257 -3.4949999 -1.442 0.34
-0.245 -3.483 -1.436 0.43000001
-0.23999999 -3.5020001 -1.444 0.34999999
-0.228 -3.4860001 -1.437 0.50999999
-0.21799999 -3.4960001 -1.441 0.36000001
-0.20900001 -3.533 -1.457 0.28999999
-0.197 -3.513 -1.448 0.47999999
-0.186 -3.5120001 -1.447 0.43000001
-0.175 -3.507 -1.4450001 0.40000001
-0.17 -3.5280001 -1.454 0.34999999
-0.15800001 -3.5120001 -1.446 0.43000001
-0.147 -3.5179999 -1.449 0.36000001
-0.13699999 -3.5250001 -1.452 0.40000001
-0.125 -3.5220001 -1.45 0.28
-0.114 -3.5190001 -1.449 0.46000001
-0.109 -3.5320001 -1.455 0.31999999
-0.097999997 -3.516 -1.447 0.40000001
-0.086999997 -3.516 -1.447 0.34
-0.075999998 -3.5420001 -1.459 0.41
-0.064999998 -3.52 -1.449 0.44
-0.054000001 -3.5239999 -1.45 0.34999999
-0.043000001 -3.5420001 -1.459 0.37
-0.037 -3.517 -1.447 0.44999999
-0.026000001 -3.5280001 -1.452 0.36000001
-0.015 -3.526 -1.451 0.34
-0.0040000002 -3.5150001 -1.446 0.37
0.0070000002 -3.523 -1.45 0.38999999
0.017999999 -3.53 -1.4529999 0.41
0.029999999 -3.5280001 -1.452 0.36000001
0.035 -3.526 -1.451 0.34999999
0.046 -3.526 -1.451 0.38
0.057 -3.517 -1.447 0.37
0.068000004 -3.5179999 -1.448 0.34
0.079000004 -3.5239999 -1.45 0.23
0.090999998 -3.5469999 -1.461 0
0.102 -3.5250001 -1.451 0
0.107 -3.5339999 -1.455 0
0.223 -3.523 -1.4529999 0
0.235 -3.526 -1.455 0
0.23800001 -3.4820001 -1.4349999 0
0.249 -3.4849999 -1.437 0
0.25999999 -3.487 -1.438 0.02
0.27200001 -3.5050001 -1.446 0.12
0.28299999 -3.506 -1.447 0.18000001
0.29300001 -3.487 -1.439 0.2
0.303 -3.4749999 -1.434 0.23
0.31 -3.4909999 -1.442 0.37
0.31799999 -3.451 -1.424 0.22
0.33500001 -3.5209999 -1.456 0.28999999
0.347 -3.539 -1.464 0.25
0.35800001 -3.536 -1.4630001 0.23999999
0.366 -3.4960001 -1.446 0.22
0.37599999 -3.4860001 -1.442 0.31999999
0.38100001 -3.4820001 -1.441 0.31999999
0.39199999 -3.4860001 -1.443 0.38999999
0.405 -3.5009999 -1.45 0.25
0.41600001 -3.503 -1.452 0.28999999
0.42899999 -3.5150001 -1.4579999 0.2
0.43900001 -3.503 -1.4529999 0.20999999
0.44600001 -3.5150001 -1.459 0.16
0.45699999 -3.513 -1.459 0.23999999
0.46799999 -3.51 -1.4579999 0.20999999
0.47799999 -3.5009999 -1.455 0.27000001
0.48800001 -3.4979999 -1.454 0.23
0.49700001 -3.4820001 -1.447 0.27000001
0.50599998 -3.464 -1.4400001 0.38999999
0.51300001 -3.47 -1.443 0.47999999
0.52499998 -3.4779999 -1.447 0.31
0.53200001 -3.4530001 -1.437 0
0.54299998 -3.4489999 -1.436 0
0.55400002 -3.451 -1.437 0
1.217 -3.3269999 -1.459 0
1.2410001 -3.359 -1.476 0
1.25 -3.352 -1.474 0
1.257 -3.339 -1.47 0
1.261 -3.332 -1.4680001 0
1.2539999 -3.2820001 -1.446 0.029999999
1.271 -3.2950001 -1.454 0.07
1.291 -3.3169999 -1.466 0.15000001
1.2970001 -3.3010001 -1.46 0.20999999
1.308 -3.3 -1.462 0.23
1.323 -3.3080001 -1.4680001 0.11
1.34 -3.335 -1.4809999 0.039999999
1.357 -3.346 -1.489 0.07
1.376 -3.3640001 -1.499 0.079999998
1.387 -3.3610001 -1.5 0.090000004
1.398 -3.358 -1.501 0.18000001
1.415 -3.369 -1.508 0.11
1.423 -3.358 -1.505 0.20999999
1.432 -3.3659999 -1.51 0.19
1.444 -3.3629999 -1.511 0.28999999
1.455 -3.3599999 -1.511 0.38
1.467 -3.359 -1.513 0.34
1.478 -3.3540001 -1.513 0.25999999
1.488 -3.3499999 -1.513 0.23999999
1.4960001 -3.3399999 -1.511 0.34
1.505 -3.3440001 -1.5140001 0.31999999
1.512 -3.3329999 -1.511 0.36000001
1.529 -3.3410001 -1.517 0.36000001
1.5369999 -3.3310001 -1.515 0.40000001
1.548 -3.3280001 -1.515 0.28999999
1.5599999 -3.3269999 -1.517 0.37
1.567 -3.3280001 -1.5190001 0.38
1.5829999 -3.3340001 -1.524 0.44999999
1.597 -3.3380001 -1.528 0.34
1.607 -3.332 -1.528 0.44999999
1.613 -3.3180001 -1.524 0.38999999
1.624 -3.312 -1.524 0.41
1.641 -3.322 -1.531 0.38
1.642 -3.3099999 -1.526 0.38
1.653 -3.306 -1.527 0.36000001
1.666 -3.3069999 -1.53 0.33000001
1.675 -3.299 -1.528 0.36000001
1.684 -3.29 -1.527 0.37
1.697 -3.29 -1.529 0.30000001
1.706 -3.283 -1.528 0.34999999
1.714 -3.2850001 -1.531 0.36000001
1.722 -3.277 -1.529 0.34999999
1.737 -3.279 -1.533 0.33000001
1.74 -3.2609999 -1.527 0.37
1.756 -3.2650001 -1.5319999 0.38
1.768 -3.263 -1.533 0.28999999
1.774 -3.2490001 -1.529 0.44999999
1.7819999 -3.253 -1.533 0.36000001
1.79 -3.2420001 -1.53 0.34
1.803 -3.243 -1.533 0.28999999
1.8150001 -3.2390001 -1.534 0.41999999
1.8200001 -3.2249999 -1.53 0.31999999
1.835 -3.2279999 -1.534 0.36000001
1.84 -3.2249999 -1.534 0.34
1.85 -3.2190001 -1.534 0.34
1.86 -3.2130001 -1.534 0.34
1.868 -3.204 -1.533 0.33000001
1.8789999 -3.2 -1.533 0.34
1.893 -3.2 -1.5369999 0.31999999
1.908 -3.2019999 -1.541 0.34
1.9069999 -3.1900001 -1.536 0.33000001
1.9170001 -3.184 -1.536 0.31999999
1.925 -3.174 -1.534 0.27000001
1.9349999 -3.168 -1.534 0.34999999
1.949 -3.1689999 -1.5369999 0.34
1.964 -3.1700001 -1.541 0.31999999
1.969 -3.1559999 -1.5369999 0.33000001
1.974 -3.1530001 -1.5369999 0.33000001
1.9859999 -3.1500001 -1.539 0.28999999
1.9960001 -3.1440001 -1.539 0.25
2.0050001 -3.1370001 -1.539 0.47
2.0209999 -3.1400001 -1.544 0.34
2.027 -3.128 -1.541 0.34
2.0320001 -3.125 -1.541 0.34
2.0420001 -3.118 -1.541 0.34
2.056 -3.118 -1.544 0.34
2.0610001 -3.105 -1.541 0.34
2.0769999 -3.108 -1.546 0.28999999
2.082 -3.0940001 -1.541 0.34999999
2.0940001 -3.0899999 -1.543 0.30000001
2.1029999 -3.0929999 -1.546 0.36000001
2.105 -3.076 -1.541 0.31
2.119 -3.075 -1.544 0.34999999
2.135 -3.0780001 -1.549 0.34
2.1389999 -3.063 -1.545 0.34
2.145 -3.0510001 -1.541 0.28999999
2.165 -3.059 -1.55 0.34999999
2.1570001 -3.0380001 -1.54 0.28
2.1760001 -3.0439999 -1.5470001 0.34999999
2.1900001 -3.043 -1.55 0.34
2.1949999 -3.0309999 -1.5470001 0.34999999
2.197 -3.013 -1.541 0.30000001
2.2190001 -3.0239999 -1.551 0.34999999
2.224 -3.0109999 -1.548 0.34
2.2309999 -3.0109999 -1.55 0.34
2.243 -3.007 -1.551 0.31
2.2490001 -2.9949999 -1.549 0.38999999
2.26 -2.9890001 -1.55 0.31
2.273 -2.9879999 -1.553 0.36000001
2.276 -2.9719999 -1.548 0.31
2.2880001 -2.9679999 -1.55 0.33000001
2.3 -2.9749999 -1.5549999 0.37
2.3069999 -2.964 -1.554 0.34999999
2.309 -2.947 -1.548 0.28999999
2.3280001 -2.9530001 -1.5549999 0.36000001
2.325 -2.9300001 -1.546 0.31
2.342 -2.9319999 -1.552 0.36000001
2.3499999 -2.9330001 -1.554 0.28999999
2.3559999 -2.921 -1.552 0.36000001
2.3659999 -2.915 -1.553 0.33000001
2.3759999 -2.9089999 -1.554 0.28999999
2.3859999 -2.902 -1.554 0.34999999
2.398 -2.8989999 -1.556 0.33000001
2.405 -2.888 -1.554 0.28999999
2.4089999 -2.8840001 -1.554 0.34999999
2.4219999 -2.881 -1.557 0.31
2.4300001 -2.872 -1.556 0.36000001
2.4330001 -2.8570001 -1.552 0.30000001
2.4549999 -2.865 -1.561 0.36000001
2.467 -2.862 -1.563 0.34
2.4630001 -2.8380001 -1.554 0.31
2.4760001 -2.8440001 -1.5599999 0.33000001
2.49 -2.842 -1.563 0.38
2.494 -2.829 -1.5599999 0.31999999
2.5090001 -2.8280001 -1.564 0.33000001
2.513 -2.8139999 -1.561 0.31999999
2.5220001 -2.806 -1.561 0.38
2.527 -2.8039999 -1.562 0.31
2.539 -2.799 -1.563 0.38
2.54 -2.7820001 -1.559 0.30000001
2.5539999 -2.78 -1.562 0.37
2.562 -2.7720001 -1.562 0.30000001
2.569 -2.7609999 -1.5599999 0.37
2.576 -2.7520001 -1.559 0.28999999
2.5829999 -2.75 -1.561 0.36000001
2.5929999 -2.744 -1.562 0.34
2.5999999 -2.734 -1.561 0.28999999
2.6170001 -2.7349999 -1.567 0.36000001
2.6159999 -2.7160001 -1.5599999 0.28999999
2.628 -2.7119999 -1.563 0.38
2.6389999 -2.7060001 -1.564 0.30000001
2.6440001 -2.7019999 -1.564 0.36000001
2.655 -2.697 -1.566 0.34
2.6589999 -2.684 -1.563 0.34
2.674 -2.6819999 -1.567 0.34
2.6819999 -2.674 -1.567 0.31999999
2.6860001 -2.6600001 -1.564 0.34
2.6949999 -2.6530001 -1.5650001 0.34999999
2.7019999 -2.652 -1.567 0.30000001
2.714 -2.6470001 -1.569 0.36000001
2.721 -2.6370001 -1.568 0.34
2.7279999 -2.6270001 -1.567 0.34
2.737 -2.619 -1.567 0.31999999
2.747 -2.6129999 -1.569 0.34
2.7579999 -2.6059999 -1.571 0.34999999
2.7609999 -2.6010001 -1.5700001 0.34
2.7639999 -2.5869999 -1.567 0.34
2.779 -2.585 -1.571 0.33000001
2.7920001 -2.5810001 -1.574 0.34
2.7950001 -2.5669999 -1.571 0.27000001
2.8039999 -2.5599999 -1.572 0.36000001
2.8050001 -2.553 -1.5700001 0.30000001
2.823 -2.553 -1.576 0.34999999
2.8280001 -2.5409999 -1.574 0.34
2.829 -2.526 -1.5700001 0.25999999
2.8369999 -2.517 -1.5700001 0.31999999
2.859 -2.5209999 -1.5779999 0.33000001
2.8670001 -2.5120001 -1.5779999 0.38
2.8710001 -2.507 -1.5779999 0.28999999
2.868 -2.4879999 -1.572 0.25
2.882 -2.4849999 -1.576 0.31999999
2.8900001 -2.4760001 -1.576 0.34999999
2.892 -2.4619999 -1.572 0.28999999
2.9119999 -2.464 -1.58 0.36000001
2.904 -2.441 -1.5700001 0.28999999
2.9000001 -2.4300001 -1.566 0
2.9159999 -2.428 -1.571 0
2.944 -2.4349999 -1.582 0
3.1760001 -2.1659999 -1.5930001 0
3.165 -2.1440001 -1.5829999 0.059999999
3.1700001 -2.1329999 -1.582 0.19
3.187 -2.1300001 -1.5880001 0.23
3.1919999 -2.119 -1.587 0.31
3.2019999 -2.1110001 -1.589 0.28999999
3.2079999 -2.108 -1.59 0.30000001
3.204 -2.0910001 -1.585 0.30000001
3.223 -2.089 -1.591 0.27000001
3.21 -2.066 -1.58 0
3.2130001 -2.053 -1.579 0
3.2360001 -2.0539999 -1.5880001 0
3.4319999 -1.804 -1.607 0.029999999
3.4319999 -1.7970001 -1.6059999 0.15000001
3.4419999 -1.789 -1.608 0.2
3.444 -1.776 -1.6059999 0.25999999
3.448 -1.7640001 -1.6059999 0.30000001
3.4619999 -1.758 -1.61 0.31999999
3.464 -1.745 -1.608 0.31999999
3.4790001 -1.739 -1.613 0.30000001
3.4849999 -1.7359999 -1.615 0.31999999
3.4790001 -1.719 -1.609 0.31
3.493 -1.712 -1.613 0.31
3.503 -1.7029999 -1.615 0.31999999
3.5139999 -1.6950001 -1.618 0.31
3.517 -1.683 -1.617 0.31
3.526 -1.673 -1.619 0.31999999
3.5280001 -1.668 -1.619 0.30000001
3.54 -1.66 -1.622 0.31
3.549 -1.65 -1.624 0.31
3.5469999 -1.636 -1.62 0.27000001
3.559 -1.628 -1.624 0.33000001
3.566 -1.618 -1.624 0.31999999
3.5680001 -1.612 -1.624 0.28999999
3.5829999 -1.605 -1.6289999 0.30000001
3.5969999 -1.598 -1.633 0.31
3.598 -1.585 -1.632 0.28
3.6029999 -1.574 -1.632 0.27000001
3.615 -1.5650001 -1.635 0.38
3.6059999 -1.548 -1.628 0.30000001
3.6140001 -1.545 -1.631 0.34
3.615 -1.5319999 -1.6289999 0.28
3.625 -1.523 -1.632 0.33000001
3.632 -1.512 -1.632 0.31999999
3.645 -1.5039999 -1.637 0.31
3.6440001 -1.4910001 -1.6339999 0.28999999
3.6489999 -1.479 -1.6339999 0.30000001
3.651 -1.473 -1.6339999 0.31
3.6559999 -1.462 -1.6339999 0.30000001
3.6659999 -1.452 -1.637 0.30000001
3.6719999 -1.442 -1.637 0.30000001
3.6700001 -1.427 -1.6339999 0.28
3.688 -1.421 -1.641 0.34
3.7019999 -1.414 -1.645 0.31999999
3.7179999 -1.413 -1.652 0.31999999
3.7479999 -1.411 -1.664 0.31999999
3.7709999 -1.4069999 -1.673 0.30000001
3.7950001 -1.402 -1.682 0.28999999
3.825 -1.399 -1.694 0.28999999
3.8599999 -1.399 -1.709 0.31999999
3.8859999 -1.402 -1.72 0.31
3.9089999 -1.396 -1.729 0.28999999
3.934 -1.391 -1.739 0.31
3.9560001 -1.385 -1.747 0.25999999
3.964 -1.374 -1.749 0.34999999
3.9749999 -1.364 -1.752 0.31999999
3.977 -1.351 -1.751 0.34
3.983 -1.346 -1.753 0.25
3.9920001 -1.335 -1.755 0.33000001
4.0209999 -1.331 -1.767 0
3.869 1.4400001 -1.766 0.15000001
3.8699999 1.454 -1.768 0.25
3.8469999 1.459 -1.7589999 0.27000001
3.8570001 1.477 -1.767 0.28999999
3.8440001 1.485 -1.762 0.25999999
3.8299999 1.487 -1.757 0.33000001
3.8299999 1.501 -1.7589999 0.27000001
3.8369999 1.518 -1.765 0.31
3.809 1.52 -1.753 0.31999999
3.8039999 1.5319999 -1.753 0.25999999
3.826 1.5549999 -1.767 0.37
3.793 1.5549999 -1.752 0.25
3.7939999 1.563 -1.7539999 0.33000001
3.7969999 1.5779999 -1.758 0.27000001
3.789 1.589 -1.757 0.36000001
3.7820001 1.6 -1.756 0.33000001
3.789 1.617 -1.762 0.30000001
3.7590001 1.618 -1.749 0.30000001
3.756 1.624 -1.749 0.33000001
3.763 1.641 -1.755 0.30000001
3.7490001 1.649 -1.751 0.33000001
3.7520001 1.664 -1.755 0.31999999
3.7360001 1.671 -1.749 0.28999999
3.727 1.681 -1.747 0.36000001
3.723 1.693 -1.748 0.25999999
3.727 1.702 -1.752 0.2
3.7349999 1.72 -1.758 0.37
3.74 1.7359999 -1.763 0.36000001
3.7309999 1.747 -1.762 0.47
3.727 1.7589999 -1.762 0.36000001
3.721 1.771 -1.762 0.47999999
3.7190001 1.784 -1.7640001 0.38
3.7049999 1.784 -1.758 0.5
3.714 1.803 -1.766 0.38999999
3.711 1.817 -1.767 0.41
3.698 1.824 -1.763 0.41
3.6949999 1.837 -1.765 0.41999999
3.6500001 1.829 -1.745 0.58999997
3.661 1.849 -1.753 0.34
3.6559999 1.854 -1.752 0.34
3.6470001 1.864 -1.751 0.28999999
3.6400001 1.874 -1.75 0.31999999
3.6400001 1.8890001 -1.753 0.38999999
3.6329999 1.9 -1.752 0.33000001
3.6229999 1.909 -1.751 0.34
3.6289999 1.927 -1.757 0
3.6129999 1.925 -1.75 0
3.517 2.2620001 -1.79 0.02
3.4530001 2.2360001 -1.7589999 0.13
3.454 2.2509999 -1.763 0.17
3.4260001 2.2479999 -1.752 0.25
3.4319999 2.2679999 -1.7589999 0.23
3.4170001 2.2650001 -1.752 0.27000001
3.4059999 2.2739999 -1.751 0.27000001
3.3989999 2.2850001 -1.751 0.34
3.395 2.2969999 -1.752 0.30000001
3.382 2.3039999 -1.749 0.31999999
3.369 2.3099999 -1.7460001 0.23
3.3699999 2.3269999 -1.751 0.13
3.365 2.3310001 -1.75 0
3.359 2.3429999 -1.751 0
3.1670001 2.694 -1.779 0.050000001
3.155 2.7019999 -1.777 0.18000001
3.118 2.6860001 -1.76 0.25
3.1070001 2.694 -1.758 0.28999999
3.1010001 2.7060001 -1.76 0.31999999
3.0869999 2.711 -1.757 0.27000001
3.0769999 2.7190001 -1.756 0.44
3.082 2.733 -1.762 0.25
3.059 2.7290001 -1.752 0.25999999
3.056 2.743 -1.756 0.33000001
3.0580001 2.763 -1.762 0.33000001
3.04 2.7639999 -1.757 0.33000001
3.03 2.7720001 -1.756 0.34
3.03 2.79 -1.762 0.31
3.0139999 2.7839999 -1.7539999 0.38
3.0050001 2.793 -1.7539999 0.25
3.0150001 2.8199999 -1.766 0.40000001
2.984 2.8080001 -1.752 0.28999999
2.9790001 2.822 -1.7539999 0.34
2.9790001 2.8399999 -1.76 0.28999999
2.9679999 2.8380001 -1.756 0.41999999
2.9630001 2.8510001 -1.758 0.28999999
2.9519999 2.858 -1.757 0.25
2.934 2.858 -1.751 0.28
2.928 2.8710001 -1.753 0.31999999
2.928 2.8889999 -1.7589999 0.33000001
2.905 2.8840001 -1.75 0.36000001
2.8989999 2.888 -1.749 0.34999999
2.902 2.9089999 -1.757 0.27000001
2.8859999 2.911 -1.752 0.40000001
2.878 2.921 -1.753 0.28
2.878 2.9400001 -1.7589999 0.34
2.859 2.938 -1.752 0.38999999
2.8469999 2.9449999 -1.751 0.34
2.8540001 2.961 -1.758 0.25999999
2.8380001 2.9630001 -1.7539999 0.28999999
2.829 2.9719999 -1.7539999 0.49000001
2.8210001 2.9820001 -1.755 0.23
2.806 2.9860001 -1.752 0.25
2.803 3.0009999 -1.756 0.41
2.7980001 3.0150001 -1.7589999 0.31999999
2.7809999 3.006 -1.751 0.28999999
2.779 3.023 -1.756 0.33000001
2.767 3.029 -1.7539999 0.34
2.7509999 3.03 -1.749 0.36000001
2.757 3.056 -1.76 0.36000001
2.74 3.0569999 -1.755 0.33000001
2.723 3.0569999 -1.75 0.38
2.721 3.0639999 -1.752 0.30000001
2.717 3.079 -1.756 0.31999999
2.704 3.0840001 -1.753 0.37
2.6919999 3.089 -1.752 0.41
2.6830001 3.099 -1.752 0.30000001
2.6760001 3.1099999 -1.7539999 0.34999999
2.6689999 3.112 -1.752 0.36000001
2.661 3.1229999 -1.7539999 0.36000001
2.6470001 3.1259999 -1.751 0.27000001
2.641 3.1400001 -1.7539999 0.38
2.6289999 3.145 -1.752 0.38
2.619 3.1530001 -1.752 0.23999999
2.6110001 3.1630001 -1.753 0.43000001
2.6040001 3.1659999 -1.752 0.31
2.598 3.178 -1.755 0.34999999
2.5829999 3.181 -1.752 0.31
2.5769999 3.1930001 -1.7539999 0.34
2.5639999 3.198 -1.752 0.36000001
2.5610001 3.2149999 -1.757 0.41
2.5510001 3.223 -1.757 0.25999999
2.5469999 3.2279999 -1.758 0.30000001
2.5320001 3.2309999 -1.755 0.44
2.5190001 3.234 -1.752 0.28999999
2.51 3.243 -1.753 0.34999999
2.4979999 3.2479999 -1.752 0.33000001
2.4890001 3.2590001 -1.753 0.30000001
2.477 3.2639999 -1.752 0.40000001
2.4760001 3.2739999 -1.755 0.28
2.4649999 3.28 -1.7539999 0.36000001
2.4519999 3.2850001 -1.752 0.27000001
2.4460001 3.2980001 -1.756 0.36000001
2.4360001 3.306 -1.756 0.34999999
2.4260001 3.3139999 -1.756 0.31
2.4200001 3.329 -1.76 0.40000001
2.4070001 3.3210001 -1.753 0.25999999
2.3970001 3.3299999 -1.7539999 0.31999999
2.3889999 3.3399999 -1.756 0.31999999
2.3829999 3.3540001 -1.7589999 0.31999999
2.3699999 3.358 -1.757 0.41
2.3599999 3.3659999 -1.757 0.34
2.3510001 3.365 -1.755 0.31
2.3380001 3.369 -1.753 0.33000001
2.335 3.3870001 -1.7589999 0.34999999
2.3239999 3.3940001 -1.7589999 0.41
2.3110001 3.3970001 -1.757 0.22
2.303 3.4089999 -1.7589999 0.34999999
2.289 3.4119999 -1.757 0.36000001
2.28 3.4089999 -1.753 0.34
2.2750001 3.425 -1.758 0.28999999
2.2579999 3.4230001 -1.753 0.46000001
2.2509999 3.4349999 -1.756 0.25
2.2390001 3.441 -1.755 0.33000001
2.2309999 3.4519999 -1.757 0.28999999
2.2149999 3.451 -1.753 0.37
2.2149999 3.4630001 -1.757 0.44
2.1989999 3.4619999 -1.753 0.27000001
2.191 3.473 -1.756 0.27000001
2.177 3.4760001 -1.753 0.37
2.1689999 3.487 -1.756 0.36000001
2.1570001 3.4920001 -1.755 0.31999999
2.1459999 3.4990001 -1.755 0.34
2.1440001 3.507 -1.757 0.34999999
2.132 3.5120001 -1.757 0.33000001
2.119 3.516 -1.755 0.34
2.108 3.5220001 -1.755 0.31999999
2.0969999 3.5309999 -1.756 0.34999999
2.0840001 3.5320001 -1.753 0.38
2.076 3.5450001 -1.757 0.31
2.0699999 3.5469999 -1.756 0.33000001
2.0610001 3.5580001 -1.758 0.36000001
2.046 3.5580001 -1.755 0.34999999
2.033 3.5599999 -1.752 0.34
2.0239999 3.5710001 -1.755 0.31999999
2.0120001 3.576 -1.7539999 0.30000001
2.003 3.5869999 -1.757 0.38999999
1.993 3.582 -1.752 0.23
1.987 3.598 -1.757 0.41999999
1.974 3.6010001 -1.756 0.20999999
1.9680001 3.6170001 -1.761 0.44999999
1.954 3.618 -1.758 0.23999999
1.9400001 3.619 -1.756 0.25
1.934 3.635 -1.761 0.41999999
1.924 3.6300001 -1.757 0.28999999
1.914 3.6389999 -1.758 0.28999999
1.901 3.642 -1.757 0.43000001
1.89 3.648 -1.757 0.23
1.883 3.664 -1.762 0.37
1.868 3.6630001 -1.758 0.27000001
1.857 3.6689999 -1.758 0.44999999
1.852 3.674 -1.7589999 0.22
1.84 3.6789999 -1.7589999 0.40000001
1.829 3.6849999 -1.7589999 0.30000001
1.818 3.6919999 -1.76 0.31
1.806 3.698 -1.76 0.41999999
1.7920001 3.697 -1.757 0.36000001
1.778 3.7 -1.755 0.27000001
1.777 3.7119999 -1.76 0.28999999
1.7589999 3.7049999 -1.753 0.33000001
1.751 3.717 -1.757 0.36000001
1.738 3.7190001 -1.755 0.33000001
1.727 3.7279999 -1.757 0.31
1.7180001 3.7379999 -1.7589999 0.36000001
1.702 3.7349999 -1.755 0.31999999
1.7 3.744 -1.758 0.30000001
1.686 3.7449999 -1.756 0.31999999
1.677 3.7579999 -1.76 0.38
1.666 3.7650001 -1.761 0.31999999
1.652 3.766 -1.758 0.25
1.638 3.7639999 -1.755 0.31999999
1.637 3.7780001 -1.761 0.38999999
1.626 3.7850001 -1.762 0.28999999
1.614 3.7920001 -1.762 0.38999999
1.6 3.7920001 -1.76 0.23999999
1.591 3.802 -1.762 0.41
1.575 3.7980001 -1.758 0.28999999
1.5650001 3.8069999 -1.76 0.33000001
1.559 3.8110001 -1.761 0.37
1.549 3.8210001 -1.763 0.25
1.5369999 3.826 -1.763 0.36000001
1.525 3.829 -1.762 0.34
1.511 3.8299999 -1.761 0.37
1.5 3.8369999 -1.762 0.30000001
1.488 3.8410001 -1.762 0.34
1.485 3.852 -1.766 0.28
1.474 3.859 -1.767 0.38999999
1.456 3.849 -1.76 0.25999999
1.449 3.868 -1.767 0.36000001
1.439 3.8770001 -1.7690001 0.31
1.424 3.8729999 -1.765 0.28999999
1.408 3.869 -1.761 0.30000001
1.409 3.8900001 -1.77 0.38
1.39 3.8740001 -1.76 0.28999999
1.382 3.892 -1.767 0.38999999
1.372 3.9030001 -1.77 0.28999999
1.357 3.8989999 -1.766 0.30000001
1.345 3.9030001 -1.766 0.34
1.337 3.9200001 -1.772 0.23
1.326 3.908 -1.765 0.38
1.3150001 3.915 -1.767 0.28999999
1.3049999 3.928 -1.771 0.31999999
1.289 3.9200001 -1.765 0.30000001
1.278 3.928 -1.767 0.37
1.267 3.9349999 -1.768 0.31
1.25 3.925 -1.762 0.27000001
1.2460001 3.934 -1.765 0.38
1.238 3.954 -1.772 0.31999999
1.22 3.938 -1.763 0.30000001
1.209 3.947 -1.766 0.36000001
1.202 3.97 -1.775 0.27000001
1.184 3.9530001 -1.765 0.36000001
1.174 3.9660001 -1.7690001 0.31999999
1.169 3.971 -1.771 0.25999999
1.15 3.954 -1.761 0.23
1.142 3.973 -1.768 0.38
1.135 3.9960001 -1.777 0.31999999
1.117 3.9779999 -1.767 0.27000001
1.105 3.984 -1.768 0.34
1.092 3.987 -1.768 0.31999999
1.0829999 3.9760001 -1.762 0.20999999
1.072 3.987 -1.766 0.31999999
1.0650001 4.0110002 -1.776 0.36000001
1.0470001 3.9920001 -1.765 0.34999999
1.036 4.0040002 -1.7690001 0.30000001
1.024 4.0089998 -1.77 0.27000001
1.01 4.0050001 -1.767 0.22
1.0039999 4.0079999 -1.767 0.38
0.99299997 4.0190001 -1.771 0.33000001
0.98000002 4.02 -1.77 0.31
0.963 4.0029998 -1.761 0.20999999
0.95899999 4.0440001 -1.778 0.38
0.93800002 4.0110002 -1.762 0.28
0.92799997 4.0250001 -1.767 0.30000001
0.92400002 4.0370002 -1.772 0.30000001
0.90600002 4.0149999 -1.76 0.30000001
0.89700001 4.0339999 -1.767 0.31
0.884 4.0380001 -1.768 0.31999999
0.87 4.0339999 -1.765 0.31
0.85900003 4.0440001 -1.768 0.28999999
0.847 4.0500002 -1.77 0.30000001
0.83700001 4.0320001 -1.761 0.34999999
0.82700002 4.0489998 -1.767 0.34999999
0.815 4.0549998 -1.7690001 0.28999999
0.80199999 4.0570002 -1.7690001 0.34999999
0.78799999 4.0539999 -1.767 0.25
0.77499998 4.0570002 -1.767 0.28
0.76300001 4.0630002 -1.768 0.38
0.75599998 4.059 -1.766 0.27000001
0.74400002 4.0650001 -1.767 0.33000001
0.73100001 4.0669999 -1.767 0.31999999
0.71899998 4.073 -1.7690001 0.25999999
0.70499998 4.0700002 -1.767 0.31999999
0.69300002 4.0749998 -1.768 0.30000001
0.68800002 4.0840001 -1.772 0.37
0.67400002 4.0770001 -1.767 0.31
0.66100001 4.0830002 -1.7690001 0.25
0.648 4.085 -1.7690001 0.34999999
0.634 4.0780001 -1.765 0.27000001
0.62300003 4.0869999 -1.768 0.34
0.60900003 4.0869999 -1.767 0.25999999
0.59600002 4.085 -1.766 0.36000001
0.58999997 4.086 -1.766 0.28999999
0.57700002 4.0879998 -1.766 0.36000001
0.56599998 4.1040001 -1.772 0.34
0.551 4.0900002 -1.765 0.25
0.537 4.0840001 -1.762 0.36000001
0.52600002 4.0970001 -1.767 0.23
0.514 4.1059999 -1.77 0.28999999
0.50700003 4.1030002 -1.768 0.31
0.495 4.1129999 -1.772 0.36000001
0.48100001 4.1090002 -1.77 0.28999999
0.46799999 4.1090002 -1.7690001 0.27000001
0.456 4.1199999 -1.773 0.38999999
0.442 4.112 -1.7690001 0.31
0.43000001 4.1209998 -1.772 0.33000001
0.42199999 4.1069999 -1.766 0.28999999
0.41 4.1139998 -1.768 0.23
0.39700001 4.1170001 -1.7690001 0.33000001
0.384 4.1199999 -1.77 0.34
0.37099999 4.1139998 -1.767 0.34
0.35699999 4.1079998 -1.763 0.27000001
0.352 4.1230001 -1.77 0.33000001
0.33899999 4.1199999 -1.768 0.27000001
0.32600001 4.125 -1.77 0.34999999
0.31299999 4.118 -1.767 0.31
0.30000001 4.119 -1.767 0.28999999
0.287 4.1220002 -1.767 0.36000001
0.27399999 4.1279998 -1.77 0.30000001
0.26699999 4.1220002 -1.767 0.30000001
0.255 4.1240001 -1.767 0.34
0.241 4.1230001 -1.767 0.31
0.229 4.1279998 -1.768 0.31999999
0.21600001 4.1409998 -1.774 0.34
0.20299999 4.1290002 -1.768 0.25
0.19 4.1350002 -1.771 0.34
0.183 4.1279998 -1.767 0.30000001
0.171 4.1399999 -1.772 0.37
0.15700001 4.131 -1.768 0.28999999
0.14399999 4.1370001 -1.771 0.34999999
0.131 4.1300001 -1.767 0.31999999
0.118 4.1300001 -1.767 0.31999999
0.105 4.131 -1.767 0.28999999
0.098999999 4.1240001 -1.7640001 0.31
0.086000003 4.1240001 -1.7640001 0.33000001
0.072999999 4.131 -1.767 0.34999999
0.059999999 4.1339998 -1.768 0.31
0.046999998 4.1370001 -1.77 0.23999999
0.034000002 4.1300001 -1.767 0.25999999
0.021 4.132 -1.767 0.34
0.015 4.125 -1.7640001 0.30000001
0.0020000001 4.1269999 -1.765 0.31
-0.011 4.1279998 -1.766 0.36000001
-0.024 4.1279998 -1.766 0.30000001
-0.037 4.125 -1.7640001 0.34
-0.050000001 4.1259999 -1.765 0.27000001
-0.063000001 4.132 -1.767 0.34999999
-0.07 4.1300001 -1.767 0.28
-0.082999997 4.1389999 -1.771 0.34
-0.096000001 4.1269999 -1.766 0.25
-0.109 4.131 -1.767 0.41
-0.122 4.1269999 -1.766 0.31
-0.13500001 4.1259999 -1.766 0.28999999
-0.148 4.1279998 -1.767 0.25999999
-0.154 4.1329999 -1.7690001 0.38
-0.167 4.131 -1.768 0.38
-0.18000001 4.1230001 -1.765 0.25
-0.193 4.1259999 -1.767 0.33000001
-0.206 4.1220002 -1.765 0.31
-0.21799999 4.1139998 -1.762 0.25999999
-0.23199999 4.1290002 -1.7690001 0.36000001
-0.23800001 4.1110001 -1.761 0.25
-0.25099999 4.1230001 -1.767 0.31
-0.264 4.1129999 -1.762 0.31999999
-0.27700001 4.1230001 -1.767 0.34
-0.28999999 4.1199999 -1.767 0.28999999
-0.30199999 4.1100001 -1.762 0.28
-0.31600001 4.118 -1.767 0.38
-0.32300001 4.1199999 -1.767 0.33000001
-0.33500001 4.1129999 -1.765 0.31999999
-0.34900001 4.125 -1.771 0.30000001
-0.361 4.1090002 -1.7640001 0.23999999
-0.37599999 4.1279998 -1.773 0.38999999
-0.38699999 4.1100001 -1.766 0.30000001
-0.40000001 4.1110001 -1.767 0.30000001
-0.40700001 4.1100001 -1.767 0.33000001
-0.41999999 4.1139998 -1.7690001 0.30000001
-0.433 4.1170001 -1.771 0.34999999
-0.44600001 4.112 -1.7690001 0.28999999
-0.45899999 4.1079998 -1.768 0.34
-0.47099999 4.1020002 -1.766 0.33000001
-0.484 4.1020002 -1.767 0.22
-0.49200001 4.1160002 -1.773 0.38999999
-0.50400001 4.1009998 -1.767 0.33000001
-0.51800001 4.1110001 -1.772 0.28999999
-0.52999997 4.1040001 -1.77 0.31
-0.542 4.0960002 -1.767 0.31
-0.55599999 4.098 -1.7690001 0.30000001
-0.56800002 4.0970001 -1.7690001 0.34
-0.57599998 4.1009998 -1.772 0.34
-0.588 4.099 -1.772 0.30000001
-0.60100001 4.0970001 -1.772 0.36000001
-0.61299998 4.085 -1.767 0.28999999
-0.62800002 4.0970001 -1.773 0.31
-0.63800001 4.0830002 -1.767 0.34999999
-0.653 4.0879998 -1.771 0.28999999
-0.66299999 4.1100001 -1.781 0.28999999
-0.67199999 4.086 -1.772 0.30000001
-0.68300003 4.0749998 -1.767 0.31
-0.69800001 4.086 -1.773 0.28999999
-0.70999998 4.0780001 -1.771 0.30000001
-0.72299999 4.0739999 -1.77 0.36000001
-0.736 4.0749998 -1.772 0.27000001
-0.74199998 4.0689998 -1.7690001 0.33000001
-0.75599998 4.0749998 -1.773 0.30000001
-0.76999998 4.0799999 -1.777 0.23999999
-0.77999997 4.0599999 -1.768 0.28999999
-0.79299998 4.0630002 -1.771 0.19
-0.81 4.0819998 -1.781 0.31999999
-0.81900001 4.0580001 -1.771 0.30000001
-0.82800001 4.0689998 -1.777 0.33000001
-0.83899999 4.0609999 -1.774 0.23
-0.85000002 4.0489998 -1.77 0.34999999
-0.86199999 4.0430002 -1.768 0.34
-0.87900001 4.0580001 -1.777 0.23999999
-0.889 4.0450001 -1.772 0.28999999
-0.90100002 4.0359998 -1.7690001 0.27000001
-0.912 4.0549998 -1.778 0.30000001
-0.921 4.0380001 -1.772 0.34999999
-0.93400002 4.0349998 -1.772 0.31999999
-0.95099998 4.0510001 -1.781 0.31
-0.95700002 4.0219998 -1.768 0.30000001
-0.97100002 4.0219998 -1.77 0.28999999
-0.98799998 4.0380001 -1.779 0.37
-0.99000001 4.0170002 -1.77 0.31999999
-1.001 4.007 -1.767 0.28999999
-1.0190001 4.027 -1.777 0.31999999
-1.028 4.0100002 -1.771 0.36000001
-1.043 4.0170002 -1.776 0.31999999
-1.056 4.0139999 -1.776 0.33000001
-1.067 4.0029998 -1.772 0.25999999
-1.073 4 -1.772 0.28999999
-1.0880001 4.0089998 -1.777 0.31999999
-1.097 3.9909999 -1.771 0.28
-1.11 3.9879999 -1.771 0.34
-1.125 3.993 -1.775 0.31
-1.1339999 3.9790001 -1.77 0.31999999
-1.148 3.9790001 -1.772 0.34
-1.1569999 3.9879999 -1.777 0.30000001
-1.163 3.9630001 -1.767 0.34
-1.175 3.9560001 -1.765 0.20999999
-1.198 3.9890001 -1.7819999 0.44999999
-1.202 3.957 -1.7690001 0.23
-1.216 3.9590001 -1.772 0.33000001
-1.232 3.9649999 -1.777 0.23
-1.237 3.9579999 -1.774 0.40000001
-1.249 3.954 -1.774 0.28999999
-1.263 3.9549999 -1.777 0.37
-1.268 3.9289999 -1.766 0.27000001
-1.285 3.937 -1.772 0.34
-1.2970001 3.9349999 -1.772 0.33000001
-1.306 3.9189999 -1.767 0.25
-1.316 3.928 -1.772 0.43000001
-1.3279999 3.9230001 -1.772 0.25999999
-1.337 3.9100001 -1.767 0.28999999
-1.35 3.9070001 -1.768 0.27000001
-1.362 3.9030001 -1.768 0.31999999
-1.375 3.9000001 -1.7690001 0.34
-1.3890001 3.9000001 -1.771 0.33000001
-1.3940001 3.8959999 -1.77 0.28999999
-1.406 3.891 -1.77 0.34999999
-1.418 3.885 -1.7690001 0.23
-1.434 3.891 -1.774 0.38
-1.442 3.8759999 -1.7690001 0.25999999
-1.455 3.8729999 -1.77 0.38999999
-1.473 3.8840001 -1.777 0.30000001
-1.472 3.8629999 -1.768 0.31
-1.487 3.8670001 -1.772 0.34
-1.502 3.869 -1.776 0.31
-1.508 3.849 -1.768 0.31
-1.521 3.846 -1.7690001 0.28
-1.536 3.848 -1.772 0.23
-1.5470001 3.8399999 -1.771 0.44
-1.554 3.8410001 -1.772 0.27000001
-1.5650001 3.832 -1.771 0.28
-1.575 3.8239999 -1.7690001 0.34999999
-1.5829999 3.809 -1.7640001 0.36000001
-1.599 3.8139999 -1.7690001 0.34
-1.6109999 3.8069999 -1.768 0.31
-1.624 3.806 -1.77 0.34
-1.631 3.806 -1.772 0.28999999
-1.6440001 3.803 -1.772 0.36000001
-1.654 3.793 -1.77 0.31999999
-1.665 3.786 -1.7690001 0.27000001
-1.673 3.7720001 -1.765 0.36000001
-1.689 3.777 -1.77 0.25999999
-1.706 3.7820001 -1.775 0.30000001
-1.7029999 3.7609999 -1.766 0.34999999
-1.716 3.757 -1.767 0.25
-1.732 3.76 -1.771 0.40000001
-1.7410001 3.7490001 -1.768 0.34
-1.7539999 3.7460001 -1.7690001 0.34999999
-1.77 3.75 -1.774 0.25
-1.777 3.734 -1.7690001 0.31999999
-1.783 3.7320001 -1.7690001 0.38
-1.794 3.724 -1.768 0.22
-1.806 3.72 -1.7690001 0.41
-1.817 3.711 -1.767 0.31
-1.8329999 3.7149999 -1.772 0.36000001
-1.837 3.6930001 -1.7640001 0.22
-1.853 3.697 -1.7690001 0.36000001
-1.86 3.6960001 -1.77 0.31999999
-1.865 3.6789999 -1.7640001 0.38
-1.88 3.678 -1.767 0.28999999
-1.895 3.6800001 -1.771 0.34999999
-1.902 3.664 -1.766 0.31
-1.915 3.6619999 -1.767 0.20999999
-1.932 3.665 -1.772 0.41999999
-1.9349999 3.6570001 -1.77 0.27000001
-1.949 3.6559999 -1.772 0.38
-1.959 3.648 -1.772 0.33000001
-1.967 3.6359999 -1.768 0.27000001
-1.98 3.631 -1.7690001 0.34999999
-1.998 3.638 -1.776 0.27000001
-1.999 3.6270001 -1.772 0.38999999
-2.0139999 3.625 -1.774 0.38
-2.0309999 3.6300001 -1.78 0.31
-2.0339999 3.609 -1.772 0.34
-2.0420001 3.596 -1.7690001 0.31999999
-2.0569999 3.596 -1.772 0.31
-2.066 3.585 -1.77 0.31999999
-2.0840001 3.5910001 -1.777 0.38
-2.0940001 3.5940001 -1.78 0.23
-2.0940001 3.569 -1.77 0.44
-2.1059999 3.5639999 -1.771 0.36000001
-2.122 3.5650001 -1.775 0.25
-2.1270001 3.549 -1.77 0.41
-2.138 3.5420001 -1.77 0.23999999
-2.154 3.543 -1.774 0.31999999
-2.158 3.5369999 -1.772 0.41
-2.161 3.5179999 -1.766 0.23
-2.1889999 3.5369999 -1.78 0.43000001
-2.1860001 3.5090001 -1.768 0.25999999
-2.197 3.5020001 -1.768 0.38
-2.2160001 3.507 -1.775 0.27000001
-2.223 3.494 -1.772 0.43000001
-2.2309999 3.493 -1.773 0.25999999
-2.2479999 3.4960001 -1.778 0.37
-2.253 3.4790001 -1.773 0.2
-2.266 3.4749999 -1.775 0.46000001
-2.283 3.4790001 -1.781 0.25999999
-2.2739999 3.441 -1.7640001 0.34999999
-2.2939999 3.448 -1.772 0.30000001
-2.3069999 3.4549999 -1.777 0.30000001
-2.3110001 3.438 -1.772 0.34
-2.3269999 3.4389999 -1.777 0.38
-2.3380001 3.431 -1.777 0.34
-2.3410001 3.4119999 -1.77 0.34
-2.3540001 3.4089999 -1.772 0.41
-2.3759999 3.4170001 -1.781 0.31
-2.3670001 3.3929999 -1.77 0.30000001
-2.3800001 3.3889999 -1.772 0.30000001
-2.3989999 3.3929999 -1.778 0.38999999
-2.3959999 3.3670001 -1.767 0.23
-2.4170001 3.3740001 -1.776 0.31
-2.4330001 3.3740001 -1.78 0.41
-2.434 3.3529999 -1.772 0.25999999
-2.4430001 3.3529999 -1.775 0.38999999
-2.4630001 3.359 -1.7819999 0.30000001
-2.464 3.3380001 -1.775 0.38
-2.4719999 3.3269999 -1.773 0.23
-2.4909999 3.3310001 -1.78 0.34999999
-2.4949999 3.3139999 -1.775 0.36000001
-2.5109999 3.3139999 -1.779 0.37
-2.517 3.3110001 -1.78 0.34
-2.5190001 3.2920001 -1.773 0.33000001
-2.536 3.293 -1.778 0.25
-2.536 3.2720001 -1.771 0.07
-2.543 3.2590001 -1.768 0
-0.949 1.216 -0.58700001 0
-0.89600003 1.142 -0.54500002 0
-2.559 3.2590001 -1.772 0
-0.90700001 1.149 -0.551 0
-0.926 1.165 -0.56199998 0
-0.96499997 1.204 -0.58700001 0
-1.0140001 1.26 -0.62099999 0
-1.034 1.276 -0.63300002 0
-1.023 1.255 -0.62199998 0
-1.035 1.261 -0.62800002 0
-1.013 1.227 -0.60900003 0
-1.073 1.289 -0.648 0
-1.034 1.147 -0.588 0
-0.93199998 1.031 -0.51700002 0
-1.062 1.113 -0.58499998 0
-3.1110001 2.7880001 -1.788 0
-3.131 2.7880001 -1.795 0
-3.118 2.7590001 -1.781 0
-3.1259999 2.7490001 -1.781 0
-3.1459999 2.757 -1.791 0
-3.152 2.7449999 -1.789 0
-3.1619999 2.7360001 -1.79 0
-3.184 2.7379999 -1.798 0
-3.467 2.3659999 -1.7970001 0
-3.47 2.359 -1.796 0
-3.4760001 2.3469999 -1.796 0
-3.4690001 2.3269999 -1.788 0.050000001
-3.484 2.322 -1.7920001 0.15000001
-3.47 2.2969999 -1.781 0.17
-3.4790001 2.2869999 -1.781 0.23
-3.4920001 2.28 -1.785 0.23
-3.4909999 2.2709999 -1.7819999 0.25999999
-3.4949999 2.2579999 -1.781 0.34
-3.5050001 2.2490001 -1.7819999 0.36000001
-3.4979999 2.23 -1.775 0.20999999
-3.5120001 2.2219999 -1.778 0.30000001
-3.5309999 2.2190001 -1.785 0.34
-3.53 2.2030001 -1.781 0.30000001
-3.5239999 2.1919999 -1.776 0.30000001
-3.5280001 2.1789999 -1.774 0.2
-3.536 2.1689999 -1.775 0.25999999
-3.546 2.1600001 -1.777 0.1
-3.563 2.154 -1.781 0.090000004
-3.5599999 2.1370001 -1.777 0
-3.5669999 2.1259999 -1.777 0
-3.5710001 2.1210001 -1.777 0
-3.573 2.1070001 -1.775 0
-3.5929999 2.1029999 -1.781 0
-3.5880001 2.086 -1.776 0
-3.6029999 2.079 -1.78 0
-3.6170001 2.072 -1.784 0
-3.6199999 2.059 -1.7819999 0
-3.6240001 2.053 -1.7819999 0
-3.619 2.036 -1.777 0
-3.6329999 2.029 -1.781 0
-3.648 2.0220001 -1.785 0
-3.641 2.003 -1.778 0
-3.6760001 2.007 -1.793 0
-3.6630001 1.9859999 -1.783 0
-3.6600001 1.976 -1.78 0
-3.6630001 1.9630001 -1.778 0
-3.2869999 -2.053 -1.65 0.02
-3.24 -2.0380001 -1.6289999 0.07
-3.2160001 -2.0369999 -1.619 0.19
-3.2119999 -2.049 -1.6210001 0.23999999
-3.194 -2.0510001 -1.614 0.27000001
-3.187 -2.0539999 -1.612 0.30000001
-3.181 -2.0639999 -1.612 0.34999999
-3.171 -2.072 -1.6109999 0.31999999
-3.1589999 -2.0780001 -1.607 0.28999999
-3.152 -2.0880001 -1.607 0.36000001
-3.1470001 -2.099 -1.608 0.37
-3.1530001 -2.1170001 -1.615 0.33000001
-3.1489999 -2.122 -1.615 0.28999999
-3.132 -2.1240001 -1.609 0.30000001
-3.125 -2.1340001 -1.609 0.27000001
-3.122 -2.1459999 -1.6109999 0.22
-3.1129999 -2.155 -1.61 0.25999999
-3.1099999 -2.1670001 -1.6109999 0.22
-3.092 -2.1689999 -1.6059999 0.20999999
-3.0929999 -2.177 -1.608 0.1
-3.0840001 -2.1849999 -1.6059999 0.19
-3.0840001 -2.2 -1.6109999 0.18000001
-3.0769999 -2.2090001 -1.6109999 0.2
-3.072 -2.22 -1.6109999 0.22
-3.046 -2.2160001 -1.601 0.25
-3.04 -2.2260001 -1.601 0.20999999
-3.05 -2.2409999 -1.609 0.23999999
-3.0309999 -2.2420001 -1.602 0.25
-3.026 -2.2520001 -1.603 0.23
-3.023 -2.2650001 -1.6059999 0.28999999
-3.017 -2.276 -1.6059999 0.30000001
-3.0009999 -2.2780001 -1.601 0.31999999
-2.99 -2.2850001 -1.599 0.27000001
-2.9890001 -2.2909999 -1.601 0.36000001
-2.9760001 -2.296 -1.597 0.31999999
-2.9660001 -2.303 -1.596 0.33000001
-2.97 -2.322 -1.602 0.33000001
-2.954 -2.3239999 -1.597 0.33000001
-2.9430001 -2.3299999 -1.595 0.34
-2.9489999 -2.3429999 -1.601 0.36000001
-2.937 -2.349 -1.598 0.31999999
-2.927 -2.355 -1.597 0.37
-2.928 -2.372 -1.601 0.34999999
-2.914 -2.375 -1.597 0.34
-2.908 -2.385 -1.598 0.31
-2.9089999 -2.401 -1.603 0.31999999
-2.8889999 -2.3929999 -1.594 0.30000001
-2.8829999 -2.4030001 -1.595 0.23
-2.8870001 -2.4219999 -1.601 0.25
-2.8670001 -2.4200001 -1.594 0.1
-2.8540001 -2.424 -1.591 0
-2.8559999 -2.4419999 -1.597 0
-2.8559999 -2.4579999 -1.601 0
-2.8429999 -2.454 -1.596 0
-2.842 -2.4690001 -1.6 0
-2.829 -2.473 -1.597 0
-2.8169999 -2.4779999 -1.594 0
-2.661 -2.724 -1.62 0.02
-2.619 -2.697 -1.597 0.07
-2.6059999 -2.701 -1.595 0.20999999
-2.5829999 -2.6930001 -1.585 0.23
