# .PCD v0.7 - Point Cloud Data file format
VERSION 0.7
FIELDS x y z intensity
SIZE 4 4 4 4
TYPE F F F F
COUNT 1 1 1 1
WIDTH 1408
HEIGHT 1
VIEWPOINT 0 0 0 1 0 0 0
POINTS 1408
DATA ascii
-31.298 -40.819 -1.137 0
-33.463001 -43.93 -1.235 0
-30.789 -40.681 -1.126 0.12
-30.635 -40.743 -1.125 0.20999999
-31.507 -42.041 -1.165 0.1
-30.382 -40.805 -1.122 0.14
-30.208 -40.839001 -1.12 0.1
-30.032 -40.868999 -1.118 0.19
-22.228001 -30.437 -0.778 0.22
-22.18 -30.573 -0.77999997 0.19
-22.021 -30.555 -0.77700001 0.17
-30.903999 -43.041 -1.177 0
-30.929001 -43.362 -1.184 0.12
-30.283001 -42.740002 -1.161 0.12
-29.990999 -42.611 -1.154 0.13
-29.73 -42.522999 -1.148 0
-24.695999 -35.551998 -0.92400002 0
-30.002001 -43.492001 -1.173 0.13
-22.250999 -32.460999 -0.82200003 0.12
-22.191999 -32.485001 -0.82099998 0.41
-22.073 -32.528999 -0.81999999 0.27000001
-22.073 -32.750999 -0.82499999 0.18000001
-22.007999 -32.876999 -0.82700002 0.43000001
-28.632 -43.080002 -1.1440001 0.19
-28.57 -43.279999 -1.148 0.11
-19.857 -30.273001 -0.73900002 0.36000001
-19.802999 -30.294001 -0.73900002 0.31999999
-19.747 -30.417 -0.741 0.27000001
-19.656 -30.487 -0.741 0.15000001
-27.879 -43.561001 -1.1440001 0.090000004
-28.77 -45.266998 -1.194 0.19
-28.194 -44.668999 -1.173 0
-32.150002 -51.299999 -1.374 0
-27.263 -43.647999 -1.137 0
-31.931999 -51.490002 -1.375 0
-27.414 -44.509998 -1.159 0
-26.837999 -43.882999 -1.137 0.15000001
-19.721001 -32.460999 -0.78600001 0.23
-19.674999 -32.617001 -0.78899997 0.30000001
-19.601 -32.724998 -0.79000002 0.30000001
-19.587 -32.819 -0.792 0.25999999
-19.474001 -32.862999 -0.79100001 0
-26.365999 -44.833 -1.152 0
-30.247999 -51.813 -1.36 0
-26.055 -44.949001 -1.15 0
-31.108 -54.067001 -1.4220001 0
-25.146999 -44.015999 -1.117 0.050000001
-25.000999 -43.919998 -1.113 0
-24.944 -44.143002 -1.118 0
-24.85 -44.299999 -1.12 0
-23.299999 -41.841999 -1.044 0.079999998
-23.128 -41.841999 -1.0420001 0.15000001
-23.045 -42.001999 -1.045 0.16
-22.856001 -41.970001 -1.0420001 0.1
-22.844 -42.105999 -1.045 0.13
-22.818001 -42.375 -1.05 0.13
-22.77 -42.605 -1.0549999 0.11
-17.181 -32.377998 -0.75099999 0.28
-17.15 -32.568001 -0.755 0
-24.392 -46.700001 -1.169 0
-23.23 -44.814999 -1.112 0.059999999
-23.059999 -44.830002 -1.11 0
-22.938999 -44.769001 -1.107 0
-22.591 -44.431999 -1.095 0
-23.464001 -46.513 -1.154 0
-25.438 -50.827 -1.277 0
-22.218 -44.737999 -1.098 0
-21.917999 -44.483002 -1.0880001 0
-21.610001 -44.207001 -1.0779999 0.07
-21.514 -44.187 -1.077 0.19
-21.399 -44.304001 -1.0779999 0.19
-21.673 -45.234001 -1.103 0.17
-21.636 -45.523998 -1.11 0
-21.457001 -45.514999 -1.108 0.11
-21.295 -45.542999 -1.1059999 0.1
-21.146999 -45.598 -1.1059999 0.14
-21.177999 -45.855 -1.112 0.12
-20.997999 -45.842999 -1.11 0.17
-20.888 -45.983002 -1.112 0.12
-20.573999 -45.671001 -1.102 0
-20.372 -45.604 -1.098 0.12
-20.291 -45.811001 -1.102 0
-20.823 -47.414001 -1.146 0.11
-20.795 -47.555 -1.149 0.1
-20.16 -46.499001 -1.117 0
-19.999001 -46.525002 -1.1160001 0
-19.945 -46.805 -1.122 0
-19.839001 -46.966999 -1.125 0
-24.061001 -57.478001 -1.42 0
-21.184999 -51.050999 -1.237 0
-20.985001 -51.021 -1.234 0
-20.886999 -51.008999 -1.233 0
-20.690001 -50.986 -1.23 0
-20.528 -51.044998 -1.23 0
-19.74 -49.532001 -1.186 0.079999998
-19.531 -49.459999 -1.182 0
-19.371 -49.507999 -1.182 0
-19.665001 -50.731998 -1.214 0
-19.152 -49.638 -1.183 0
-19.122 -50.026001 -1.192 0
-19.09 -50.418999 -1.201 0
-18.853001 -50.266998 -1.1950001 0.13
-18.681 -50.289001 -1.194 0.18000001
-18.582001 -50.508999 -1.199 0.1
-18.615999 -51.097 -1.2130001 0
-18.313999 -50.513 -1.196 0
-18.201 -50.698002 -1.2 0
-18.362 -51.658001 -1.225 0
-19.409 -55.157001 -1.3200001 0
-19.414 -55.731998 -1.334 0
-17.632999 -51.126999 -1.206 0
-17.429001 -51.055 -1.202 0
-16.954 -49.917999 -1.17 0
-16.73 -49.771999 -1.165 0
-16.584 -49.856998 -1.165 0
-16.399 -49.820999 -1.163 0.14
-16.184999 -49.698002 -1.158 0.18000001
-16.006001 -49.678001 -1.156 0.16
-15.864 -49.77 -1.158 0
-15.82 -49.904999 -1.161 0.12
-15.613 -49.792 -1.156 0
-15.474 -49.898998 -1.158 0
-15.974 -52.094002 -1.216 0
-15.874 -52.352001 -1.222 0
-16.018999 -53.436001 -1.25 0
-15.87 -53.549999 -1.252 0
-15.989 -54.266998 -1.271 0.079999998
-15.784 -54.200001 -1.267 0
-15.6 -54.199001 -1.266 0
-16.136999 -56.737999 -1.334 0
-15.945 -56.743 -1.332 0
-17.09 -61.564999 -1.461 0
-16.982 -61.932999 -1.47 0
-16.944 -62.176998 -1.476 0
-16.76 -62.271 -1.477 0
-16.570999 -62.348 -1.478 0
-16.334999 -62.249001 -1.474 0
-16.132999 -62.275002 -1.473 0
-16.764999 -65.568001 -1.5599999 0
-16.542999 -65.557999 -1.559 0
-15.566 -62.507999 -1.475 0
-10.618 -42.890999 -0.94800001 0.1
-10.451 -42.793999 -0.94400001 0.25
-10.303 -42.768002 -0.94199997 0.23999999
-10.156 -42.75 -0.94099998 0.25
-10.539 -44.993 -1 0
-15.545 -67.375 -1.598 0
-10.212 -44.865002 -0.995 0
-11.009 -52.568001 -1.196 0
-10.822 -52.495998 -1.193 0
-10.573 -51.695999 -1.171 0
-10.266 -51.007999 -1.152 0
-10.078 -50.898998 -1.148 0
-9.9519997 -51.105 -1.153 0
-9.7469997 -50.905998 -1.147 0.079999998
-8.4280005 -44.759998 -0.98299998 0
-9.4110003 -50.877998 -1.145 0
-8.2270002 -44.853001 -0.98400003 0
-9.1809998 -50.977001 -1.146 0.079999998
-8.9700003 -50.717999 -1.138 0
-8.9650002 -51.636002 -1.1619999 0
-8.75 -51.355 -1.154 0
-9.1300001 -54.632 -1.24 0.090000004
-8.3699999 -51.061001 -1.145 0.25
-8.3059998 -51.174999 -1.147 0
-8.283 -52.068001 -1.17 0
-8 -51.323002 -1.15 0
-7.9359999 -51.992001 -1.1670001 0.059999999
-7.605 -50.888 -1.137 0.090000004
-7.434 -50.838001 -1.135 0.14
-7.2750001 -50.865002 -1.135 0
-7.1100001 -50.849998 -1.1339999 0.07
-7.0120001 -50.733002 -1.131 0
-6.8660002 -50.852001 -1.133 0.16
-6.698 -50.807999 -1.132 0.19
-6.5430002 -50.866001 -1.133 0
-6.3610001 -50.709999 -1.128 0
-6.5040002 -53.209999 -1.193 0
-6.4310002 -54.025002 -1.214 0
-6.0219998 -51.268002 -1.141 0.079999998
-5.823 -50.955002 -1.133 0.1
-5.7280002 -51.560001 -1.148 0.090000004
-5.5679998 -51.597 -1.149 0.090000004
-5.4050002 -51.609001 -1.148 0
-5.3060002 -52.245998 -1.165 0
-5.0489998 -51.308998 -1.14 0.12
-4.9590001 -51.228001 -1.137 0.18000001
-4.8179998 -51.450001 -1.143 0.1
-4.6729999 -51.655998 -1.148 0
-4.527 -51.854 -1.153 0
-4.3649998 -51.877998 -1.153 0
-4.1919999 -51.775002 -1.15 0
-3.9649999 -52.018002 -1.156 0.11
-3.803 -52.051998 -1.156 0.090000004
-3.6470001 -52.165001 -1.159 0
-3.4949999 -52.358002 -1.164 0
-3.3529999 -52.717999 -1.173 0
-3.1830001 -52.667999 -1.171 0
-3.0239999 -52.793999 -1.174 0
-2.885 -53.296001 -1.187 0
-2.799 -53.247002 -1.186 0
-2.628 -53.188 -1.184 0
-2.5409999 -54.949001 -1.23 0.050000001
-2.276 -52.782001 -1.173 0.17
-1.411 -35.085999 -0.71100003 0.19
-1.301 -35.091999 -0.71100003 0.33000001
-1.191 -35.113998 -0.71200001 0.28999999
-1.143 -35.327999 -0.71700001 0.23
-0.935 -35.911999 -0.73199999 0.17
-0.824 -35.985001 -0.73400003 0.15000001
-1.018 -52.118999 -1.155 0.2
-0.85299999 -52.046001 -1.153 0.27000001
-0.52999997 -35.154999 -0.71200001 0.25
-0.419 -35.124001 -0.71100003 0.17
-0.103 -9.5950003 -0.045000002 0.34
-0.071000002 -9.1730003 -0.034000002 0.38
-0.043000001 -9.5450001 -0.044 0.28999999
-0.013 -9.5170002 -0.043000001 0.40000001
0.017000001 -9.5190001 -0.043000001 0.28
0.266 -38.132999 -0.79000002 0.15000001
0.31299999 -36.654999 -0.75099999 0.16
0.42699999 -36.608002 -0.75 0.12
0.117 -9.2390003 -0.035999998 0.22
0.146 -9.21 -0.035 0.49000001
0.17399999 -9.1859999 -0.035 0.49000001
0.204 -9.217 -0.035999998 0.18000001
0.233 -9.2060003 -0.035 0.41999999
0.25400001 -9.4540005 -0.041999999 0.28
0.29800001 -9.8870001 -0.052999999 0.31
0.31 -9.3360004 -0.039000001 0.31999999
0.33500001 -9.2329998 -0.035999998 0.34
0.36399999 -9.2399998 -0.035999998 0.41
0.398 -9.3389997 -0.039000001 0.36000001
0.42699999 -9.3360004 -0.039000001 0.49000001
0.46399999 -9.7799997 -0.050999999 0.31999999
0.477 -9.4490004 -0.041999999 0.20999999
0.50400001 -9.3999996 -0.041000001 0.44999999
0.53600001 -9.4420004 -0.041999999 0.43000001
0.57499999 -9.5819998 -0.046 0.27000001
0.59200001 -9.3809996 -0.039999999 0.38
0.62099999 -9.375 -0.039999999 0.37
0.63499999 -9.3599997 -0.039999999 0.41
0.66900003 -9.4280005 -0.041999999 0.33000001
0.70999998 -9.573 -0.046 0.47999999
0.82700002 -10.649 -0.074000001 0.38999999
0.84200001 -10.425 -0.068000004 0.28999999
0.884 -10.526 -0.071000002 0.47999999
0.94800001 -10.874 -0.079999998 0.28
0.954 -10.753 -0.077 0.28999999
1.005 -10.931 -0.081 0.20999999
1.063 -11.168 -0.088 0.47
1.112 -11.302 -0.090999998 0.41
0.96499997 -9.5469999 -0.045000002 0.34
0.99599999 -9.5450001 -0.046 0.23999999
1.02 -9.4949999 -0.044 0.60000002
1.274 -11.468 -0.096000001 0.41
1.291 -11.454 -0.096000001 0.15000001
1.563 -13.449 -0.148 0.31999999
1.39 -11.672 -0.102 0.31
1.41 -11.529 -0.097999997 0.36000001
1.432 -11.415 -0.094999999 0.43000001
1.464 -11.383 -0.094999999 0.34
1.263 -9.6129999 -0.048 0.38
1.278 -9.6129999 -0.048 0.38999999
1.309 -9.6120005 -0.048 0.37
1.341 -9.6199999 -0.048999999 0.44999999
1.391 -9.75 -0.052000001 0.44
1.4220001 -9.7519999 -0.052000001 0.36000001
1.683 -11.262 -0.092 0.28
1.7029999 -11.157 -0.090000004 0.23
1.734 -11.24 -0.092 0.43000001
1.773 -11.26 -0.092 0.28999999
1.808 -11.252 -0.092 0.58999997
1.858 -11.333 -0.094999999 0.30000001
1.577 -9.4610004 -0.045000002 0.31999999
1.601 -9.4239998 -0.045000002 0.40000001
1.664 -9.6040001 -0.048999999 0.28999999
1.615 -9.2449999 -0.039999999 0.38
1.63 -9.1630001 -0.037999999 0.38
1.655 -9.1370001 -0.037 0.34999999
1.6799999 -9.1120005 -0.037 0.36000001
1.709 -9.1059999 -0.037 0.41999999
1.742 -9.125 -0.037 0.28999999
1.783 -9.1820002 -0.039000001 0.56999999
1.9 -9.6969995 -0.052999999 0.22
1.839 -9.2360001 -0.041000001 0.31999999
1.842 -9.1049995 -0.037 0.40000001
1.865 -9.0699997 -0.037 0.38
1.886 -9.0299997 -0.035999998 0.38999999
1.9220001 -9.0600004 -0.037 0.36000001
1.944 -9.0240002 -0.035999998 0.31
1.938 -8.9289999 -0.034000002 0.40000001
1.966 -8.9209995 -0.033 0.27000001
1.99 -8.8979998 -0.033 0.55000001
2.069 -9.1129999 -0.039000001 0.20999999
2.0369999 -8.8479996 -0.032000002 0.44999999
2.0829999 -8.9169998 -0.034000002 0.23999999
2.0969999 -8.8520002 -0.032000002 0.38999999
2.1040001 -8.8219995 -0.032000002 0.28999999
2.118 -8.7589998 -0.029999999 0.44999999
2.1459999 -8.7519999 -0.029999999 0.25999999
2.174 -8.7489996 -0.029999999 0.31999999
2.1989999 -8.7329998 -0.029999999 0.54000002
2.348 -9.1960001 -0.043000001 0.23
2.2820001 -8.8269997 -0.033 0.23999999
2.303 -8.7930002 -0.032000002 0.44999999
2.3199999 -8.8009996 -0.033 0.25
2.339 -8.7629995 -0.032000002 0.55000001
2.4070001 -8.9020004 -0.035999998 0.40000001
3.244 -11.819 -0.115 0.2
2.586 -9.3290005 -0.048 0.22
2.4419999 -8.7080002 -0.030999999 0.40000001
2.477 -8.7270002 -0.032000002 0.41
2.687 -9.4049997 -0.050000001 0.16
2.76 -9.5439997 -0.054000001 0.38
2.6989999 -9.2290001 -0.046 0.25999999
2.684 -9.073 -0.041999999 0.31999999
2.7090001 -9.0509996 -0.041999999 0.36000001
2.747 -9.0749998 -0.041999999 0.41
2.783 -9.0909996 -0.043000001 0.36000001
2.793 -9.0710001 -0.043000001 0.31
2.809 -9.0240002 -0.041999999 0.43000001
2.8759999 -9.1350002 -0.045000002 0.27000001
2.835 -8.9090004 -0.039000001 0.46000001
2.8599999 -8.8929996 -0.039000001 0.25
2.888 -8.8839998 -0.039000001 0.43000001
2.973 -9.0469999 -0.044 0.36000001
2.984 -9.033 -0.043000001 0.28
2.987 -8.9460001 -0.041000001 0.46000001
3.01 -8.9230003 -0.041000001 0.38999999
3.0320001 -8.8950005 -0.039999999 0.43000001
3.1289999 -9.085 -0.046 0.25
3.1110001 -8.9420004 -0.041999999 0.49000001
3.2149999 -9.1000004 -0.046999998 0.51999998
4.0640001 -11.372 -0.11 0.34
4.1430001 -11.478 -0.113 0.44999999
4.1550002 -11.399 -0.112 0.27000001
3.3099999 -9.0080004 -0.046 0
1.744 -4.7360001 0.072999999 0
1.755 -4.7210002 0.072999999 0
1.755 -4.698 0.074000001 0
1.762 -4.6739998 0.075000003 0
1.767 -4.6420002 0.075000003 0
1.778 -4.6269999 0.075000003 0
1.79 -4.6160002 0.075999998 0
1.8 -4.599 0.075999998 0
1.814 -4.592 0.075999998 0
1.8200001 -4.585 0.075999998 0
1.8329999 -4.5749998 0.075999998 0
1.845 -4.566 0.075999998 0
1.8609999 -4.5640001 0.075999998 0
1.875 -4.5560002 0.075999998 0
1.8890001 -4.5500002 0.075999998 0
1.911 -4.5630002 0.075999998 0
1.915 -4.552 0.075999998 0
1.934 -4.5549998 0.075999998 0
1.9529999 -4.5619998 0.075000003 0
1.9680001 -4.5560002 0.075000003 0
1.9859999 -4.559 0.075000003 0
2.0079999 -4.5689998 0.075000003 0
2.0239999 -4.566 0.075000003 0
2.0639999 -4.6170001 0.072999999 0
2.0699999 -4.612 0.072999999 0.090000004
5.711 -12.404 -0.15099999 0.38999999
4.3740001 -9.4390001 -0.067000002 0.18000001
4.3720002 -9.3559999 -0.064999998 0.55000001
4.4569998 -9.46 -0.068000004 0.23999999
4.6919999 -9.875 -0.079999998 0.38
4.7470002 -9.9499998 -0.082999997 0.31999999
4.7360001 -9.849 -0.079999998 0.44999999
4.7880001 -9.8760004 -0.081 0.30000001
4.7519999 -9.724 -0.077 0.38
4.7870002 -9.7200003 -0.078000002 0.44
4.842 -9.7530003 -0.079000004 0.33000001
4.927 -9.8450003 -0.082000002 0.50999999
4.9250002 -9.8030005 -0.081 0.31999999
6.191 -12.212 -0.152 0.18000001
4.8969998 -9.5979996 -0.075999998 0.54000002
4.9429998 -9.6129999 -0.077 0.20999999
4.967 -9.5860004 -0.077 0.46000001
5.0110002 -9.5970001 -0.078000002 0.31
5.0349998 -9.5690002 -0.077 0.47999999
5.086 -9.6280003 -0.079000004 0.37
5.1030002 -9.5880003 -0.078000002 0.40000001
5.1279998 -9.5629997 -0.078000002 0.27000001
5.1459999 -9.5240002 -0.078000002 0.56999999
5.1869998 -9.5290003 -0.078000002 0.37
5.2030001 -9.4879999 -0.077 0.23999999
5.2150002 -9.4379997 -0.075999998 0.49000001
5.2350001 -9.4399996 -0.077 0.38
5.2750001 -9.441 -0.077 0.51999998
6.2789998 -11.147 -0.12899999 0.25999999
6.3210001 -11.14 -0.12899999 0.41999999
5.3319998 -9.3360004 -0.075999998 0.40000001
5.388 -9.3660002 -0.077 0.18000001
6.7740002 -11.677 -0.147 0.47
6.7969999 -11.673 -0.148 0.28999999
5.5799999 -9.5249996 -0.082999997 0.62
5.6209998 -9.4580002 -0.082000002 0.61000001
6.8860002 -11.493 -0.145 0.22
6.9089999 -11.449 -0.14399999 0.43000001
6.9699998 -11.468 -0.145 0.30000001
8.0120001 -13.13 -0.19599999 0.41
8.0699997 -13.132 -0.197 0.28999999
8.165 -13.193 -0.2 0.49000001
7.2270002 -11.601 -0.152 0.37
7.3070002 -11.648 -0.154 0.30000001
7.309 -11.571 -0.152 0.27000001
7.3499999 -11.554 -0.152 0.34999999
7.3319998 -11.487 -0.15099999 0.31999999
7.3280001 -11.402 -0.149 0.36000001
7.3540001 -11.364 -0.148 0.52999997
7.4530001 -11.438 -0.15099999 0.34999999
7.934 -12.089 -0.17200001 0.30000001
7.5370002 -11.409 -0.152 0.41999999
7.6550002 -11.508 -0.156 0.34999999
7.7350001 -11.588 -0.15899999 0.28999999
7.6799998 -11.429 -0.154 0.30000001
7.6059999 -11.243 -0.149 0.25
7.6269999 -11.197 -0.149 0.56
7.7750001 -11.338 -0.154 0.23999999
7.881 -11.415 -0.15700001 0.28999999
7.8340001 -11.271 -0.153 0.33000001
7.8410001 -11.207 -0.152 0.38999999
8.0959997 -11.531 -0.163 0.43000001
8.0799999 -11.432 -0.16 0.33000001
8.2930002 -11.654 -0.168 0.23999999
8.0930004 -11.299 -0.15800001 0.31999999
7.0700002 -9.7460003 -0.109 0.5
7.4559999 -10.209 -0.125 0.34
7.415 -10.12 -0.122 0.31
7.0650001 -9.5810003 -0.106 0.43000001
7.0710001 -9.5270004 -0.105 0.36000001
7.1729999 -9.6009998 -0.108 0.34999999
7.23 -9.6129999 -0.109 0.44999999
7.25 -9.5780001 -0.109 0.28
7.138 -9.3690004 -0.102 0.30000001
7.1220002 -9.3179998 -0.101 0.47
7.1479998 -9.2910004 -0.101 0.36000001
7.191 -9.2860003 -0.102 0.40000001
7.2049999 -9.2440004 -0.101 0.51999998
7.2350001 -9.2229996 -0.101 0.23
7.2670002 -9.2040005 -0.101 0.54000002
7.3540001 -9.2539997 -0.103 0.23999999
8.0640001 -10.11 -0.132 0.47
8.2060003 -10.222 -0.13699999 0.18000001
8.6689997 -10.727 -0.155 0.56999999
8.165 -10.042 -0.133 0.28999999
8.2480001 -10.079 -0.13500001 0.44999999
8.3629999 -10.153 -0.138 0.50999999
9.8409996 -11.865 -0.197 0.25
9.5469999 -11.475 -0.185 0.2
9.6540003 -11.529 -0.18700001 0.41999999
9.7089996 -11.522 -0.18799999 0.34999999
9.6999998 -11.438 -0.186 0.51999998
9.6789999 -11.341 -0.184 0.25999999
9.6990004 -11.292 -0.183 0.54000002
8.5279999 -9.8710003 -0.13500001 0.30000001
8.5469999 -9.8620005 -0.13600001 0.25999999
9.7279997 -11.148 -0.18099999 0.51999998
9.7720003 -11.128 -0.18099999 0.23
11.018 -12.463 -0.229 0.30000001
10.29 -11.569 -0.199 0.25
10.305 -11.513 -0.198 0.44999999
10.207 -11.332 -0.193 0.43000001
10.235 -11.326 -0.193 0.31
10.327 -11.356 -0.19599999 0.5
10.178 -11.123 -0.18799999 0.41999999
10.204 -11.081 -0.18799999 0.20999999
9.8170004 -10.595 -0.17200001 0.56
9.9060001 -10.624 -0.17399999 0.28999999
9.9060001 -10.558 -0.17299999 0.56
10.086 -10.715 -0.17900001 0.25
10.313 -10.886 -0.186 0.28999999
10.304 -10.809 -0.185 0.38
10.391 -10.831 -0.18700001 0.51999998
10.379 -10.751 -0.185 0
10.366 -10.605 -0.182 0.31999999
10.391 -10.597 -0.182 0.34
10.385 -10.524 -0.18099999 0.2
11.657 -11.735 -0.227 0.20999999
10.685 -10.692 -0.189 0.43000001
10.721 -10.661 -0.19 0.30000001
10.774 -10.647 -0.19 0.52999997
10.685 -10.493 -0.186 0.25
10.752 -10.493 -0.18700001 0.2
10.532 -10.246 -0.178 0.44
10.833 -10.472 -0.18799999 0.33000001
10.857 -10.43 -0.18799999 0.36000001
10.641 -10.159 -0.17900001 0.44999999
10.699 -10.15 -0.18000001 0.33000001
4.7909999 -4.5370002 0.033 0.090000004
4.7810001 -4.4980001 0.034000002 0.52999997
4.842 -4.5409999 0.032000002 0.58999997
4.7779999 -4.454 0.034000002 0.18000001
10.75 -9.9139996 -0.177 0.27000001
10.761 -9.8610001 -0.176 0.31999999
10.931 -9.9540005 -0.18099999 0.38999999
10.935 -9.8950005 -0.18000001 0.40000001
11.036 -9.9230003 -0.182 0.38
11.067 -9.9189997 -0.183 0.40000001
11.244 -10.015 -0.18799999 0.38
11.31 -10.01 -0.189 0.33000001
11.336 -9.9689999 -0.189 0.63
11.548 -10.091 -0.19499999 0
11.217 -9.7399998 -0.183 0
11.537 -9.7969999 -0.19 0.46000001
11.603 -9.7910004 -0.191 0.17
11.633 -9.7539997 -0.191 0.57999998
11.668 -9.7209997 -0.191 0.38
11.671 -9.6309996 -0.19 0.47
11.727 -9.6149998 -0.191 0.15000001
11.77 -9.5889997 -0.191 0.43000001
11.802 -9.5530005 -0.191 0.36000001
11.799 -9.4890003 -0.19 0.5
11.882 -9.4949999 -0.192 0.41
11.919 -9.4639997 -0.192 0.17
11.964 -9.4680004 -0.193 0.23
11.946 -9.3940001 -0.192 0.61000001
11.963 -9.3459997 -0.191 0.31999999
12.208 -9.4750004 -0.198 0
22.267 -12.459 -0.461 0.31999999
22.254999 -12.361 -0.45899999 0.44999999
22.245001 -12.264 -0.458 0.28999999
22.252001 -12.223 -0.45699999 0.23999999
22.517 -12.276 -0.46399999 0
21.841 -11.82 -0.44299999 0
21.330999 -11.371 -0.426 0.20999999
21.304001 -11.272 -0.42399999 0.14
21.368 -11.22 -0.42500001 0.30000001
21.414 -11.201 -0.42500001 0.47999999
21.481001 -11.15 -0.426 0.20999999
18.989 -9.7840004 -0.352 0.44
19.032 -9.7309999 -0.35299999 0.37
19.173 -9.7270002 -0.35600001 0.31
19.245001 -9.6870003 -0.35699999 0.25
19.048 -9.5139999 -0.34999999 0.43000001
19.215 -9.559 -0.35499999 0.27000001
19.139 -9.4469995 -0.352 0.36000001
19.312 -9.4569998 -0.35600001 0.23999999
19.705 -9.5719995 -0.36700001 0.36000001
19.533001 -9.4130001 -0.361 0.18000001
19.211 -9.184 -0.35100001 0.44999999
19.327999 -9.165 -0.35299999 0.34
19.35 -9.1379995 -0.35299999 0.43000001
19.379999 -9.0780001 -0.35299999 0.37
16.285999 -7.572 -0.264 0.44999999
16.365 -7.5450001 -0.26499999 0.31999999
16.516001 -7.552 -0.26899999 0.28999999
16.643 -7.5469999 -0.27200001 0.28999999
16.773001 -7.5419998 -0.27500001 0.31999999
16.910999 -7.54 -0.278 0.30000001
17.037001 -7.5640001 -0.28099999 0.31
17.176001 -7.5609999 -0.285 0.30000001
17.306 -7.553 -0.28799999 0.25999999
17.41 -7.5339999 -0.28999999 0.34
17.610001 -7.5539999 -0.29499999 0.17
11.662 -4.9689999 -0.126 0.2
11.613 -4.9050002 -0.124 0.23999999
11.596 -4.8769999 -0.123 0.41999999
11.601 -4.836 -0.123 0.38
11.607 -4.796 -0.123 0.36000001
11.601 -4.7509999 -0.122 0.37
11.609 -4.711 -0.122 0.37
11.64 -4.6820002 -0.122 0.38999999
11.664 -4.6490002 -0.123 0.31999999
11.694 -4.6389999 -0.123 0.34
11.732 -4.612 -0.124 0.44999999
11.777 -4.586 -0.125 0.31999999
11.886 -4.586 -0.127 0.28999999
19.792999 -7.5469999 -0.34799999 0.30000001
20.011999 -7.5580001 -0.35299999 0.28
20.163 -7.5419998 -0.35699999 0.31
20.311001 -7.5619998 -0.36000001 0.34
20.474001 -7.5489998 -0.36399999 0.28999999
20.646 -7.5380001 -0.368 0.31
20.854 -7.54 -0.37400001 0.36000001
20.959999 -7.5040002 -0.37599999 0.28999999
21.229 -7.5240002 -0.38299999 0.31
21.417999 -7.5159998 -0.38699999 0.30000001
21.596001 -7.54 -0.39199999 0.30000001
21.809 -7.5370002 -0.39700001 0.30000001
22.016001 -7.5310001 -0.40200001 0.28999999
22.214001 -7.5209999 -0.40700001 0.16
14.176 -4.7600002 -0.185 0.23
14.149 -4.7010002 -0.184 0.49000001
14.154 -4.6539998 -0.184 0.36000001
14.144 -4.6259999 -0.183 0.47999999
14.18 -4.5879998 -0.184 0.34
14.308 -4.5799999 -0.18700001 0.55000001
23.851999 -7.5339999 -0.44800001 0.20999999
24.056999 -7.5159998 -0.45300001 0.28999999
24.308001 -7.5100002 -0.45899999 0.31
24.559 -7.5029998 -0.465 0.30000001
24.804001 -7.5349998 -0.47099999 0.30000001
25.056 -7.526 -0.47799999 0.28999999
25.327 -7.52 -0.484 0.28999999
25.549999 -7.4990001 -0.49000001 0.27000001
25.868999 -7.5040002 -0.498 0.28
26.148001 -7.4959998 -0.505 0.30000001
26.441 -7.4889998 -0.51200002 0.28999999
26.724001 -7.5240002 -0.51899999 0.28999999
27.040001 -7.5209999 -0.52700001 0.28999999
27.327999 -7.5089998 -0.53399998 0.28999999
27.649 -7.5029998 -0.542 0.28
27.908001 -7.4790001 -0.54900002 0.23
28.306 -7.4899998 -0.55900002 0.18000001
28.636999 -7.4809999 -0.56699997 0.44
28.959 -7.5159998 -0.57499999 0.23999999
29.320999 -7.5120001 -0.58499998 0.2
29.667999 -7.5009999 -0.59299999 0.41
30.033001 -7.493 -0.602 0.23
30.414 -7.4860001 -0.61199999 0.17
30.806999 -7.48 -0.62199998 0.40000001
31.188 -7.4689999 -0.63200003 0.23
31.594 -7.513 -0.64200002 0.18000001
31.992001 -7.5009999 -0.65200001 0.38999999
32.398998 -7.4889998 -0.662 0.2
32.867001 -7.4879999 -0.67400002 0.23
33.313999 -7.48 -0.68599999 0.20999999
33.763 -7.4689999 -0.69700003 0.20999999
34.224998 -7.4580002 -0.70899999 0
34.624001 -7.4310002 -0.71899998 0
35.07 -7.4689999 -0.73000002 0
35.555 -7.4549999 -0.74299997 0
51.269001 -10.57 -1.16 0
37.032001 -7.5209999 -0.78100002 0
37.104 -7.414 -0.78200001 0
38.563 -7.579 -0.81999999 0
38.932999 -7.5240002 -0.829 0
39.140999 -7.5009999 -0.83499998 0
39.262001 -7.3959999 -0.83700001 0
39.567001 -7.3239999 -0.84500003 0
39.721001 -7.224 -0.84799999 0
39.820999 -7.1129999 -0.85000002 0
39.900002 -6.9980001 -0.852 0
40.095001 -6.902 -0.85600001 0
40.314999 -6.875 -0.86199999 0
40.564999 -6.7859998 -0.86799997 0
40.772999 -6.6890001 -0.87300003 0
40.966 -6.5879998 -0.87699997 0
41.103001 -6.4780002 -0.88 0
41.280998 -6.3730001 -0.88499999 0
41.487 -6.2709999 -0.889 0
41.726002 -6.2399998 -0.89600003 0
42.011002 -6.1479998 -0.90200001 0
42.216 -6.0419998 -0.90700001 0
42.384998 -5.9310002 -0.91100001 0
42.577999 -5.8210001 -0.91600001 0
42.757999 -5.7090001 -0.92000002 0
42.963001 -5.599 -0.92500001 0
43.368 -5.5819998 -0.93599999 0
43.617001 -5.4749999 -0.94199997 0
43.905998 -5.3709998 -0.949 0
44.077999 -5.2509999 -0.95300001 0
44.249001 -5.131 -0.95700002 0
44.500999 -5.0180001 -0.963 0
44.724998 -4.901 -0.96899998 0
45.016998 -4.79 -0.97600001 0
45.558998 -4.7750001 -0.99000001 0
45.868999 -4.6620002 -0.99800003 0
46.102001 -4.539 -1.003 0
46.227001 -4.4050002 -1.006 0
46.424 -4.276 -1.011 0
46.626999 -4.1469998 -1.016 0
46.855 -4.0190001 -1.022 0
47.820999 -4.0250001 -1.0470001 0
48.181999 -3.9030001 -1.056 0
48.455002 -3.7720001 -1.063 0
48.646 -3.6329999 -1.067 0
49.000999 -3.5050001 -1.076 0
49.337002 -3.3729999 -1.085 0
49.591999 -3.234 -1.091 0
52.816002 -2.1110001 -1.174 0
55.903999 -1.881 -1.2539999 0
55.987 -1.7079999 -1.256 0
49.77 -0.97399998 -1.0930001 0
49.701 -0.81599998 -1.092 0
49.737 -0.66000003 -1.092 0
49.778999 -0.50400001 -1.0930001 0
49.347 -0.345 -1.082 0
48.646 -0.18799999 -1.064 0
48.484001 -0.111 -1.0599999 0
50.393002 0.018999999 -1.409 0
50.577999 0.178 -1.415 0
50.605999 0.33700001 -1.415 0
50.810001 0.498 -1.4220001 0
50.987999 0.66000003 -1.428 0
53.560001 2.7130001 -1.512 0
53.613998 2.885 -1.5140001 0
53.672001 3.0569999 -1.516 0
53.877998 3.2379999 -1.523 0
54.006001 3.3310001 -1.527 0
54.103001 3.5079999 -1.531 0
54.248001 3.688 -1.536 0
54.361 3.868 -1.54 0
54.001999 4.013 -1.529 0
51.972 4.027 -1.464 0
51.105999 4.1220002 -1.437 0
50.061001 4.197 -1.404 0
50.088001 4.2779999 -1.405 0
50.123001 4.4400001 -1.406 0
50.042999 4.5910001 -1.404 0
49.958 4.7420001 -1.402 0
49.896999 4.8940001 -1.4 0
49.886002 5.0510001 -1.4 0
49.784 5.1989999 -1.398 0
49.698002 5.2690001 -1.395 0
49.599998 5.4159999 -1.393 0
49.067001 6.2179999 -1.3789999 0
48.146999 6.256 -1.35 0
47.394001 6.3099999 -1.326 0
46.595001 6.3530002 -1.301 0
45.825001 6.395 -1.277 0
45.036999 6.4299998 -1.252 0
44.008999 6.4250002 -1.219 0
43.148998 6.369 -1.192 0
51.292999 7.7309999 -1.456 0
50.438 7.7639999 -1.429 0
49.75 7.8189998 -1.408 0
48.868999 7.8379998 -1.38 0
48.196999 7.8860002 -1.359 0
47.514999 7.928 -1.337 0
46.73 7.8730001 -1.312 0
45.876999 7.8779998 -1.286 0
52.101002 9.2810001 -1.489 0
51.660999 9.3699999 -1.476 0
51.035 9.4230003 -1.457 0
50.353001 9.4610004 -1.4349999 0
49.647999 9.4899998 -1.413 0
48.914001 9.4300003 -1.39 0
48.151001 9.4399996 -1.3660001 0
47.375999 9.4429998 -1.342 0
52.703999 10.847 -1.518 0
51.417999 10.752 -1.477 0
51.311001 10.898 -1.475 0
51.034 10.923 -1.466 0
50.292 10.93 -1.443 0
49.598 10.942 -1.421 0
55.069 12.328 -1.602 0
54.546001 12.391 -1.586 0
53.909 12.425 -1.566 0
53.577999 12.526 -1.557 0
53.402 12.574 -1.552 0.07
51.689999 12.343 -1.497 0.090000004
51.639 12.503 -1.4960001 0
51.744999 12.7 -1.501 0
75.589996 19.045 -2.2909999 0
74.809998 19.099001 -2.267 0
74.065002 19.033001 -2.243 0
73.155998 19.045 -2.2149999 0
72.310997 19.068001 -2.1889999 0
71.621002 19.127001 -2.168 0
70.786003 19.143 -2.1429999 0
70.071999 19.186001 -2.1210001 0
69.208 19.184 -2.0940001 0
68.791 19.184999 -2.0810001 0
67.806999 19.141001 -2.0510001 0
67.277 19.219999 -2.0350001 0
66.589996 19.25 -2.0139999 0
65.967003 19.295 -1.9960001 0
65.813004 19.474001 -1.992 0
65.932999 19.735001 -1.998 0
64.049004 19.282 -1.937 0
63.799 19.424999 -1.9299999 0
64.425003 19.837 -1.9529999 0
64.471001 20.073 -1.957 0
61.022999 19.212 -1.8430001 0
63.432999 20.188999 -1.926 0
63.287998 20.362 -1.924 0
59.848999 19.464001 -1.8099999 0
59.816002 19.558001 -1.8099999 0
58.516998 19.337 -1.768 0
60.362 20.368 -1.835 0
59.757 20.372999 -1.816 0
58.477001 20.142 -1.775 0
58.372002 20.312 -1.774 0
55.060001 19.257999 -1.663 0
55.263 19.524 -1.6720001 0
54.502998 19.448 -1.648 0
54.596001 19.674999 -1.653 0
54.689999 19.903 -1.658 0
54.638 20.079 -1.659 0
54.564999 20.149 -1.6569999 0.039999999
53.867001 20.084 -1.636 0
53.877998 20.282 -1.638 0
69.345001 26.344999 -2.1700001 0
50.240002 19.275 -1.518 0
66.327003 25.677999 -2.072 0
67.945 26.549 -2.1300001 0
67.982002 26.809999 -2.135 0
68.126999 26.990999 -2.141 0
67.717003 27.075001 -2.1300001 0
67.253998 27.135 -2.1170001 0
65.073997 26.493999 -2.0439999 0
65.192001 26.781 -2.0510001 0
67.833 28.115 -2.1459999 0
68.097 28.475 -2.158 0
68.309998 28.690001 -2.1670001 0
68.228996 28.909 -2.1670001 0
62.500999 26.716 -1.971 0
62.466999 26.934 -1.973 0
58.055 25.25 -1.822 0
57.571999 25.256001 -1.808 0
57.167 25.292999 -1.796 0
56.68 25.184 -1.781 0
57.939999 25.961 -1.8279999 0
55.754002 25.193001 -1.7539999 0
55.342999 25.216999 -1.742 0
54.893002 25.221001 -1.729 0
54.459999 25.23 -1.717 0
57.044998 26.643999 -1.811 0
56.93 26.700001 -1.808 0
53.229 25.17 -1.6799999 0
52.831001 25.184999 -1.669 0
52.516998 25.238001 -1.661 0
52.078999 25.23 -1.648 0
51.632 25.214001 -1.635 0
53.289001 26.23 -1.697 0
50.845001 25.128 -1.6109999 0
50.529999 25.17 -1.602 0
50.153999 25.18 -1.592 0
52.330002 26.476999 -1.673 0
52.188999 26.612 -1.671 0
49.037998 25.201 -1.5599999 0
49.993 25.889999 -1.598 0
48.474998 25.202 -1.544 0
49.226002 25.788 -1.574 0
48.917 25.823 -1.566 0
49.722 26.447001 -1.598 0
46.973999 25.177 -1.501 0
48.332001 26.099001 -1.554 0
48.408001 26.337 -1.559 0
45.958 25.193001 -1.473 0
48.124001 26.476999 -1.554 0
48.155998 26.691999 -1.558 0
47.933998 26.766001 -1.553 0
47.971001 26.985001 -1.557 0
47.918999 27.155001 -1.559 0
47.790001 27.280001 -1.557 0
47.750999 27.457001 -1.559 0
43.544998 25.132 -1.405 0
47.696999 27.726 -1.561 0
48.347 28.306999 -1.589 0
42.668999 25.166 -1.381 0
42.368999 25.169001 -1.373 0
50.816002 30.398001 -1.691 0
41.797001 25.187 -1.358 0
49.383999 29.858999 -1.643 0
41.212002 25.1 -1.34 0
41.014 25.156 -1.336 0
40.727001 25.157 -1.3279999 0
40.442001 25.157 -1.3200001 0
50.716999 31.761999 -1.711 0
50.734001 31.995001 -1.715 0
50.696999 32.083 -1.716 0
39.410999 25.121 -1.2920001 0
39.141998 25.122999 -1.284 0
50.456001 32.599998 -1.7180001 0
38.643002 25.146999 -1.271 0
38.375 25.145 -1.2640001 0
38.105 25.139999 -1.257 0
37.890999 25.084 -1.25 0
37.632 25.083 -1.243 0
37.376999 25.083 -1.2359999 0
37.132 25.089001 -1.23 0
36.884998 25.091 -1.223 0
36.646 25.097 -1.217 0
36.409 25.103001 -1.211 0
36.217999 25.056 -1.205 0
35.978001 25.058001 -1.199 0
65.167 46.278999 -2.3540001 0
64.935997 46.423 -2.3510001 0
63.907001 45.992001 -2.316 0
64.022003 46.227001 -2.323 0
64.032997 46.541 -2.329 0
63.301998 46.314999 -2.306 0
63.089001 46.464001 -2.303 0
62.625999 46.733002 -2.2969999 0
62.237 46.748001 -2.2869999 0
62.867001 47.529999 -2.3180001 0
62.731998 47.583 -2.316 0
62.516998 47.73 -2.313 0
62.250999 47.838001 -2.3080001 0
61.879002 47.862 -2.299 0
61.585999 47.945 -2.2939999 0
56.477001 55.096001 -2.3210001 0
56.476002 55.269001 -2.325 0
56.099998 55.945 -2.3310001 0
54.761002 54.955002 -2.279 0
52.049999 52.564999 -2.1630001 0
53.355999 54.393002 -2.234 0
53.359001 54.740002 -2.2420001 0
52.686001 54.389999 -2.2190001 0
51.499001 53.838001 -2.1800001 0
51.379002 54.050999 -2.1830001 0
51.262001 54.269001 -2.1849999 0
52.591999 55.851002 -2.2509999 0
52.226002 55.813 -2.2420001 0.039999999
18.809999 20.381001 -0.68300003 0.20999999
18.544001 20.221001 -0.67400002 0.5
18.551001 20.356001 -0.67699999 0.16
18.577999 20.514 -0.68099999 0.49000001
18.462999 20.452 -0.67699999 0
50.167999 55.859001 -2.1989999 0
49.949001 55.966999 -2.197 0
22.296 25.482 -0.87900001 0.18000001
22.18 25.511999 -0.87800002 0.31
22.246 25.669001 -0.88300002 0.23999999
22.163 25.736 -0.88300002 0.31999999
22.045 25.763 -0.88099998 0.25
21.898001 25.754 -0.87800002 0.25
21.74 25.731001 -0.87400001 0.23999999
21.643 25.781 -0.87300003 0.20999999
21.589001 25.881001 -0.87400001 0.12
22.239 26.743999 -0.90899998 0.15000001
21.438 25.947001 -0.87300003 0.30000001
21.224001 25.854 -0.866 0.14
20.9 25.622999 -0.85399997 0.28999999
21.490999 26.516001 -0.88800001 0.13
21.525999 26.731001 -0.89399999 0.14
22.509001 28.129 -0.949 0.18000001
20.466999 25.746 -0.84799999 0.2
20.356001 25.690001 -0.84500003 0.25999999
15.638 20.002001 -0.60799998 0.33000001
15.637 20.129999 -0.611 0
19.867001 25.731001 -0.83600003 0
20.614 26.871 -0.88 0
20.422001 27.056999 -0.88099998 0.18000001
15.349 20.48 -0.61500001 0.38999999
15.227 20.451 -0.61199999 0.22
14.889 20.129999 -0.597 0.55000001
14.9 20.278 -0.60100001 0.20999999
18.785 25.721001 -0.815 0.30000001
18.662001 25.638 -0.81099999 0.14
14.908 20.625999 -0.61000001 0.44
18.487 25.737 -0.81 0.28
18.341 25.702999 -0.80599999 0.31999999
18.183001 25.652 -0.80199999 0.30000001
18.02 25.593 -0.79699999 0.18000001
17.811001 25.466 -0.79000002 0.55000001
18.565001 26.719 -0.83700001 0.12
14.38 20.775999 -0.60399997 0
18.707001 27.195 -0.852 0
18.360001 26.872999 -0.83700001 0.07
19.500999 28.732 -0.90700001 0.14
17.802 26.410999 -0.815 0.13
17.514 26.160999 -0.80299997 0.37
17.51 26.334 -0.80800003 0.14
17.030001 25.701 -0.78200001 0.20999999
16.995001 25.823999 -0.78500003 0.50999999
17.128 26.202999 -0.79799998 0.2
17.855 27.502001 -0.84500003 0.16
17.865999 27.709 -0.85100001 0.47999999
17.747999 27.716 -0.84899998 0.23
16.232 25.530001 -0.764 0.19
16.851999 26.594999 -0.80299997 0.37
17.57 27.919001 -0.85100001 0.16
17.443001 27.912001 -0.84899998 0.31999999
17.173 27.673 -0.838 0.14
15.711 25.5 -0.75400001 0.27000001
15.61 25.514999 -0.75300002 0.27000001
15.545 25.59 -0.75400001 0.33000001
15.542 25.674999 -0.75599998 0.36000001
15.475 25.746 -0.75700003 0.34
11.963 20.058001 -0.54299998 0.18000001
11.866 20.037001 -0.54100001 0.31
11.775 20.027 -0.53899997 0.28
11.706 20.054001 -0.53899997 0.36000001
11.645 20.094 -0.53899997 0.30000001
11.629 20.138 -0.54000002 0.41
11.605 20.243999 -0.542 0.25999999
14.729 25.868 -0.74800003 0.25999999
14.461 25.583 -0.736 0.27000001
14.276 25.441999 -0.72899997 0.27000001
14.147 25.4 -0.72600001 0.54000002
14.511 26.245001 -0.755 0.16
13.948 25.416 -0.72399998 0.28999999
13.926 25.471001 -0.72500002 0.38
14.074 25.934999 -0.74000001 0.28999999
13.771 25.569 -0.72500002 0.34
13.656 25.547001 -0.72299999 0.30000001
13.608 25.650999 -0.72500002 0.28999999
13.532 25.701 -0.72500002 0.50999999
13.35 25.551001 -0.71799999 0.2
13.273 25.500999 -0.71600002 0.37
13.376 25.896999 -0.72899997 0.25999999
13.768 26.860001 -0.76200002 0.20999999
13.91 27.349001 -0.778 0.20999999
12.937 25.636999 -0.71499997 0.31
13.021 26.211 -0.73199999 0.57999998
13.833 27.952999 -0.79400003 0.19
12.688 25.847 -0.71700001 0.18000001
12.435 25.535 -0.70499998 0.28999999
12.355 25.573999 -0.70499998 0.49000001
12.356 25.782 -0.71100003 0.37
12.263 25.796 -0.70999998 0.31999999
12.183 25.836 -0.70999998 0.28999999
12.227 26.142 -0.71899998 0.18000001
11.994 25.75 -0.70499998 0.34
11.895 25.749001 -0.70300001 0.38
11.876 25.921 -0.708 0.28
11.743 25.844999 -0.704 0.43000001
11.695 25.955 -0.70700002 0.33000001
11.508 25.756001 -0.699 0.31999999
11.655 26.306 -0.71700001 0.2
11.568 26.221001 -0.713 0.49000001
11.259 25.740999 -0.69499999 0.2
11.119 25.639 -0.69 0.20999999
11.039 25.676001 -0.69 0.34
11.072 25.976999 -0.699 0.2
11.05 26.150999 -0.704 0.19
10.836 25.872999 -0.69300002 0.2
10.742 25.877001 -0.69199997 0.52999997
10.917 26.415001 -0.70999998 0.22
10.698 26.115999 -0.699 0.20999999
10.57 26.038 -0.69499999 0.38
10.522 26.155001 -0.69800001 0.2
10.277 25.781 -0.68400002 0.34999999
10.215 25.860001 -0.68599999 0.25999999
10.155 25.948 -0.68699998 0.38999999
10.095 25.913 -0.68599999 0.33000001
9.9700003 25.833 -0.68199998 0.31
9.8950005 25.879 -0.68199998 0.30000001
9.8240004 25.938 -0.68300003 0.37
9.8129997 26.156 -0.69 0.38999999
9.7049999 26.118 -0.68699998 0.31999999
9.6459999 26.212 -0.69 0.31
9.625 26.281 -0.69099998 0.25999999
9.4729996 26.120001 -0.685 0.23
9.2959995 25.886 -0.676 0.31999999
9.1759996 25.808001 -0.67199999 0.31
9.099 25.848 -0.67299998 0.25999999
9.007 25.844 -0.67199999 0.37
8.9160004 25.844 -0.671 0.33000001
8.8739996 25.854 -0.671 0.31
8.816 25.952 -0.67299998 0.34999999
8.6199999 25.639 -0.66100001 0.25
8.5179996 25.601 -0.65899998 0.25
8.4840002 25.77 -0.66399997 0.56
8.5559998 26.264 -0.68000001 0.28999999
8.3249998 25.83 -0.66399997 0.27000001
8.3599997 26.222 -0.67699999 0.34
8.2659998 26.066999 -0.671 0.41
8.2110004 26.179001 -0.67400002 0.41
8.0889997 26.077 -0.67000002 0.20999999
8.0179996 26.138 -0.671 0.33000001
7.9580002 26.236 -0.67299998 0.30000001
7.8699999 26.242001 -0.67299998 0.31999999
7.743 26.117001 -0.66799998 0.31999999
7.7049999 26.141001 -0.66799998 0.52999997
7.9889998 27.738001 -0.72000003 0.57999998
7.836 27.533001 -0.71200001 0.2
7.743 27.535999 -0.71100003 0.28999999
8.1059999 29.172001 -0.76499999 0.2
7.973 29.049 -0.75999999 0.34
7.9239998 29.049999 -0.759 0.22
7.447 27.646 -0.71200001 0.20999999
7.744 29.107 -0.75999999 0.27000001
7.652 29.131001 -0.75999999 0.20999999
7.197 27.757999 -0.713 0.33000001
6.9439998 27.136 -0.69199997 0.23
6.8660002 27.184999 -0.69300002 0.23
6.8200002 27.365 -0.69800001 0.41
6.7859998 27.410999 -0.699 0.23999999
7.1240001 29.162001 -0.75599998 0.22
7.0419998 29.223 -0.75800002 0.13
8.0860004 34.008999 -0.91399997 0
7.2140002 30.780001 -0.80800003 0.13
6.7680001 29.298 -0.75800002 0.16
6.6669998 29.280001 -0.75700003 0.13
6.5900002 29.152 -0.75199997 0.50999999
6.5469999 29.389 -0.759 0.19
6.467 29.466 -0.76099998 0.19
6.947 32.123001 -0.84799999 0.17
6.007 28.219999 -0.71899998 0.14
5.9330001 28.309 -0.72100002 0.23
5.8899999 28.548 -0.72899997 0.17
5.9000001 28.823999 -0.73699999 0.13
5.6799998 28.204 -0.71600002 0.34999999
5.6399999 28.466 -0.72399998 0.20999999
5.5430002 28.448999 -0.72299999 0.16
5.4229999 28.302999 -0.71799999 0.34
5.5349998 29.382999 -0.75300002 0.18000001
5.2210002 28.207001 -0.71399999 0.23
5.8119998 31.941999 -0.83499998 0.14
5.296 29.382 -0.75099999 0.36000001
5.0570002 28.573999 -0.72399998 0.12
5.1570001 29.674 -0.75999999 0.19
5.0710001 29.736 -0.76099998 0.51999998
4.9970002 29.865999 -0.76499999 0.23
4.3979998 26.816 -0.66500002 0.14
4.3239999 26.896999 -0.66799998 0.28
4.2750001 26.863001 -0.66600001 0.52999997
4.1999998 26.931 -0.66799998 0.23
4.1300001 27.045 -0.671 0.20999999
4.0180001 26.878 -0.66500002 0.34999999
3.9389999 26.924 -0.667 0.41
3.8570001 26.958 -0.667 0.30000001
3.7820001 27.035 -0.66900003 0.38999999
3.891 28.125999 -0.704 0.34999999
3.763 27.849001 -0.69499999 0.20999999
3.5569999 26.966999 -0.66600001 0.31
3.4749999 27.004 -0.667 0.25
3.3800001 26.933001 -0.66399997 0.41999999
3.3 26.982 -0.66600001 0.23
3.234 27.150999 -0.671 0.36000001
3.5220001 29.945 -0.76099998 0.34
3.428 29.952 -0.76099998 0.14
3.0109999 27.082001 -0.66799998 0.46000001
2.957 27.382999 -0.67699999 0.17
2.737 26.128 -0.63599998 0.19
2.654 26.122999 -0.63599998 0.44999999
2.573 26.143 -0.63599998 0.34
2.497 26.218 -0.639 0.27000001
2.448 26.132999 -0.63599998 0.38
2.3599999 26.077 -0.634 0.25999999
2.3989999 27.450001 -0.67799997 0.38999999
2.6919999 31.910999 -0.82099998 0.13
1.599 19.818001 -0.43200001 0.30000001
1.535 19.797001 -0.43099999 0.30000001
1.471 19.782 -0.43099999 0.40000001
1.439 19.775999 -0.43000001 0.30000001
1.376 19.763 -0.43000001 0.47999999
1.313 19.757 -0.42899999 0.36000001
1.25 19.749001 -0.42899999 0.41
1.188 19.750999 -0.42899999 0.27000001
1.126 19.756001 -0.42899999 0.50999999
1.399 25.837 -0.62400001 0.44999999
1.337 26.201 -0.63499999 0.13
1.285 25.993999 -0.62900001 0.31
1.2 25.93 -0.62599999 0.31999999
1.119 25.933001 -0.62599999 0.38999999
1.04 25.997999 -0.62800002 0.36000001
0.97100002 26.344999 -0.639 0.37
0.89200002 26.436001 -0.64200002 0.41
0.82099998 26.83 -0.65499997 0.28
0.676 26.134001 -0.63200003 0.36000001
0.59299999 26.1 -0.63099998 0.36000001
0.50999999 26.052 -0.63 0.34999999
0.42699999 25.996 -0.62800002 0.19
0.34999999 26.353001 -0.639 0.57999998
0.26499999 26.114 -0.63099998 0.2
0.27700001 31.707001 -0.81099999 0.20999999
0.164 29.597 -0.74299997 0.13
0.059 25.781 -0.62099999 0.20999999
-0.022 25.635 -0.616 0.56
-0.184 25.729 -0.61900002 0.34
-0.26499999 25.782 -0.62099999 0.38999999
-0.347 25.805 -0.62199998 0.41999999
-0.38800001 25.882 -0.62400001 0.16
-0.46900001 25.815001 -0.62199998 0.33000001
-0.54900002 25.792 -0.62099999 0.44999999
-0.72000003 26.101 -0.63099998 0.33000001
-0.796 25.921 -0.62599999 0.47999999
-0.87699997 25.903999 -0.625 0.28999999
-0.912 25.735001 -0.62 0.14
-0.99699998 25.848 -0.62400001 0.28
-1.077 25.806999 -0.62199998 0.44999999
-1.169 26.052999 -0.63 0.43000001
-1.249 26.011 -0.62900001 0.23999999
-1.324 25.879 -0.625 0.38
-1.4069999 25.900999 -0.62599999 0.25999999
-1.4349999 25.671 -0.61900002 0.30000001
-1.522 25.778 -0.62199998 0.47
-1.613 25.937 -0.62699997 0.30000001
-1.7130001 26.212999 -0.63599998 0.27000001
-1.7869999 26.087999 -0.63300002 0.40000001
-1.852 25.841 -0.625 0.23
-1.924 25.711 -0.62099999 0.36000001
-2.0239999 25.954 -0.62900001 0.46000001
-2.0840001 26.188 -0.63599998 0.30000001
-2.1659999 26.18 -0.63599998 0.41
-2.2279999 25.940001 -0.62900001 0.23
-2.3150001 25.992001 -0.63099998 0.31999999
-2.402 26.041 -0.63300002 0.25999999
-2.473 25.924 -0.62900001 0.46000001
-2.5580001 25.951 -0.63 0.27000001
-2.582 25.780001 -0.625 0.36000001
-2.671 25.848 -0.62699997 0.44
-2.7809999 26.115 -0.63599998 0.31
-2.862 26.093 -0.63599998 0.22
-2.9360001 26.016001 -0.634 0.51999998
-3.1819999 26.694 -0.65600002 0.57999998
-3.161 26.167 -0.639 0.2
-3.28 26.454 -0.64899999 0.27000001
-3.2809999 25.795 -0.62800002 0.25999999
-3.3659999 25.816999 -0.62900001 0.31999999
-3.4590001 25.889 -0.63200003 0.41
-3.556 25.995001 -0.63499999 0.34
-3.6400001 26 -0.63599998 0.27000001
-3.684 26.021999 -0.63700002 0.47
-3.7809999 26.113001 -0.63999999 0.20999999
-4.1869998 28.304001 -0.71100003 0.34999999
-4.2940001 28.415001 -0.71499997 0.16
-4.4190001 28.635 -0.72299999 0.28999999
-4.5029998 28.580999 -0.722 0.30000001
-4.6230001 28.752001 -0.72799999 0.19
-4.4299998 27.006001 -0.67199999 0.2
-4.441 26.802999 -0.66500002 0.38999999
-4.5349998 26.851999 -0.667 0.14
-4.7160001 27.400999 -0.68599999 0.2
-4.7940001 27.339001 -0.68400002 0.38999999
-4.862 27.226 -0.68099999 0.34
-4.967 27.313999 -0.68400002 0.38999999
-5.0419998 27.242001 -0.68199998 0.23
-5.119 27.419001 -0.68800002 0.37
-5.2490001 27.634001 -0.69599998 0.30000001
-5.2340002 27.089001 -0.67900002 0.18000001
-5.2150002 26.537001 -0.66100001 0.37
-5.4530001 27.301001 -0.68699998 0.27000001
-5.2379999 25.795 -0.63800001 0.20999999
-5.302 25.694 -0.63499999 0.34
-5.3299999 25.629 -0.63300002 0.34
-5.4089999 25.604 -0.63300002 0.31999999
-5.4949999 25.612 -0.634 0.36000001
-5.6420002 25.903999 -0.64399999 0.19
-7.0370002 31.851999 -0.83999997 0.11
-6.0120001 26.796 -0.67500001 0.2
-6.0500002 26.573 -0.66799998 0.47999999
-6.119 26.490999 -0.66600001 0.25
-6.165 26.497 -0.66600001 0.25
-7.3889999 31.334999 -0.82599998 0.12
-7.0300002 29.392 -0.76300001 0.19
-7.1040001 29.294001 -0.75999999 0.15000001
-7.1479998 29.075001 -0.75400001 0.11
-8.3900003 33.689999 -0.90700001 0.14
-7.2189999 28.587999 -0.73900002 0.31999999
-7.3119998 28.767 -0.74599999 0.13
-7.4429998 28.9 -0.75099999 0.38999999
-7.4369998 28.504999 -0.73900002 0.20999999
-7.5510001 28.575001 -0.74199998 0.2
-7.184 26.839001 -0.685 0.43000001
-7.9369998 29.291 -0.76700002 0.13
-7.3569999 26.806999 -0.685 0.41
-7.4780002 26.917 -0.69 0.12
-7.461 26.693001 -0.68300003 0.28999999
-8.4490004 29.877001 -0.78899997 0.2
-8.2650003 28.878 -0.75700003 0.20999999
-8.3579998 28.858999 -0.75700003 0.20999999
-8.5139999 29.056999 -0.76499999 0
-8.9440002 30.174999 -0.80299997 0.13
-8.1599998 27.052 -0.69999999 0.19
-8.1549997 26.73 -0.69 0.15000001
-8.2139997 26.625999 -0.68699998 0.23999999
-8.2360001 26.402 -0.68099999 0.23
-8.2950001 26.297001 -0.67799997 0.34999999
-8.3579998 26.209999 -0.676 0.23
-8.4130001 26.098 -0.67299998 0.36000001
-8.7290001 26.937 -0.70200002 0.18000001
-8.8990002 27.172001 -0.71100003 0.28999999
-8.9560003 27.058001 -0.708 0.31999999
-9.0299997 26.996 -0.70700002 0.23999999
-9.1160002 26.971001 -0.70700002 0.31999999
-9.224 27.011999 -0.70899999 0.33000001
-10.358 30.032 -0.81199998 0.16
-9.2290001 26.48 -0.69300002 0.25999999
-9.2659998 26.452 -0.69300002 0.36000001
-9.3590002 26.451 -0.69400001 0.31999999
-9.4460001 26.433001 -0.69400001 0.31999999
-9.4779997 26.26 -0.68900001 0.31999999
-9.5749998 26.27 -0.69099998 0.41
-9.7620001 26.525 -0.69999999 0.30000001
-9.8850002 26.601 -0.704 0.27000001
-9.9060001 26.531 -0.70200002 0.38
-10.028 26.603001 -0.70599997 0.25
-10.116 26.582001 -0.70599997 0.30000001
-10.196 26.541 -0.70599997 0.31
-10.306 26.577999 -0.708 0.27000001
-10.451 26.704 -0.713 0.25999999
-10.679 27.035 -0.72600001 0.17
-10.677 26.784 -0.71899998 0.20999999
-10.678 26.663 -0.71499997 0.33000001
-10.771 26.653999 -0.71600002 0.31999999
-10.855 26.622 -0.71600002 0.44
-10.98 26.687 -0.71899998 0.30000001
-11.149 26.858 -0.72600001 0.31999999
-11.337 27.072001 -0.73500001 0.38
-11.431 27.058001 -0.736 0.27000001
-11.494 27.087999 -0.73699999 0.19
-11.543 26.966999 -0.73500001 0.38
-11.721 27.146999 -0.74199998 0.15000001
-12.009 27.576 -0.75800002 0
-12.991 29.583 -0.82999998 0.090000004
-12.755 28.798 -0.80400002 0.16
-12.857 28.783001 -0.80500001 0.34
-13.036 28.940001 -0.81199998 0.33000001
-13.307 29.42 -0.829 0.25
-13.412 29.406 -0.82999998 0.17
-13.226 28.757 -0.80900002 0.18000001
-13.337 28.757999 -0.81 0.14
-13.673 29.243999 -0.829 0.17
-14.569 30.91 -0.889 0.18000001
-14.853 31.131001 -0.89999998 0.47999999
-14.994 31.177 -0.903 0.23999999
-14.951 30.837999 -0.89300001 0.12
-14.975 30.399 -0.88 0.23999999
-15.124 30.459 -0.884 0.49000001
-15.366 30.705 -0.89499998 0.20999999
-15.274 30.402 -0.88499999 0.25999999
-15.364 30.341 -0.884 0.25
-15.609 30.587999 -0.89499998 0
-15.567 30.268999 -0.88499999 0
-17.308001 33.402 -1 0.07
-19.089001 36.562 -1.1160001 0.15000001
-17.927999 34.074001 -1.028 0.34
-17.667 33.323002 -1.003 0.17
-17.74 33.334999 -1.0039999 0
-17.84 33.27 -1.0039999 0.12
-18.33 33.928001 -1.03 0
-11.001 20.038 -0.52700001 0.25
-11.051 19.98 -0.52600002 0.41
-11.133 19.98 -0.528 0.20999999
-11.153 19.941999 -0.52700001 0.28999999
-10.948 19.431 -0.509 0.31
-11.044 19.457001 -0.51200002 0.34
-11.176 19.548 -0.51599997 0.43000001
-11.503 19.975 -0.53299999 0.15000001
-11.503 19.83 -0.52899998 0.38999999
-11.512 19.702 -0.52600002 0.16
-11.54 19.679001 -0.52600002 0.20999999
-11.568 19.586 -0.52399999 0.36000001
-11.616 19.527 -0.523 0.41
-11.852 19.782 -0.53399998 0.2
-12.028 19.934999 -0.54100001 0.47
-11.715 19.275999 -0.51800001 0.18000001
-11.873 19.4 -0.52399999 0.22
-11.829 19.191999 -0.51700002 0.27000001
-11.895 19.232 -0.51899999 0.44999999
-11.964 19.208 -0.51999998 0.34
-12.215 19.475 -0.53100002 0.19
-12.323 19.511 -0.53399998 0.31
-12.382 19.469 -0.53399998 0.50999999
-12.709 19.846001 -0.55000001 0.28999999
-12.726 19.735001 -0.54699999 0.30000001
-12.677 19.591 -0.542 0.30000001
-12.857 19.733999 -0.54900002 0.38
-12.989 19.799999 -0.55400002 0.28999999
-12.763 19.322001 -0.537 0.31
-12.798 19.243 -0.53500003 0.43000001
-13.153 19.643999 -0.55199999 0.27000001
-13.52 20.056999 -0.56999999 0.18000001
-13.367 19.695 -0.55699998 0.23999999
-13.525 19.861 -0.565 0.57999998
-13.675 19.947001 -0.56999999 0.23999999
-17.504999 25.375 -0.78200001 0.18000001
-13.916 20.028 -0.57599998 0.25
-13.925 19.907 -0.57300001 0.27000001
-13.98 19.851999 -0.57300001 0.52999997
-14.05 19.819 -0.57300001 0.31999999
-14.232 20.009001 -0.58200002 0.30000001
-14.195 19.823999 -0.57599998 0.27000001
-13.869 19.240999 -0.55500001 0.15000001
-14.36 19.791 -0.57800001 0.47999999
-14.332 19.622999 -0.57300001 0
-14.833 20.044001 -0.59399998 0
-14.87 20.028999 -0.59399998 0
-24.629999 28.715 -1.006 0.28999999
-24.702 28.615999 -1.006 0.31999999
-24.888 28.649 -1.01 0.11
-25.952 29.686001 -1.058 0.15000001
-25.174 28.613001 -1.015 0.22
-25.177999 28.437 -1.011 0.14
-25.399 28.596001 -1.02 0.17
-25.441999 28.464001 -1.018 0.2
-26.549999 29.518999 -1.066 0.15000001
-25.096001 27.724001 -0.99299997 0
-26.302 28.875 -1.046 0
-26.846001 29.288 -1.067 0
-24.400999 26.448999 -0.94700003 0.13
-25.393999 27.440001 -0.99199998 0.16
-25.485001 27.365999 -0.99299997 0.33000001
-25.218 26.74 -0.972 0.18000001
-28.011 29.518999 -1.098 0.079999998
-25.719999 26.931 -0.98799998 0.16
-25.879 26.927999 -0.991 0.22
-25.823 26.785 -0.986 0
-28.068001 28.934999 -1.086 0.11
-28.327999 29.02 -1.094 0.12
-28.565001 29.079 -1.1 0.16
-29.389999 29.733 -1.1339999 0.30000001
-29.193001 29.348 -1.1210001 0.15000001
-28.09 28.061001 -1.066 0
-29.365999 29.153 -1.12 0
-26.507999 26.23 -0.98900002 0
-31.539 30.249001 -1.194 0
-31.937 29.962999 -1.197 0.14
-32.063 29.893 -1.199 0.19
-22.143999 20.375 -0.759 0.20999999
-22.143999 20.247 -0.75599998 0.54000002
-36.085999 32.912998 -1.359 0.25999999
-36.222 32.828999 -1.36 0.27000001
-36.266998 32.662998 -1.358 0
-36.240002 32.432999 -1.352 0
-36.257999 32.244999 -1.349 0.11
-22.312 19.704 -0.74800003 0.12
-22.325001 19.59 -0.74599999 0.30000001
-22.4 19.532 -0.74699998 0.44999999
-23.145 20.118999 -0.77700001 0.14
-23.17 20.013 -0.77600002 0.31999999
-23.24 19.947001 -0.77600002 0.36000001
-23.128 19.725 -0.76899999 0.31
-23.068001 19.548 -0.76300001 0.31999999
-23.177999 19.517 -0.76499999 0.31999999
-24.343 20.368999 -0.81199998 0.19
-24.729 20.625999 -0.82599998 0.23999999
-24.702999 20.473 -0.82300001 0.28999999
-24.704 20.344 -0.81999999 0.28
