# .PCD v0.7 - Point Cloud Data file format
VERSION 0.7
FIELDS x y z intensity
SIZE 4 4 4 4
TYPE F F F F
COUNT 1 1 1 1
WIDTH 1370
HEIGHT 1
VIEWPOINT 0 0 0 1 0 0 0
POINTS 1370
DATA ascii
-8.5550003 4.3410001 -1.845 0.20999999
-8.5579996 4.3260002 -1.844 0.28
-8.5749998 4.3000002 -1.845 0.25
-8.5869999 4.2729998 -1.845 0.25
-8.5979996 4.2449999 -1.844 0.25
-8.6190004 4.2210002 -1.846 0.25
-8.6409998 4.198 -1.848 0.19
-8.6560001 4.1719999 -1.848 0.25999999
-8.6569996 4.1560001 -1.847 0.23999999
-8.6680002 4.1279998 -1.847 0.19
-8.6899996 4.105 -1.849 0.27000001
-8.6920004 4.073 -1.846 0.22
-8.7049999 4.0450001 -1.846 0.18000001
-8.7349997 4.026 -1.85 0.25999999
-8.7530003 4.0009999 -1.852 0.22
-8.7700005 3.9920001 -1.854 0.12
-8.7770004 3.9619999 -1.853 0.2
-8.7919998 3.9349999 -1.853 0.2
-8.816 3.9130001 -1.8559999 0.25
-8.8219995 3.882 -1.854 0.19
-8.8389997 3.8570001 -1.8559999 0.23999999
-8.8549995 3.8310001 -1.8559999 0.19
-8.8629999 3.8180001 -1.857 0.23999999
-8.8660002 3.786 -1.855 0.19
-8.8940001 3.7650001 -1.858 0.23
-8.8909998 3.7309999 -1.855 0.18000001
-8.9209995 3.711 -1.859 0.23
-8.9359999 3.684 -1.86 0.19
-8.9490004 3.6570001 -1.86 0.23
-8.9460001 3.6389999 -1.858 0.18000001
-8.9659996 3.615 -1.86 0.23
-8.9870005 3.5899999 -1.862 0.19
-8.9940004 3.5599999 -1.862 0.23
-9.0159998 3.536 -1.864 0.20999999
-9.0109997 3.5020001 -1.86 0.22
-9.0240002 3.474 -1.8609999 0.19
-9.0200005 3.4560001 -1.859 0.23
-9.0369997 3.4300001 -1.86 0.19
-9.0469999 3.402 -1.86 0.23999999
-9.0629997 3.375 -1.8609999 0.19
-9.0699997 3.345 -1.86 0.23
-9.0830002 3.3180001 -1.8609999 0
-9.1280003 3.302 -1.868 0
-9.0979996 3.2750001 -1.8609999 0
-9.099 3.243 -1.859 0
-9.1059999 3.2130001 -1.858 0
-9.1049995 3.1800001 -1.8559999 0
-9.118 3.1530001 -1.8559999 0.029999999
-9.1479998 3.131 -1.8609999 0.12
-9.1400003 3.096 -1.857 0.20999999
-9.1429996 3.0810001 -1.8559999 0.25
-9.1669998 3.0580001 -1.86 0.27000001
-9.1750002 3.0280001 -1.859 0.25999999
-9.2049999 3.006 -1.864 0.25999999
-9.2010002 2.973 -1.8609999 0.30000001
-9.2159996 2.9460001 -1.862 0.30000001
-9.2290001 2.918 -1.863 0.28999999
-9.2340002 2.9030001 -1.863 0.27000001
-9.2390003 2.8729999 -1.862 0.31999999
-9.2390003 2.8410001 -1.86 0.28
-9.2550001 2.8150001 -1.862 0.31999999
-9.2639999 2.7850001 -1.862 0.27000001
-9.2799997 2.7590001 -1.863 0.31999999
-9.29 2.7460001 -1.864 0.30000001
-9.2969999 2.7160001 -1.864 0.28999999
-9.309 2.688 -1.865 0.28999999
-9.3100004 2.6559999 -1.863 0.28
-9.3179998 2.6270001 -1.863 0.31
-9.3360004 2.6010001 -1.865 0.28999999
-9.3479996 2.572 -1.8660001 0.30000001
-9.3590002 2.5599999 -1.868 0.30000001
-9.3649998 2.53 -1.867 0.28999999
-9.375 2.5009999 -1.868 0.31
-9.3879995 2.473 -1.869 0.25
-9.3940001 2.4430001 -1.868 0.28
-9.4099998 2.415 -1.87 0.28999999
-9.4189997 2.3859999 -1.87 0.28
-9.4359999 2.375 -1.873 0.050000001
-9.4320002 2.342 -1.8710001 0.12
-9.4429998 2.3139999 -1.872 0.15000001
-9.4659996 2.2880001 -1.875 0.25999999
-9.4729996 2.2579999 -1.875 0.20999999
-9.4910002 2.2309999 -1.877 0.11
-9.5 2.201 -1.878 0.18000001
-9.5 2.1860001 -1.877 0.11
-9.5080004 2.1559999 -1.877 0.19
-9.5190001 2.1270001 -1.878 0.28
-9.5430002 2.1010001 -1.882 0.25999999
-9.5570002 2.073 -1.883 0.27000001
-9.5459995 2.039 -1.88 0.28999999
-9.566 2.0120001 -1.882 0.27000001
-9.5579996 1.994 -1.88 0.28
-9.5830002 1.9680001 -1.8839999 0.25
-9.5970001 1.9400001 -1.886 0.30000001
-9.5930004 1.908 -1.8839999 0.27000001
-9.6009998 1.878 -1.8839999 0.27000001
-9.6210003 1.85 -1.887 0.27000001
-9.6029997 1.816 -1.882 0.28
-9.6079998 1.801 -1.882 0.25999999
-9.6169996 1.772 -1.883 0.25999999
-9.6330004 1.743 -1.885 0.27000001
-9.6379995 1.7130001 -1.885 0.25
-9.6450005 1.683 -1.886 0.2
-9.6619997 1.655 -1.888 0.27000001
-9.6560001 1.622 -1.886 0.25
-9.6739998 1.61 -1.8890001 0.2
-9.6820002 1.58 -1.89 0.25999999
-9.684 1.549 -1.8890001 0.22
-9.6879997 1.518 -1.8890001 0.2
-9.6990004 1.489 -1.89 0.25999999
-9.7019997 1.4579999 -1.89 0.23999999
-9.7290001 1.431 -1.895 0.19
-9.7139997 1.413 -1.891 0.25999999
-9.7150002 1.382 -1.89 0.23
-9.7379999 1.354 -1.8940001 0.2
-9.7329998 1.322 -1.892 0.23999999
-9.7559996 1.294 -1.896 0.20999999
-9.7550001 1.263 -1.895 0.12
-9.7410002 1.23 -1.891 0.20999999
-9.7510004 1.216 -1.893 0.2
-9.7740002 1.188 -1.897 0.23999999
-9.7740002 1.156 -1.896 0.2
-9.7539997 1.123 -1.891 0.23
-9.7910004 1.096 -1.898 0.20999999
-9.7819996 1.064 -1.896 0.22
-9.7799997 1.033 -1.895 0.2
-9.7849998 1.018 -1.895 0.23999999
-9.7860003 0.98699999 -1.895 0.19
-9.7930002 0.95599997 -1.896 0.23999999
-9.7959995 0.926 -1.896 0.20999999
-9.7869997 0.89399999 -1.893 0.18000001
-9.7939997 0.86299998 -1.8940001 0.25999999
-9.7989998 0.833 -1.895 0.23
-9.7980003 0.81699997 -1.8940001 0.2
-9.8059998 0.787 -1.895 0.25999999
-9.8109999 0.75599998 -1.896 0.23
-9.8009996 0.72500002 -1.893 0.2
-9.8149996 0.69499999 -1.896 0.27000001
-9.8210001 0.66399997 -1.897 0.25
-9.8140001 0.63300002 -1.895 0.25999999
-9.8190002 0.61699998 -1.895 0.19
-9.8260002 0.58700001 -1.897 0.27000001
-9.8179998 0.55500001 -1.895 0.25
-9.8319998 0.52499998 -1.897 0.25
-9.8240004 0.49399999 -1.895 0.18000001
-9.8210001 0.463 -1.8940001 0.28999999
-9.8210001 0.43200001 -1.8940001 0.25
-9.8330002 0.417 -1.896 0.20999999
-9.823 0.38600001 -1.8940001 0.27000001
-9.8369999 0.35499999 -1.897 0.25
-9.8400002 0.324 -1.897 0.23999999
-9.8319998 0.29300001 -1.895 0.20999999
-9.8380003 0.26199999 -1.896 0.27000001
-9.8430004 0.23199999 -1.897 0.25
-9.8360004 0.21600001 -1.895 0.2
-9.8380003 0.185 -1.896 0.28
-9.8450003 0.154 -1.897 0.23
-9.8450003 0.123 -1.897 0.20999999
-9.8470001 0.092 -1.897 0.25
-9.8479996 0.061999999 -1.897 0.23
-9.8459997 0.030999999 -1.897 0.2
-9.8479996 0.015 -1.897 0.25
-9.8629999 -0.016000001 -1.901 0.18000001
-9.8479996 -0.046999998 -1.897 0.23999999
-9.8549995 -0.078000002 -1.899 0.2
-9.8509998 -0.109 -1.898 0.25
-9.8590002 -0.14 -1.9 0.20999999
-9.8559999 -0.171 -1.899 0.12
-9.8599997 -0.186 -1.9 0.19
-9.8450003 -0.21699999 -1.897 0.2
-9.8509998 -0.248 -1.899 0.19
-9.8559999 -0.27900001 -1.9 0.23
-9.8610001 -0.31 -1.901 0.19
-9.8710003 -0.34200001 -1.903 0.23
-9.8529997 -0.37200001 -1.9 0.22
-9.8540001 -0.38699999 -1.9 0.11
-9.8549995 -0.41800001 -1.901 0.20999999
-9.8549995 -0.44999999 -1.901 0.18000001
-9.8540001 -0.47999999 -1.901 0.25999999
-9.8479996 -0.51099998 -1.9 0.22
-9.8540001 -0.54299998 -1.902 0.20999999
-9.8570004 -0.574 -1.903 0.23999999
-9.842 -0.588 -1.9 0.23999999
-9.842 -0.62 -1.9 0.20999999
-9.8360004 -0.64999998 -1.899 0.25999999
-9.8380003 -0.68099999 -1.9 0.25
-9.8380003 -0.71200001 -1.901 0.2
-9.8409996 -0.74400002 -1.902 0.27000001
-9.8360004 -0.79000002 -1.901 0.19
-9.8199997 -0.81999999 -1.899 0.27000001
-9.8149996 -0.85000002 -1.898 0.25
-9.8199997 -0.88200003 -1.9 0.25999999
-9.8170004 -0.89700001 -1.899 0.27000001
-9.8120003 -0.92799997 -1.899 0.27000001
-9.8050003 -0.958 -1.898 0.27000001
-9.8079996 -0.99000001 -1.899 0.27000001
-9.8009996 -1.02 -1.899 0.28
-9.8190002 -1.053 -1.903 0.25999999
-9.8059998 -1.0829999 -1.901 0.28
-9.7919998 -1.097 -1.899 0.25
-9.7930002 -1.128 -1.899 0.28999999
-9.7989998 -1.16 -1.901 0.28999999
-9.7989998 -1.191 -1.902 0.31
-9.7989998 -1.223 -1.903 0.30000001
-9.7930002 -1.253 -1.903 0.28999999
-9.7889996 -1.268 -1.902 0.31
-9.7849998 -1.299 -1.902 0.28999999
-9.7770004 -1.329 -1.901 0.28999999
-9.783 -1.3609999 -1.903 0.31999999
-9.7749996 -1.391 -1.903 0.30000001
-9.7720003 -1.4220001 -1.903 0.30000001
-9.7700005 -1.4529999 -1.903 0.27000001
-9.7600002 -1.4680001 -1.902 0.28
-9.7489996 -1.497 -1.901 0.28999999
-9.7580004 -1.53 -1.903 0.31999999
-9.7449999 -1.559 -1.902 0.30000001
-9.7440004 -1.591 -1.903 0.31
-9.7329998 -1.62 -1.901 0.28
-9.7320004 -1.652 -1.902 0.30000001
-9.7329998 -1.668 -1.903 0.28999999
-9.717 -1.696 -1.901 0.22
-9.7379999 -1.7309999 -1.906 0.2
-9.7349997 -1.762 -1.9069999 0.63
-9.6960001 -1.7869999 -1.9 0.69
-9.7180004 -1.822 -1.905 0.33000001
-9.6619997 -1.8430001 -1.895 0.58999997
-9.6920004 -1.865 -1.902 0.38
-9.6859999 -1.895 -1.902 0.27000001
-9.6639996 -1.923 -1.899 0.25999999
-9.6599998 -1.9529999 -1.899 0.25
-9.5889997 -1.97 -1.885 0.36000001
-9.4499998 -1.973 -1.858 0.37
-9.3290005 -1.979 -1.8329999 0.38
-9.2930002 -1.987 -1.827 0.38
-9.2370005 -2.0050001 -1.816 0.37
-9.1619997 -2.0190001 -1.802 0.34
-9.1129999 -2.039 -1.793 0.31999999
-9.0240002 -2.049 -1.776 0.41
-9.0769997 -2.0910001 -1.788 0.33000001
-9.0059996 -2.1040001 -1.774 0.31999999
-8.941 -2.1040001 -1.761 0.46000001
-8.948 -2.135 -1.7640001 0.31
-9.0159998 -2.181 -1.78 0.41
-8.9919996 -2.2049999 -1.776 0.20999999
-9.2930002 -2.309 -1.841 0.36000001
-9.3269997 -2.349 -1.85 0.31
-9.2910004 -2.3710001 -1.844 0.33000001
-9.1969995 -2.3629999 -1.825 0.30000001
-9.1450005 -2.3800001 -1.816 0.34999999
-9.1079998 -2.401 -1.809 0.25999999
-9.0410004 -2.414 -1.7970001 0.56
-8.9650002 -2.424 -1.7819999 0.31
-8.8590002 -2.4260001 -1.761 0.38999999
-8.8929996 -2.4649999 -1.77 0.34
-8.7690001 -2.4460001 -1.745 0.25
-8.802 -2.4849999 -1.753 0.43000001
-8.5629997 -2.447 -1.704 0.28999999
-8.7679996 -2.5350001 -1.749 0.34999999
-8.743 -2.5569999 -1.7460001 0.27000001
-8.5039997 -2.517 -1.696 0.36000001
-8.7600002 -2.622 -1.753 0.31
-8.6700001 -2.6099999 -1.734 0.33000001
-8.4569998 -2.576 -1.691 0.23
-8.8369999 -2.721 -1.774 0.34999999
-8.8079996 -2.7420001 -1.7690001 0.34
-8.7919998 -2.767 -1.768 0.38999999
-8.7790003 -2.7939999 -1.767 0.33000001
-8.7690001 -2.8210001 -1.767 0.31
-8.71 -2.8169999 -1.755 0.36000001
-8.6750002 -2.836 -1.749 0.40000001
-8.6099997 -2.845 -1.737 0.34
-8.7309999 -2.915 -1.765 0.34999999
-8.7589998 -2.9549999 -1.773 0.36000001
-8.7700005 -2.9890001 -1.778 0.37
-8.757 -3.016 -1.777 0.38999999
-8.7840004 -3.04 -1.784 0.31999999
-8.7819996 -3.0699999 -1.786 0.34
-8.8660002 -3.131 -1.806 0.34999999
-8.8179998 -3.145 -1.798 0.31999999
-8.7650003 -3.158 -1.788 0.40000001
-8.8050003 -3.2030001 -1.799 0.38
-8.7329998 -3.2079999 -1.786 0.30000001
-8.7460003 -3.2279999 -1.79 0.38999999
-8.6920004 -3.24 -1.78 0.33000001
-8.6099997 -3.24 -1.7640001 0.37
-8.5559998 -3.2509999 -1.755 0.36000001
-8.5469999 -3.2780001 -1.755 0.34999999
-7.4499998 -2.888 -1.516 0.23999999
-7.4120002 -2.9000001 -1.51 0.50999999
-8.6870003 -3.4100001 -1.7920001 0.25999999
-8.6359997 -3.421 -1.783 0.37
-8.3360004 -3.3340001 -1.719 0.36000001
-8.4860001 -3.424 -1.7539999 0.36000001
-8.5089998 -3.464 -1.762 0.30000001
-8.3120003 -3.415 -1.72 0.34999999
-8.493 -3.5039999 -1.762 0.38
-8.4530001 -3.5190001 -1.755 0.31999999
-8.5 -3.5699999 -1.768 0.34999999
-8.4069996 -3.562 -1.75 0.33000001
-8.4630003 -3.6170001 -1.765 0.38999999
-8.3830004 -3.6140001 -1.75 0.25999999
-8.2799997 -3.6010001 -1.729 0.44999999
-8.5089998 -3.7160001 -1.7819999 0.36000001
-8.3599997 -3.6819999 -1.751 0.37
-8.3000002 -3.687 -1.74 0.25
-8.2449999 -3.694 -1.73 0.41
-8.1490002 -3.6819999 -1.712 0.38999999
-8.1339998 -3.7060001 -1.711 0.40000001
-8.2309999 -3.7820001 -1.735 0.34999999
-8.3249998 -3.8399999 -1.758 0.33000001
-8.3800001 -3.8970001 -1.773 0.37
-8.3649998 -3.9219999 -1.772 0.41
-8.2690001 -3.9089999 -1.753 0.28999999
-8.2489996 -3.9319999 -1.752 0.43000001
-8.2069998 -3.9430001 -1.745 0.37
-8.1879997 -3.9660001 -1.743 0.36000001
-8.224 -4.0149999 -1.755 0.34
-8.2220001 -4.0300002 -1.755 0.34
-8.2460003 -4.0739999 -1.7640001 0.34
-8.2650003 -4.1160002 -1.771 0.36000001
-8.2010002 -4.1160002 -1.7589999 0.36000001
-8.1280003 -4.112 -1.7460001 0.38
-8.2460003 -4.204 -1.776 0.34999999
-8.2220001 -4.2080002 -1.772 0.36000001
-8.1520004 -4.204 -1.7589999 0.25999999
-7.994 -4.1550002 -1.725 0.38
-8.1409998 -4.2639999 -1.762 0.31999999
-8.0059996 -4.2249999 -1.734 0.37
-8.1569996 -4.3369999 -1.772 0.30000001
-8.1260004 -4.3540001 -1.768 0.34
-8.04 -4.3239999 -1.75 0.38
-6.3969998 -3.473 -1.37 0.36000001
-8.0760002 -4.4089999 -1.765 0.25999999
-7.9660001 -4.382 -1.742 0.31999999
-8.0019999 -4.434 -1.7539999 0.34999999
-7.9549999 -4.441 -1.7460001 0.34
-7.8319998 -4.4050002 -1.72 0.36000001
-7.9699998 -4.4990001 -1.755 0.34999999
-7.9899998 -4.5430002 -1.763 0.25999999
-7.9710002 -4.5650001 -1.761 0.41
-7.9169998 -4.5679998 -1.752 0.28999999
-8.0030003 -4.651 -1.776 0.28
-7.8509998 -4.5960002 -1.743 0.33000001
-7.71 -4.546 -1.7130001 0.38
-7.7519999 -4.5869999 -1.725 0.31999999
-7.7789998 -4.6370001 -1.735 0.36000001
-7.7680001 -4.6630001 -1.7359999 0.31
-7.7329998 -4.6750002 -1.7309999 0.33000001
-7.6110001 -4.6350002 -1.705 0.38999999
-7.6690001 -4.7020001 -1.722 0.25
-7.7509999 -4.7859998 -1.7460001 0.37
-7.6110001 -4.717 -1.714 0.27000001
-7.9050002 -4.9320002 -1.788 0.31
-7.836 -4.9229999 -1.776 0.31999999
-7.9860001 -5.052 -1.816 0.43000001
-7.7849998 -4.96 -1.771 0.23
-7.849 -5.0349998 -1.79 0.46000001
-6.717 -4.3429999 -1.518 0.28999999
-7.7670002 -5.0349998 -1.776 0.30000001
-7.3109999 -4.7729998 -1.668 0.43000001
-6.6300001 -4.3610001 -1.505 0.28
-7.6110001 -5.0370002 -1.749 0.23
-7.7639999 -5.1719999 -1.791 0.31999999
-7.6630001 -5.1399999 -1.77 0.41999999
-7.2249999 -4.881 -1.666 0.28
-7.105 -4.8169999 -1.638 0.40000001
-7.572 -5.1659999 -1.757 0.28
-7.4619999 -5.125 -1.734 0.36000001
-7.3969998 -5.1160002 -1.722 0.31999999
-7.4120002 -5.1599998 -1.73 0.41
-7.3280001 -5.1360002 -1.7130001 0.30000001
-7.3940001 -5.1989999 -1.7309999 0.28
-7.4120002 -5.2470002 -1.74 0.47999999
-7.5110002 -5.3520002 -1.7690001 0.28
-7.2820001 -5.224 -1.716 0.31999999
-7.237 -5.2270002 -1.7079999 0.40000001
-7.1240001 -5.1789999 -1.684 0.34
-7.2930002 -5.3369999 -1.7309999 0.31
-7.3270001 -5.3790002 -1.742 0.27000001
-7.2550001 -5.362 -1.728 0.38
-7.2740002 -5.4109998 -1.737 0.34999999
-7.4050002 -5.5440001 -1.775 0.31
-7.4190001 -5.5910001 -1.783 0.31999999
-7.2119999 -5.4710002 -1.734 0.36000001
-7.085 -5.4109998 -1.706 0.31
-7.1799998 -5.5 -1.732 0.33000001
-7.1389999 -5.5050001 -1.726 0.34999999
-7.1589999 -5.5560002 -1.7359999 0.38
-7.0970001 -5.5440001 -1.724 0.41
-7.0190001 -5.5190001 -1.709 0.30000001
-7.04 -5.5710001 -1.719 0.38999999
-7.033 -5.6020002 -1.722 0.25999999
-7.2220001 -5.77 -1.773 0.34999999
-7.1139998 -5.7210002 -1.75 0.22
-7.2140002 -5.8369999 -1.781 0.41999999
-7.1389999 -5.8150001 -1.766 0.34999999
-7.0580001 -5.7859998 -1.749 0.33000001
-7.0900002 -5.849 -1.763 0.30000001
-7.118 -5.9099998 -1.775 0.38
-7.1350002 -5.9429998 -1.7819999 0.38
-7.0149999 -5.881 -1.755 0.36000001
-6.9499998 -5.8639998 -1.743 0.38
-6.9530001 -5.9029999 -1.748 0.28999999
-6.9699998 -5.9559999 -1.758 0.31
-6.9359999 -5.9650002 -1.7539999 0.43000001
-6.8429999 -5.9229999 -1.734 0.38999999
-6.8930001 -5.9850001 -1.75 0.34
-6.9039998 -6.0320001 -1.758 0.36000001
-6.8940001 -6.0609999 -1.76 0.44999999
-6.8099999 -6.026 -1.743 0.27000001
-6.75 -6.0110002 -1.7309999 0.36000001
-6.8179998 -6.1090002 -1.755 0.38999999
-6.8109999 -6.1420002 -1.7589999 0.37
-6.7989998 -6.1500001 -1.758 0.31999999
-6.7659998 -6.1599998 -1.7539999 0.46000001
-6.6110001 -6.0570002 -1.716 0.25999999
-6.652 -6.1329999 -1.733 0.36000001
-6.6680002 -6.1859999 -1.743 0.34999999
-6.572 -6.1360002 -1.722 0.44999999
-6.6890001 -6.2839999 -1.76 0.31
-6.6399999 -6.2579999 -1.749 0.36000001
-6.632 -6.29 -1.752 0.31
-6.605 -6.3039999 -1.75 0.36000001
-6.539 -6.2800002 -1.737 0.37
-6.461 -6.2449999 -1.72 0.43000001
-6.4260001 -6.25 -1.716 0.34
-6.401 -6.2649999 -1.714 0.36000001
-6.427 -6.3109999 -1.725 0.36000001
-6.3860002 -6.3099999 -1.719 0.31999999
-6.421 -6.3839998 -1.734 0.33000001
-6.355 -6.3579998 -1.721 0.34999999
-6.3969998 -6.441 -1.739 0.38
-6.3449998 -6.4289999 -1.73 0.38999999
-6.2620001 -6.3649998 -1.709 0.30000001
-6.2379999 -6.3800001 -1.7079999 0.43000001
-6.1849999 -6.3660002 -1.698 0.33000001
-6.1659999 -6.3870001 -1.698 0.34
-6.1960001 -6.4590001 -1.7130001 0.28999999
-6.2210002 -6.5250001 -1.726 0.41999999
-6.1999998 -6.5440001 -1.726 0.36000001
-6.1599998 -6.5419998 -1.72 0.28999999
-6.1240001 -6.5250001 -1.7130001 0.34
-6.0749998 -6.5139999 -1.704 0.23
-5.954 -6.4260001 -1.674 0.47
-5.9330001 -6.4429998 -1.674 0.46000001
-6.1490002 -6.7179999 -1.745 0.25
-6.0149999 -6.6149998 -1.711 0.43000001
-5.9650002 -6.6020002 -1.702 0.23999999
-5.8410001 -6.4850001 -1.6670001 0.36000001
-5.9429998 -6.6399999 -1.705 0.28999999
-5.8790002 -6.6100001 -1.692 0.44
-5.881 -6.6539998 -1.699 0.28999999
-5.9359999 -6.7589998 -1.722 0.31999999
-5.8449998 -6.698 -1.701 0.33000001
-5.8330002 -6.7049999 -1.7 0.38
-5.599 -6.4780002 -1.6339999 0.34999999
-5.6360002 -6.5630002 -1.652 0.31
-5.6859999 -6.6620002 -1.674 0.36000001
-5.6040001 -6.6079998 -1.654 0.28999999
-5.54 -6.5749998 -1.641 0.33000001
-5.5500002 -6.6279998 -1.65 0.34999999
-5.6149998 -6.7270002 -1.675 0.31999999
-5.527 -6.665 -1.653 0.40000001
-5.5219998 -6.7020001 -1.658 0.34999999
-5.5110002 -6.7309999 -1.6619999 0.31999999
-5.3979998 -6.6360002 -1.632 0.34
-5.3870001 -6.6659999 -1.635 0.37
-5.4489999 -6.7849998 -1.6619999 0.38999999
-5.4180002 -6.7690001 -1.656 0.34
-5.539 -6.9629998 -1.702 0.28999999
-5.3730001 -6.8000002 -1.655 0.31999999
-5.4439998 -6.9330001 -1.6849999 0.37
-5.4349999 -6.9660001 -1.689 0.28
-5.3909998 -6.9549999 -1.682 0.52999997
-5.395 -7.006 -1.691 0.34
-5.349 -6.9679999 -1.679 0.38
-5.3400002 -7.0019999 -1.683 0.38999999
-5.3109999 -7.0089998 -1.681 0.36000001
-5.2789998 -7.013 -1.678 0.25
-5.2309999 -6.9949999 -1.669 0.47999999
-5.2740002 -7.098 -1.691 0.34999999
-5.184 -7.0229998 -1.668 0.31999999
-5.1490002 -7 -1.66 0.25
-5.1750002 -7.0809999 -1.676 0.47
-5.1810002 -7.1370001 -1.686 0.36000001
-5.2340002 -7.256 -1.712 0.37
-5.1869998 -7.2389998 -1.704 0.28999999
-5.1040001 -7.171 -1.683 0.28999999
-5.073 -7.1760001 -1.6799999 0.28999999
-5.0840001 -7.2160001 -1.688 0.40000001
-5.085 -7.2649999 -1.696 0.28999999
-5.0900002 -7.3200002 -1.706 0.34
-5.0599999 -7.3260002 -1.704 0.33000001
-5.0120001 -7.3060002 -1.6950001 0.34
-4.9959998 -7.3319998 -1.697 0.34
-4.941 -7.3000002 -1.6849999 0.31999999
-4.9380002 -7.3210001 -1.689 0.34
-4.9629998 -7.408 -1.706 0.34999999
-4.9180002 -7.3909998 -1.698 0.36000001
-4.8860002 -7.3930001 -1.6950001 0.38999999
-4.869 -7.4169998 -1.697 0.38999999
-4.822 -7.3959999 -1.688 0.30000001
-4.8070002 -7.4239998 -1.691 0.40000001
-4.757 -7.3730001 -1.677 0.33000001
-4.7680001 -7.4400001 -1.6900001 0.27000001
-4.6989999 -7.3839998 -1.673 0.47999999
-4.6750002 -7.3969998 -1.6720001 0.38
-4.6440001 -7.401 -1.669 0.31999999
-4.6560001 -7.4720001 -1.683 0.36000001
-4.6110001 -7.4260001 -1.67 0.36000001
-4.5999999 -7.46 -1.675 0.36000001
-4.5079999 -7.3629999 -1.648 0.31999999
-4.5110002 -7.4200001 -1.658 0.41
-4.5019999 -7.4580002 -1.664 0.34
-4.4629998 -7.4450002 -1.658 0.41999999
-4.4180002 -7.4239998 -1.649 0.30000001
-4.4299998 -7.4710002 -1.659 0.46000001
-4.3920002 -7.46 -1.653 0.34
-4.3779998 -7.4899998 -1.6569999 0.41
-4.3730001 -7.5349998 -1.664 0.28999999
-4.349 -7.5479999 -1.664 0.5
-4.1890001 -7.3260002 -1.608 0.23999999
-4.2150002 -7.4239998 -1.628 0.36000001
-4.1849999 -7.3979998 -1.6210001 0.38999999
-4.1620002 -7.4130001 -1.6210001 0.34
-4.151 -7.447 -1.626 0.37
-4.21 -7.6090002 -1.661 0.33000001
-4.158 -7.5700002 -1.649 0.34999999
-4.1160002 -7.5510001 -1.641 0.40000001
-4.0799999 -7.5409999 -1.636 0.27000001
-4.1110001 -7.6269999 -1.654 0.44
-4.073 -7.6139998 -1.648 0.34
-4.052 -7.632 -1.65 0.38
-4.0180001 -7.625 -1.645 0.36000001
-3.9679999 -7.5879998 -1.6339999 0.38
-3.9560001 -7.6230001 -1.6390001 0.31999999
-3.9419999 -7.6539998 -1.643 0.38
-3.9349999 -7.671 -1.646 0.41
-3.4549999 -6.7940001 -1.441 0.22
-3.786 -7.4980001 -1.6 0.36000001
-3.8299999 -7.6430001 -1.631 0.28999999
-3.7360001 -7.5149999 -1.599 0.41999999
-3.6949999 -7.4910002 -1.591 0.2
-3.8310001 -7.796 -1.659 0.28
-3.8 -7.7950001 -1.656 0.49000001
-3.707 -7.6659999 -1.624 0.25
-3.7379999 -7.7930002 -1.65 0.34999999
-3.6659999 -7.7049999 -1.628 0.31999999
-3.631 -7.6939998 -1.622 0.31999999
-3.635 -7.7659998 -1.636 0.28999999
-3.7060001 -7.947 -1.676 0.36000001
-3.5940001 -7.7719998 -1.6339999 0.47999999
-3.6789999 -8.0200005 -1.687 0.25999999
-3.5120001 -7.723 -1.617 0.37
-3.5309999 -7.829 -1.6390001 0.33000001
-3.5209999 -7.8720002 -1.646 0.38
-3.4860001 -7.8610001 -1.641 0.23
-3.4790001 -7.8779998 -1.6440001 0.38
-3.4460001 -7.8709998 -1.64 0.25
-3.3429999 -7.7020001 -1.599 0.25999999
-3.2690001 -7.5970001 -1.574 0.25999999
-3.2939999 -7.723 -1.599 0.34
-3.2550001 -7.697 -1.591 0.38
-3.2690001 -7.7969999 -1.6109999 0.30000001
-3.2479999 -7.783 -1.607 0.34
-3.2360001 -7.822 -1.613 0.40000001
-3.263 -7.9590001 -1.642 0.36000001
-3.154 -7.7620001 -1.596 0.31999999
-3.154 -7.8319998 -1.609 0.36000001
-3.131 -7.8449998 -1.61 0.38
-3.0829999 -7.7989998 -1.597 0.33000001
-3.0969999 -7.869 -1.612 0.38
-3.0480001 -7.8169999 -1.598 0.28999999
-3.023 -7.8249998 -1.598 0.38
-2.9489999 -7.7059999 -1.5700001 0.20999999
-3.0439999 -8.0279999 -1.638 0.16
-3.0150001 -8.0270004 -1.636 0.47999999
-3.5050001 -9.408 -1.937 0.22
-2.9300001 -7.914 -1.608 0.2
-2.9200001 -7.9660001 -1.617 0.25999999
-2.9719999 -8.1850004 -1.663 0.41999999
-2.8900001 -8.0389996 -1.63 0.22
-2.845 -7.993 -1.617 0.28999999
-2.8110001 -7.9759998 -1.612 0.28999999
-2.773 -7.948 -1.604 0.34999999
-2.6600001 -7.6669998 -1.5420001 0.34
-2.622 -7.6329999 -1.533 0.19
-2.632 -7.7410002 -1.554 0.33000001
-3.224 -9.5640001 -1.948 0.16
-2.602 -7.8140001 -1.566 0.14
-2.576 -7.816 -1.5650001 0.20999999
-2.53 -7.7199998 -1.543 0.11
-2.635 -8.1199999 -1.628 0.2
-2.5120001 -7.829 -1.564 0.28999999
-3.066 -9.6400003 -1.952 0.25999999
-2.4909999 -7.934 -1.5829999 0.2
-2.451 -7.8930001 -1.572 0.18000001
-2.4879999 -8.1009998 -1.615 0.18000001
-2.4000001 -7.8610001 -1.563 0.47
-2.3940001 -7.9310002 -1.576 0.28999999
-2.3410001 -7.8449998 -1.556 0.17
-2.303 -7.8070002 -1.5470001 0.25
-2.2750001 -7.803 -1.544 0.49000001
-2.3239999 -8.0600004 -1.598 0.14
-2.2679999 -7.9619999 -1.575 0.43000001
-2.2620001 -7.9879999 -1.58 0.18000001
-2.2320001 -7.98 -1.577 0.40000001
-2.714 -9.7959995 -1.962 0.16
-2.119 -7.763 -1.528 0.38
-2.099 -7.789 -1.5319999 0.30000001
-2.622 -9.823 -1.9630001 0.23
-2.5910001 -9.8330002 -1.9630001 0.28
-2.5710001 -9.8190002 -1.959 0.30000001
-2.5409999 -9.8319998 -1.96 0.23
-2.513 -9.8500004 -1.962 0.17
-1.78 -7.1009998 -1.3789999 0.33000001
-1.934 -7.8049998 -1.527 0.19
-2.4159999 -9.8579998 -1.959 0.18000001
-1.883 -7.8119998 -1.525 0.16
-2.3729999 -9.882 -1.962 0.17
-1.651 -7.0050001 -1.353 0.25
-2.3110001 -9.8990002 -1.962 0.28
-1.559 -6.8070002 -1.309 0.16
-1.517 -6.7259998 -1.291 0.31
-1.49 -6.7020001 -1.285 0.40000001
-2.1889999 -9.9390001 -1.965 0.23999999
-1.52 -6.9889998 -1.344 0.34
-2.142 -9.9449997 -1.964 0.25
-2.1129999 -9.9630003 -1.967 0.23999999
-2.0840001 -9.9809999 -1.969 0.28
-2.049 -9.9709997 -1.965 0.36000001
-1.62 -8.0380001 -1.559 0.25
-2 -9.9720001 -1.964 0.33000001
-1.533 -7.796 -1.507 0.22
-1.478 -7.6469998 -1.475 0.18000001
-1.403 -7.388 -1.42 0.31999999
-1.878 -10.014 -1.967 0.2
-1.349 -7.3579998 -1.4119999 0.30000001
-1.3710001 -7.605 -1.462 0.18000001
-1.313 -7.3569999 -1.41 0.40000001
-1.279 -7.2969999 -1.397 0.30000001
-1.2690001 -7.375 -1.4119999 0.47
-1.701 -10.022 -1.962 0.18000001
-1.155 -6.9850001 -1.329 0.31
-1.641 -10.052 -1.967 0.14
-1.622 -10.132 -1.982 0.38999999
-1.591 -10.042 -1.9630001 0.22
-1.559 -10.047 -1.9630001 0.27000001
-1.526 -10.04 -1.96 0.30000001
-1.039 -7.0380001 -1.336 0.30000001
-1.46 -10.03 -1.956 0.31
-1.431 -10.048 -1.959 0.17
-1.041 -7.527 -1.436 0.38999999
-1.044 -7.6370001 -1.4579999 0.2
-1.0140001 -7.592 -1.448 0.22
-1.3200001 -10.063 -1.959 0.28999999
-0.97799999 -7.6900001 -1.467 0.43000001
-1.257 -10.075 -1.96 0.34
-1.226 -10.085 -1.961 0.37
-0.884 -7.5190001 -1.4299999 0.25
-0.89999998 -7.7540002 -1.478 0.28
-1.146 -10.083 -1.959 0.30000001
-1.113 -10.076 -1.957 0.40000001
-0.76200002 -7.1760001 -1.357 0.28999999
-1.05 -10.083 -1.957 0.2
-0.71700001 -7.1789999 -1.357 0.20999999
-0.98400003 -10.07 -1.9529999 0.41999999
-0.96799999 -10.068 -1.952 0.40000001
-0.93699998 -10.079 -1.954 0.34
-0.903 -10.056 -1.948 0.19
-0.87099999 -10.053 -1.947 0.37
-0.84100002 -10.069 -1.95 0.38
-0.80699998 -10.052 -1.946 0.38999999
-0.77600002 -10.063 -1.948 0.44
-0.76099998 -10.064 -1.948 0.23
-0.72899997 -10.064 -1.947 0.37
-0.69700003 -10.069 -1.948 0.34999999
-0.66600001 -10.082 -1.95 0.36000001
-0.63499999 -10.084 -1.95 0.36000001
-0.60299999 -10.086 -1.95 0.38
-0.588 -10.101 -1.9529999 0.31999999
-0.55699998 -10.109 -1.954 0.38999999
-0.52399999 -10.085 -1.949 0.23
-0.49200001 -10.096 -1.951 0.38
-0.46000001 -10.088 -1.949 0.33000001
-0.42699999 -10.052 -1.941 0.33000001
-0.39700001 -10.093 -1.949 0.34
-0.38 -10.06 -1.942 0.47999999
-0.347 -10.046 -1.939 0.36000001
-0.317 -10.064 -1.943 0.34
-0.28400001 -10.048 -1.939 0.31
-0.25299999 -10.048 -1.939 0.44
-0.222 -10.078 -1.9450001 0.28999999
-0.19 -10.071 -1.944 0.31999999
-0.17399999 -10.052 -1.9400001 0.41999999
-0.14300001 -10.066 -1.942 0.41999999
-0.111 -10.057 -1.9400001 0.40000001
-0.079000004 -10.081 -1.9450001 0.34999999
-0.048 -10.083 -1.946 0.38
-0.016000001 -10.081 -1.9450001 0.23
0.016000001 -10.063 -1.942 0.47
0.029999999 -8.0100002 -1.52 0.28999999
0.055 -7.9330001 -1.5039999 0.28
0.079999998 -7.9590001 -1.51 0.34999999
0.105 -7.9530001 -1.5089999 0.31
0.13 -7.954 -1.5089999 0.38999999
0.156 -8.026 -1.524 0.31999999
0.169 -8 -1.5190001 0.34999999
0.19400001 -8.0310001 -1.525 0.43000001
0.21799999 -7.98 -1.515 0.40000001
0.24699999 -8.1260004 -1.545 0.23
0.273 -8.1110001 -1.5420001 0.19
0.29800001 -8.1140003 -1.543 0.56999999
0.32600001 -8.184 -1.557 0.25
0.41100001 -10.076 -1.946 0.44999999
0.442 -10.059 -1.943 0.2
0.47400001 -10.052 -1.942 0.30000001
0.505 -10.039 -1.939 0.31
0.53600001 -10.039 -1.9400001 0.36000001
0.442 -7.7090001 -1.461 0.20999999
0.60000002 -10.041 -1.941 0.28
0.61500001 -10.037 -1.9400001 0.22
0.64700001 -10.029 -1.939 0.30000001
0.67900002 -10.046 -1.943 0.25
0.70899999 -10.017 -1.937 0.33000001
0.741 -10.016 -1.938 0.28
0.77200001 -10.018 -1.938 0.23
0.80299997 -10.008 -1.937 0.18000001
0.81800002 -9.9989996 -1.9349999 0.31
0.852 -10.027 -1.942 0.2
0.88300002 -10.017 -1.9400001 0.28
0.713 -7.7399998 -1.472 0.25
0.736 -7.7280002 -1.469 0.23
0.76999998 -7.8210001 -1.489 0.33000001
0.79100001 -7.7880001 -1.483 0.25
0.82300001 -7.9809999 -1.523 0.27000001
0.83600003 -7.8579998 -1.498 0.23
0.85699999 -7.8299999 -1.493 0.23
0.88 -7.8060002 -1.488 0.50999999
0.91600001 -7.908 -1.51 0.25
1.184 -10.005 -1.944 0.31
1.198 -9.9919996 -1.942 0.34
0.972 -7.8520002 -1.5 0.17
1.018 -8.0159998 -1.535 0.41
1.041 -7.9970002 -1.531 0.27000001
1.321 -9.9540005 -1.937 0.18000001
1.059 -7.75 -1.482 0.40000001
1.381 -9.9300003 -1.934 0.17
1.393 -9.8970003 -1.928 0.31999999
1.4220001 -9.8830004 -1.926 0.23
1.188 -8.0439997 -1.545 0.27000001
1.4809999 -9.8529997 -1.921 0.14
1.197 -7.7579999 -1.487 0.30000001
1.2309999 -7.8179998 -1.5 0.31999999
1.249 -7.7709999 -1.492 0.34
1.2539999 -7.7270002 -1.483 0.40000001
1.274 -7.6939998 -1.477 0.38
1.304 -7.7259998 -1.484 0.38999999
1.33 -7.7319999 -1.4859999 0.43000001
1.3559999 -7.7350001 -1.488 0.25999999
1.373 -7.6890001 -1.479 0.43000001
1.397 -7.6859999 -1.48 0.17
1.777 -9.7299995 -1.906 0.18000001
1.804 -9.7010002 -1.901 0.16
1.4910001 -7.8559999 -1.517 0.31
1.8660001 -9.6990004 -1.903 0.19
1.544 -7.8660002 -1.521 0.20999999
1.529 -7.6589999 -1.479 0.15000001
1.942 -9.6820002 -1.903 0.16
1.556 -7.6079998 -1.47 0.19
1.608 -7.7389998 -1.498 0.30000001
1.659 -7.8600001 -1.525 0.18000001
1.7 -7.934 -1.541 0.31999999
1.725 -7.927 -1.541 0.28999999
1.73 -7.8309999 -1.522 0.31
1.747 -7.849 -1.527 0.31999999
1.816 -8.0430002 -1.568 0.2
1.821 -7.9489999 -1.55 0.2
1.857 -7.993 -1.5599999 0.31999999
1.8890001 -8.0139999 -1.566 0.20999999
1.8839999 -7.882 -1.539 0.23
1.915 -7.901 -1.545 0.25999999
1.928 -7.9000001 -1.545 0.34
1.962 -7.9320002 -1.553 0.47999999
1.937 -7.7259998 -1.511 0.28999999
1.951 -7.6760001 -1.502 0.25
2.052 -7.974 -1.566 0.19
2.0550001 -7.8800001 -1.548 0.27000001
2.0710001 -7.8429999 -1.541 0.20999999
2.122 -7.9879999 -1.572 0.31999999
2.122 -7.8839998 -1.552 0.37
2.112 -7.7470002 -1.524 0.25
2.1830001 -7.9120002 -1.561 0.37
2.187 -7.8319998 -1.545 0.23
2.1559999 -7.625 -1.502 0.34999999
2.1949999 -7.671 -1.5140001 0.43000001
2.201 -7.6469998 -1.5089999 0.34999999
2.2130001 -7.598 -1.5 0.47
2.2360001 -7.5890002 -1.5 0.28999999
2.3080001 -7.744 -1.535 0.30000001
2.253 -7.4720001 -1.478 0.31
2.2950001 -7.527 -1.4910001 0.38999999
2.3280001 -7.5910001 -1.506 0.41
2.3610001 -7.6149998 -1.513 0.31
2.359 -7.5219998 -1.494 0.41
2.375 -7.4920001 -1.489 0.27000001
2.424 -7.5650001 -1.506 0.41
2.4790001 -7.6539998 -1.527 0.27000001
2.4590001 -7.5120001 -1.498 0.37
2.457 -7.4629998 -1.489 0.40000001
2.5139999 -7.5599999 -1.511 0.34
2.598 -7.73 -1.55 0.28
2.598 -7.652 -1.535 0.36000001
2.618 -7.632 -1.5319999 0.27000001
2.665 -7.691 -1.5470001 0.34999999
2.7409999 -7.8299999 -1.579 0.31
2.757 -7.8390002 -1.582 0.41
2.733 -7.6900001 -1.551 0.25
2.7690001 -7.7140002 -1.558 0.40000001
2.7869999 -7.6890001 -1.5549999 0.25
2.846 -7.776 -1.576 0.41
2.8410001 -7.6880002 -1.558 0.33000001
2.8410001 -7.6129999 -1.544 0.40000001
2.8559999 -7.618 -1.546 0.30000001
2.895 -7.6490002 -1.5549999 0.31999999
2.8829999 -7.5430002 -1.533 0.36000001
2.961 -7.6760001 -1.5650001 0.28999999
2.9519999 -7.5809999 -1.546 0.34
2.993 -7.6170001 -1.556 0.30000001
2.993 -7.546 -1.5420001 0.44999999
3.0869999 -7.7509999 -1.589 0.18000001
3.0680001 -7.632 -1.564 0.5
3.1300001 -7.7150002 -1.585 0.34
3.1070001 -7.5910001 -1.5599999 0.37
3.1860001 -7.7150002 -1.589 0.33000001
3.2090001 -7.7010002 -1.589 0.33000001
3.1860001 -7.579 -1.564 0.34
3.2490001 -7.6950002 -1.591 0.34999999
3.2880001 -7.7210002 -1.599 0.37
3.316 -7.7179999 -1.6 0.33000001
3.335 -7.697 -1.598 0.38999999
3.3039999 -7.559 -1.569 0.31
3.3770001 -7.6609998 -1.595 0.38
3.3529999 -7.573 -1.576 0.27000001
3.408 -7.6339998 -1.592 0.44
3.4100001 -7.5739999 -1.581 0.33000001
3.4449999 -7.5879998 -1.587 0.38
3.4979999 -7.6409998 -1.601 0.40000001
3.52 -7.625 -1.6 0.34
3.5380001 -7.6009998 -1.597 0.44
3.4979999 -7.4840002 -1.572 0.38999999
3.342 -7.0890002 -1.485 0.28
3.5510001 -7.4759998 -1.575 0.34999999
3.615 -7.5500002 -1.594 0.33000001
3.599 -7.4549999 -1.575 0.5
3.51 -7.211 -1.522 0.22
3.6110001 -7.3600001 -1.559 0.27000001
3.5899999 -7.2880001 -1.543 0.44999999
3.575 -7.1989999 -1.526 0.34999999
3.536 -7.0650001 -1.498 0.27000001
3.7130001 -7.362 -1.568 0.31999999
3.677 -7.2329998 -1.541 0.31999999
3.727 -7.276 -1.554 0.37
3.737 -7.2680001 -1.554 0.40000001
3.671 -7.0819998 -1.513 0.34
3.7780001 -7.2340002 -1.551 0.38999999
3.753 -7.132 -1.53 0.31999999
3.852 -7.2659998 -1.564 0.36000001
3.806 -7.1240001 -1.534 0.27000001
3.8340001 -7.1220002 -1.536 0.41
3.8759999 -7.1729999 -1.55 0.38
3.914 -7.1900001 -1.556 0.38999999
3.9560001 -7.2140002 -1.5650001 0.34
4.0640001 -7.3559999 -1.601 0.36000001
4.0209999 -7.223 -1.573 0.25999999
4.0479999 -7.2189999 -1.575 0.51999998
4 -7.0799999 -1.545 0.28999999
4.0580001 -7.1570001 -1.5650001 0.31
3.9590001 -6.9299998 -1.5140001 0.28999999
4.1469998 -7.2080002 -1.5829999 0.38
4.1389999 -7.1420002 -1.5700001 0.31
4.1020002 -7.0279999 -1.546 0.38999999
4.1570001 -7.0710001 -1.5599999 0.37
4.198 -7.0900002 -1.567 0.37
4.1500001 -6.9829998 -1.543 0.25
4.1799998 -6.9840002 -1.5470001 0.44999999
4.2210002 -7.0029998 -1.554 0.31
4.27 -7.033 -1.5650001 0.38
4.2870002 -7.0110002 -1.563 0.41
4.2820001 -6.954 -1.552 0.38
4.2680001 -6.882 -1.538 0.38999999
4.2880001 -6.8909998 -1.5420001 0.41999999
4.3099999 -6.8769999 -1.5420001 0.28999999
4.3449998 -6.8850002 -1.5470001 0.41999999
4.3759999 -6.8860002 -1.551 0.38
4.4400001 -6.9400001 -1.567 0.28
3.812 -5.9099998 -1.3200001 0.54000002
3.8729999 -5.9850001 -1.339 0.23
4.4450002 -6.8280001 -1.548 0.34
4.4180002 -6.7399998 -1.53 0.34
4.4460001 -6.7360001 -1.533 0.41999999
4.493 -6.7610002 -1.5420001 0.41
4.48 -6.6960001 -1.53 0.30000001
4.493 -6.6690001 -1.527 0.41999999
4.5040002 -6.664 -1.527 0.38
4.5050001 -6.6199999 -1.52 0.34999999
4.4840002 -6.5450001 -1.5039999 0.38
4.526 -6.5609999 -1.512 0.31999999
4.5840001 -6.6020002 -1.526 0.41
4.5749998 -6.5440001 -1.515 0.37
4.6859999 -6.6599998 -1.548 0.31
4.723 -6.6890001 -1.557 0.36000001
4.6929998 -6.6020002 -1.539 0.38
4.7140002 -6.5879998 -1.539 0.36000001
4.789 -6.6490002 -1.558 0.36000001
4.803 -6.625 -1.556 0.36000001
4.7789998 -6.5479999 -1.54 0.36000001
4.8850002 -6.6500001 -1.5700001 0.36000001
4.9120002 -6.664 -1.575 0.38999999
4.915 -6.625 -1.569 0.33000001
4.9850001 -6.6760001 -1.586 0.38
4.9959998 -6.6469998 -1.5829999 0.41
4.9650002 -6.5630002 -1.5650001 0.25
4.3730001 -5.7360001 -1.3559999 0.51999998
4.5180001 -5.8889999 -1.4 0.25
5.0170002 -6.5240002 -1.5650001 0.23999999
5.0900002 -6.5760002 -1.5829999 0.38
5.1079998 -6.5570002 -1.582 0.38999999
5.1030002 -6.5079999 -1.574 0.33000001
5.1459999 -6.52 -1.581 0.40000001
5.0960002 -6.415 -1.558 0.38
5.1279998 -6.414 -1.562 0.34999999
5.2090001 -6.4949999 -1.585 0.37
5.1739998 -6.4099998 -1.567 0.30000001
5.3119998 -6.54 -1.605 0.38
5.29 -6.4699998 -1.591 0.31
5.3730001 -6.5300002 -1.612 0.34
5.3790002 -6.4949999 -1.607 0.38
5.3959999 -6.4959998 -1.609 0.41
5.448 -6.5170002 -1.619 0.23999999
5.448 -6.4749999 -1.613 0.54000002
5.2740002 -6.2270002 -1.551 0.25
5.5100002 -6.467 -1.62 0.36000001
5.5209999 -6.4369998 -1.617 0.34
5.5289998 -6.4070001 -1.613 0.37
5.5760002 -6.441 -1.625 0.34999999
5.5760002 -6.4000001 -1.618 0.38
5.5949998 -6.381 -1.618 0.38999999
5.5840001 -6.3280001 -1.608 0.28
5.7179999 -6.4390001 -1.6440001 0.40000001
5.631 -6.3010001 -1.6109999 0.37
5.7179999 -6.3790002 -1.6339999 0.34
5.75 -6.3740001 -1.638 0.40000001
5.6989999 -6.277 -1.6160001 0.34999999
5.6620002 -6.197 -1.599 0.25
5.8390002 -6.3509998 -1.647 0.49000001
5.0339999 -5.4359999 -1.397 0.31
5.7350001 -6.1589999 -1.603 0.22
5.823 -6.2350001 -1.627 0.28999999
5.9000001 -6.2779999 -1.6440001 0.40000001
5.868 -6.204 -1.6289999 0.36000001
5.9089999 -6.2080002 -1.635 0.28999999
5.9959998 -6.2600002 -1.655 0.31999999
6.0019999 -6.2270002 -1.651 0.31
6.1259999 -6.3169999 -1.682 0.38
6.1539998 -6.3260002 -1.687 0.38
6.1090002 -6.2399998 -1.669 0.34
6.026 -6.1160002 -1.638 0.28
6.0739999 -6.1269999 -1.647 0.41
6.0949998 -6.1090002 -1.647 0.37
6.1550002 -6.131 -1.659 0.31999999
6.152 -6.0900002 -1.653 0.44999999
6.23 -6.1479998 -1.673 0.28999999
6.1849999 -6.0650001 -1.654 0.41
6.2249999 -6.066 -1.66 0.38
6.2540002 -6.0560002 -1.663 0.31
6.3530002 -6.1139998 -1.686 0.37
6.3990002 -6.1199999 -1.693 0.37
6.369 -6.052 -1.679 0.36000001
6.4419999 -6.1030002 -1.697 0.34999999
6.473 -6.0939999 -1.701 0.28999999
6.4390001 -6.0240002 -1.686 0.34
6.4619999 -6.007 -1.687 0.31999999
6.4770002 -5.9829998 -1.686 0.41999999
6.5359998 -6 -1.697 0.33000001
6.5370002 -5.9629998 -1.692 0.27000001
6.5510001 -5.9569998 -1.693 0.38999999
6.5250001 -5.8959999 -1.681 0.36000001
6.5289998 -5.862 -1.677 0.38
6.5809999 -5.8709998 -1.686 0.34
6.592 -5.8439999 -1.684 0.36000001
6.572 -5.79 -1.674 0.41999999
6.5710001 -5.77 -1.671 0.34
6.6830001 -5.8319998 -1.697 0.36000001
6.6750002 -5.7880001 -1.689 0.40000001
6.678 -5.7540002 -1.6849999 0.40000001
6.7210002 -5.7550001 -1.692 0.25999999
6.8210001 -5.8039999 -1.714 0.41
6.6929998 -5.658 -1.675 0.37
6.6950002 -5.6409998 -1.673 0.41
6.5949998 -5.5219998 -1.642 0.30000001
6.7329998 -5.6020002 -1.674 0.38
6.7880001 -5.612 -1.684 0.31
6.8779998 -5.6500001 -1.7029999 0.33000001
6.6690001 -5.4419999 -1.643 0.47999999
6.6560001 -5.3959999 -1.635 0.25
6.8779998 -5.5599999 -1.691 0.2
6.8940001 -5.5370002 -1.691 0.43000001
6.6659999 -5.3179998 -1.626 0.30000001
6.8000002 -5.3909998 -1.6569999 0.43000001
6.862 -5.4050002 -1.669 0.38999999
6.6389999 -5.1950002 -1.6059999 0.20999999
6.8969998 -5.3629999 -1.669 0.33000001
6.8309999 -5.2950001 -1.65 0.27000001
6.7490001 -5.1960001 -1.624 0.36000001
6.7709999 -5.1799998 -1.626 0.28999999
6.9250002 -5.263 -1.661 0.28999999
6.8660002 -5.1849999 -1.642 0.5
6.9169998 -5.1890001 -1.651 0.23
6.8499999 -5.1220002 -1.632 0.41
6.8390002 -5.0799999 -1.625 0.31999999
6.5029998 -4.7969999 -1.535 0.20999999
6.9910002 -5.125 -1.655 0.41999999
6.6999998 -4.8790002 -1.577 0.27000001
6.8850002 -4.9809999 -1.62 0.23999999
6.3860002 -4.5869999 -1.49 0.40000001
6.9180002 -4.9549999 -1.623 0.23999999
7.085 -5.0419998 -1.661 0.37
7.0190001 -4.9619999 -1.64 0.41
7.0300002 -4.9359999 -1.6390001 0.31
7.02 -4.8959999 -1.633 0.33000001
7.0640001 -4.8940001 -1.64 0.28999999
7.1729999 -4.9369998 -1.663 0.49000001
7.0819998 -4.8579998 -1.6390001 0.28
7.1389999 -4.8639998 -1.649 0.30000001
7.2649999 -4.9169998 -1.677 0.38999999
7.2329998 -4.862 -1.665 0.31999999
7.2649999 -4.8499999 -1.669 0.31
7.296 -4.8379998 -1.673 0.47
7.138 -4.7010002 -1.63 0.27000001
7.2579999 -4.7639999 -1.658 0.38
7.2340002 -4.7150002 -1.648 0.34999999
7.2639999 -4.7020001 -1.652 0.34
7.2589998 -4.6659999 -1.647 0.38
7.323 -4.6750002 -1.659 0.23999999
7.382 -4.6810002 -1.67 0.34
7.3569999 -4.632 -1.661 0.43000001
7.2420001 -4.5430002 -1.631 0.31
7.3470001 -4.5780001 -1.653 0.37
7.2480001 -4.4840002 -1.626 0.31
7.4219999 -4.5609999 -1.664 0.27000001
7.3699999 -4.4959998 -1.648 0.38
7.4260001 -4.4990001 -1.658 0.31999999
7.5079999 -4.533 -1.676 0.38
7.5419998 -4.5209999 -1.681 0.36000001
7.5669999 -4.5040002 -1.683 0.38
7.3569999 -4.3470001 -1.63 0.38
6.8829999 -4.0349998 -1.5140001 0.23
7.5019999 -4.3699999 -1.658 0.38999999
6.7800002 -3.9170001 -1.483 0.25999999
7.6079998 -4.3829999 -1.678 0.31999999
7.6719999 -4.3889999 -1.6900001 0.40000001
7.632 -4.3340001 -1.677 0.33000001
7.6929998 -4.3369999 -1.689 0.31
7.7010002 -4.3099999 -1.687 0.38999999
7.6789999 -4.2649999 -1.679 0.34999999
7.7680001 -4.283 -1.697 0.36000001
7.6539998 -4.204 -1.669 0.30000001
7.6560001 -4.1739998 -1.666 0.36000001
7.5599999 -4.0910001 -1.64 0.49000001
7.5560002 -4.0570002 -1.636 0.25999999
7.612 -4.0570002 -1.646 0.30000001
6.6820002 -3.5309999 -1.427 0.46000001
6.7670002 -3.563 -1.446 0.23
6.6849999 -3.4920001 -1.424 0.28999999
6.7480001 -3.4979999 -1.436 0.31999999
7.5500002 -3.8870001 -1.619 0.34
7.7519999 -3.961 -1.663 0.34999999
7.4920001 -3.7980001 -1.6 0.31999999
7.6110001 -3.829 -1.625 0.37
7.546 -3.766 -1.607 0.34999999
7.4850001 -3.721 -1.592 0.36000001
7.52 -3.7079999 -1.597 0.36000001
7.6630001 -3.75 -1.627 0.38999999
7.5869999 -3.6830001 -1.607 0.34
7.6529999 -3.6849999 -1.619 0.31999999
7.73 -3.6930001 -1.6339999 0.33000001
7.8080001 -3.7149999 -1.651 0.46000001
7.6230001 -3.5969999 -1.6059999 0.20999999
7.8099999 -3.6559999 -1.646 0.36000001
7.7820001 -3.6129999 -1.637 0.34
7.566 -3.483 -1.586 0.47999999
7.7509999 -3.54 -1.625 0.31999999
7.6230001 -3.4519999 -1.594 0.33000001
7.6609998 -3.4549999 -1.601 0.31
7.5840001 -3.391 -1.581 0.25
7.5229998 -3.335 -1.5650001 0.52999997
7.5679998 -3.3269999 -1.573 0.30000001
7.5370002 -3.2850001 -1.564 0.27000001
7.704 -3.329 -1.599 0.28
7.6469998 -3.276 -1.584 0.41999999
7.7249999 -3.2950001 -1.6 0.36000001
7.8319998 -3.312 -1.6210001 0.31
7.7810001 -3.2620001 -1.608 0.38999999
7.8379998 -3.257 -1.618 0.23999999
8.0080004 -3.299 -1.654 0.37
7.9580002 -3.2490001 -1.64 0.40000001
7.9699998 -3.224 -1.641 0.31999999
8.026 -3.233 -1.652 0.41
7.9239998 -3.1619999 -1.627 0.38
7.7789998 -3.075 -1.5930001 0.28999999
7.9159999 -3.1010001 -1.6210001 0.38999999
7.96 -3.0899999 -1.6289999 0.27000001
7.9390001 -3.053 -1.622 0.5
7.6750002 -2.937 -1.563 0.23
7.895 -2.993 -1.609 0.34999999
7.8990002 -2.9660001 -1.608 0.37
7.9759998 -2.967 -1.623 0.46000001
7.8439999 -2.8889999 -1.592 0.25999999
7.7480001 -2.826 -1.569 0.44
7.7179999 -2.7869999 -1.5599999 0.38999999
7.164 -2.573 -1.439 0.33000001
7.2199998 -2.5680001 -1.449 0.28999999
7.7529998 -2.7309999 -1.563 0.22
8.0220003 -2.799 -1.62 0.34999999
8.0430002 -2.7780001 -1.623 0.28999999
7.9910002 -2.7320001 -1.609 0.43000001
7.401 -2.5020001 -1.48 0.34
7.776 -2.6159999 -1.5599999 0.28999999
7.9660001 -2.6530001 -1.599 0.28999999
8.052 -2.654 -1.6160001 0.41999999
8.0600004 -2.6289999 -1.6160001 0.28
7.9759998 -2.573 -1.596 0.25999999
7.954 -2.539 -1.59 0.38999999
8.0459995 -2.54 -1.608 0.36000001
8.1079998 -2.546 -1.62 0.37
8.059 -2.503 -1.608 0.34
8.0950003 -2.4860001 -1.614 0.36000001
8.1029997 -2.461 -1.614 0.34
7.9510002 -2.3870001 -1.58 0.38999999
7.8439999 -2.3280001 -1.556 0.33000001
8.0100002 -2.3640001 -1.59 0.31
8.0380001 -2.3440001 -1.595 0.44999999
8.0640001 -2.325 -1.599 0.36000001
7.9640002 -2.2679999 -1.576 0.36000001
7.973 -2.244 -1.576 0.34
7.8909998 -2.194 -1.557 0.36000001
8.026 -2.2049999 -1.585 0.25999999
8.0979996 -2.211 -1.599 0.44
8.0539999 -2.1719999 -1.5880001 0.34
8.0640001 -2.1470001 -1.589 0.36000001
8.0050001 -2.1040001 -1.575 0.38999999
8.0150003 -2.0799999 -1.576 0.27000001
8.1370001 -2.085 -1.6 0.41
8.151 -2.0610001 -1.602 0.43000001
8.0139999 -2.013 -1.572 0.36000001
8.0489998 -1.995 -1.5779999 0.31999999
8.184 -2.0020001 -1.605 0.36000001
8.1350002 -1.962 -1.594 0.38999999
8.151 -1.939 -1.596 0.33000001
8.2259998 -1.9299999 -1.61 0.40000001
8.1459999 -1.8839999 -1.592 0.33000001
8.1239996 -1.865 -1.587 0.38999999
8.1549997 -1.845 -1.592 0.40000001
8.1529999 -1.818 -1.591 0.38
8.2139997 -1.8049999 -1.602 0.33000001
8.2629995 -1.789 -1.6109999 0.44999999
8.25 -1.758 -1.607 0.31
8.2989998 -1.742 -1.617 0.46000001
8.4099998 -1.752 -1.6390001 0.40000001
8.4209995 -1.726 -1.64 0.31
8.4280005 -1.7 -1.641 0.31999999
8.4289999 -1.673 -1.64 0.25999999
8.427 -1.645 -1.638 0.2
8.4490004 -1.622 -1.642 0.22
8.4580002 -1.596 -1.643 0.41
8.4630003 -1.5829999 -1.643 0.43000001
8.4729996 -1.558 -1.6440001 0.60000002
8.4530001 -1.526 -1.6390001 0.70999998
8.4390001 -1.4960001 -1.635 0.56999999
8.4490004 -1.471 -1.636 0.31
8.4650002 -1.446 -1.6390001 0.33000001
8.4540005 -1.431 -1.636 0.31999999
8.4510002 -1.403 -1.6339999 0.31999999
8.4610004 -1.377 -1.636 0.31
8.4630003 -1.35 -1.635 0.31
8.4689999 -1.324 -1.636 0.28999999
8.474 -1.2970001 -1.636 0.28999999
8.4680004 -1.2690001 -1.6339999 0.28999999
8.4820004 -1.258 -1.636 0.31999999
8.4870005 -1.2309999 -1.636 0.28
8.4779997 -1.2029999 -1.6339999 0.31999999
8.4910002 -1.178 -1.636 0.31999999
8.493 -1.151 -1.635 0.31
8.4940004 -1.124 -1.635 0.31999999
8.4960003 -1.097 -1.6339999 0.28
8.5019999 -1.084 -1.635 0.28999999
8.4969997 -1.056 -1.6339999 0.33000001
8.5059996 -1.03 -1.635 0.28999999
8.5080004 -1.003 -1.6339999 0.30000001
8.5109997 -0.977 -1.6339999 0.28999999
8.5159998 -0.94999999 -1.635 0.28999999
8.5190001 -0.92299998 -1.635 0.30000001
8.5240002 -0.91000003 -1.636 0.28999999
8.5190001 -0.88300002 -1.6339999 0.28999999
8.526 -0.85600001 -1.635 0.28
8.5240002 -0.829 -1.6339999 0.30000001
8.5209999 -0.80199999 -1.633 0.28999999
8.5200005 -0.77499998 -1.632 0.28
8.526 -0.74800003 -1.633 0.27000001
8.5249996 -0.73500001 -1.632 0.25
8.5249996 -0.708 -1.632 0.25999999
8.5179996 -0.68000001 -1.63 0.25999999
8.5279999 -0.65399998 -1.632 0.27000001
8.5380001 -0.62800002 -1.633 0.25999999
8.5360003 -0.60100001 -1.632 0.25
8.5290003 -0.58700001 -1.631 0.17
8.5270004 -0.56 -1.63 0.28
8.526 -0.53299999 -1.63 0.23
8.5319996 -0.50599998 -1.63 0.18000001
8.5349998 -0.479 -1.631 0.25999999
8.5209999 -0.45199999 -1.628 0.23
8.5270004 -0.42500001 -1.628 0.2
8.5270004 -0.412 -1.628 0.25999999
8.5279999 -0.38499999 -1.628 0.23
8.5469999 -0.359 -1.632 0.2
8.533 -0.33199999 -1.6289999 0.25
8.5240002 -0.30399999 -1.627 0.23
8.5229998 -0.27700001 -1.626 0.19
8.5349998 -0.25099999 -1.6289999 0.25999999
8.5340004 -0.23800001 -1.628 0.23
8.533 -0.211 -1.628 0.19
8.5270004 -0.184 -1.627 0.25999999
8.5360003 -0.15700001 -1.628 0.23
8.5299997 -0.13 -1.627 0.18000001
8.5349998 -0.104 -1.628 0.25999999
8.5270004 -0.077 -1.626 0.23
8.5410004 -0.063000001 -1.6289999 0.23
8.5389996 -0.035999998 -1.6289999 0.20999999
8.5249996 -0.0099999998 -1.626 0.27000001
8.2659998 0.018999999 -1.651 0.31999999
8.276 0.045000002 -1.653 0.34
8.2620001 0.057999998 -1.65 0.30000001
8.2740002 0.083999999 -1.653 0.34
8.2700005 0.11 -1.652 0.30000001
8.2749996 0.13600001 -1.653 0.31999999
8.2650003 0.162 -1.651 0.31
8.2620001 0.18799999 -1.65 0.34
8.2539997 0.214 -1.649 0.31999999
8.2609997 0.227 -1.65 0.31999999
8.2530003 0.25299999 -1.649 0.33000001
8.2539997 0.27900001 -1.649 0.33000001
8.2489996 0.30399999 -1.648 0.27000001
8.2659998 0.331 -1.652 0.36000001
8.2530003 0.35600001 -1.65 0.34
8.2480001 0.382 -1.649 0.34
8.243 0.39500001 -1.648 0.34
8.2399998 0.421 -1.648 0.33000001
8.2329998 0.44600001 -1.646 0.28
8.2390003 0.47299999 -1.648 0.36000001
8.2299995 0.498 -1.646 0.34
8.2360001 0.52399999 -1.648 0.28999999
8.2390003 0.53799999 -1.649 0.36000001
8.2320004 0.56300002 -1.648 0.34999999
8.2279997 0.58899999 -1.647 0.34
8.2220001 0.61400002 -1.646 0.28999999
8.2220001 0.63999999 -1.647 0.37
8.2299995 0.667 -1.649 0.34
8.2370005 0.69400001 -1.651 0.34
8.224 0.70599997 -1.648 0.28999999
8.2299995 0.73199999 -1.65 0.38
8.2159996 0.75700003 -1.648 0.30000001
8.2040005 0.78200001 -1.645 0.30000001
8.2049999 0.80800003 -1.646 0.34999999
8.2069998 0.83399999 -1.647 0.33000001
8.1999998 0.85900003 -1.646 0.31999999
8.2010002 0.87199998 -1.647 0.31999999
8.2110004 0.89999998 -1.65 0.31
8.1990004 0.92400002 -1.648 0.30000001
8.1940002 0.94999999 -1.647 0.31
8.1990004 0.977 -1.649 0.34
8.1879997 1.001 -1.647 0.30000001
8.1850004 1.027 -1.647 0.31
8.191 1.041 -1.649 0.33000001
8.1969995 1.068 -1.651 0.33000001
8.1859999 1.0930001 -1.649 0.30000001
8.1960001 1.12 -1.652 0.34999999
8.1619997 1.142 -1.645 0.28999999
8.1709995 1.169 -1.648 0.34
8.1739998 1.196 -1.65 0.31
8.1739998 1.209 -1.65 0.31999999
8.1680002 1.234 -1.65 0.31999999
8.1660004 1.26 -1.65 0.31
8.1479998 1.284 -1.647 0.30000001
8.1479998 1.3099999 -1.648 0.34
8.1499996 1.337 -1.649 0.31999999
8.1459999 1.349 -1.649 0.31999999
8.1300001 1.373 -1.646 0.28999999
8.1370001 1.4 -1.649 0.34
8.1169996 1.423 -1.645 0.28999999
8.1199999 1.45 -1.647 0.34
8.1269999 1.477 -1.65 0.33000001
8.1090002 1.5 -1.647 0.30000001
8.1009998 1.512 -1.645 0.30000001
8.1020002 1.539 -1.647 0.31
8.1009998 1.5650001 -1.648 0.34
8.0860004 1.5880001 -1.645 0.30000001
8.0760002 1.613 -1.6440001 0.31
8.0760002 1.6390001 -1.645 0.30000001
8.073 1.665 -1.646 0.31999999
8.0609999 1.676 -1.6440001 0.31
8.0539999 1.7 -1.643 0.33000001
8.0480003 1.726 -1.643 0.31999999
8.0450001 1.751 -1.6440001 0.31999999
8.0349998 1.776 -1.643 0.34
8.0349998 1.802 -1.6440001 0.34
8.0200005 1.825 -1.642 0.28999999
8.0249996 1.84 -1.6440001 0.36000001
8.0059996 1.862 -1.641 0.31
8.0089998 1.8890001 -1.643 0.36000001
8 1.914 -1.642 0.30000001
7.9899998 1.938 -1.641 0.38
7.9780002 1.961 -1.64 0.31
7.9619999 1.984 -1.638 0.31999999
7.9650002 1.998 -1.6390001 0.31999999
7.9770002 2.0280001 -1.643 0.37
7.954 2.049 -1.64 0.31999999
7.9419999 2.072 -1.638 0.33000001
7.9429998 2.099 -1.64 0.31999999
7.9419999 2.125 -1.641 0.38999999
7.928 2.148 -1.64 0.31
7.9219999 2.1600001 -1.6390001 0.31999999
7.9159999 2.1849999 -1.6390001 0.31999999
7.9109998 2.21 -1.64 0.34
7.8979998 2.234 -1.638 0.33000001
7.8870001 2.257 -1.637 0.31999999
7.8759999 2.2809999 -1.637 0.33000001
7.875 2.2939999 -1.637 0.36000001
7.8600001 2.3169999 -1.635 0.34
7.8709998 2.3469999 -1.64 0.31999999
7.8730001 2.3740001 -1.642 0.41
7.8509998 2.395 -1.638 0.31
7.836 2.4170001 -1.637 0.34999999
7.8280001 2.441 -1.637 0.33000001
7.822 2.4530001 -1.636 0.34999999
7.8179998 2.4790001 -1.637 0.33000001
7.8010001 2.5 -1.635 0.34999999
7.7950001 2.526 -1.635 0.36000001
7.7870002 2.55 -1.635 0.34999999
7.796 2.5799999 -1.6390001 0.36000001
7.7800002 2.602 -1.637 0.34999999
7.7610002 2.609 -1.6339999 0.33000001
7.757 2.635 -1.635 0.34
7.7579999 2.6619999 -1.637 0.34999999
7.7420001 2.684 -1.635 0.34
7.7189999 2.7030001 -1.632 0.36000001
7.7189999 2.7309999 -1.6339999 0.33000001
7.7160001 2.757 -1.635 0.34
7.723 2.773 -1.638 0.41
7.6939998 2.79 -1.633 0.31999999
7.6849999 2.8139999 -1.633 0.31
7.6760001 2.8380001 -1.633 0.34
7.671 2.8640001 -1.6339999 0.34
7.6620002 2.888 -1.6339999 0.34999999
7.6550002 2.9130001 -1.6339999 0.34
7.6589999 2.928 -1.637 0.37
7.6339998 2.9460001 -1.633 0.34999999
7.6240001 2.97 -1.633 0.36000001
7.6279998 2.9990001 -1.636 0.33000001
7.5999999 3.0150001 -1.632 0.38999999
