# .PCD v0.7 - Point Cloud Data file format
VERSION 0.7
FIELDS x y z intensity
SIZE 4 4 4 4
TYPE F F F F
COUNT 1 1 1 1
WIDTH 1374
HEIGHT 1
VIEWPOINT 0 0 0 1 0 0 0
POINTS 1374
DATA ascii
7.7849998 -1.928 -1.598 0.36000001
7.8099999 -1.908 -1.602 0.38
7.8709998 -1.897 -1.614 0.40000001
7.9369998 -1.899 -1.628 0.37
8.0249996 -1.8940001 -1.646 0.49000001
8.0880003 -1.881 -1.659 0.38
8.0799999 -1.853 -1.656 0.30000001
8.099 -1.831 -1.659 0.34999999
8.1049995 -1.8049999 -1.659 0.36000001
8.1090002 -1.779 -1.658 0.34
8.1099997 -1.766 -1.658 0.34999999
8.1210003 -1.742 -1.659 0.31999999
8.1210003 -1.715 -1.658 0.18000001
8.1339998 -1.691 -1.66 0.63999999
8.1479998 -1.668 -1.6619999 0.73000002
8.1420002 -1.64 -1.659 0.75
8.1470003 -1.614 -1.659 0.74000001
8.1569996 -1.603 -1.661 0.75
8.1569996 -1.576 -1.66 0.57999998
8.1540003 -1.549 -1.658 0.30000001
8.1800003 -1.527 -1.663 0.34999999
8.1669998 -1.498 -1.659 0.30000001
8.1780005 -1.474 -1.66 0.36000001
8.1780005 -1.447 -1.659 0.31
8.1829996 -1.4349999 -1.66 0.36000001
8.1809998 -1.408 -1.658 0.30000001
8.1929998 -1.3839999 -1.66 0.34999999
8.1820002 -1.355 -1.6569999 0.28999999
8.198 -1.332 -1.659 0.34999999
8.2019997 -1.306 -1.659 0.34
8.2019997 -1.279 -1.658 0.33000001
8.2060003 -1.267 -1.659 0.28999999
8.2080002 -1.2410001 -1.658 0.36000001
8.2030001 -1.214 -1.656 0.28
8.2139997 -1.189 -1.658 0.36000001
8.2220001 -1.164 -1.659 0.34
8.2229996 -1.138 -1.658 0.34
8.2209997 -1.1109999 -1.6569999 0.28999999
8.2209997 -1.098 -1.6569999 0.34999999
8.224 -1.072 -1.6569999 0.31999999
8.2469997 -1.048 -1.661 0.34
8.2290001 -1.02 -1.656 0.30000001
8.2510004 -0.99599999 -1.661 0.31999999
8.2639999 -0.972 -1.663 0.34999999
8.2519999 -0.95700002 -1.66 0.30000001
8.2550001 -0.93099999 -1.66 0.34
8.2559996 -0.90499997 -1.659 0.31
8.257 -0.87900001 -1.659 0.30000001
8.2639999 -0.85299999 -1.66 0.33000001
8.2679996 -0.82800001 -1.66 0.31999999
8.2709999 -0.80199999 -1.66 0.31
8.2690001 -0.77499998 -1.659 0.27000001
8.2860003 -0.764 -1.663 0.34
8.2849998 -0.73699999 -1.6619999 0.31
8.2729998 -0.70999998 -1.659 0.30000001
8.2749996 -0.68400002 -1.659 0.30000001
8.2889996 -0.65899998 -1.661 0.34
8.283 -0.63200003 -1.66 0.28
8.2810001 -0.60600001 -1.659 0.30000001
8.2840004 -0.59299999 -1.659 0.31
8.3000002 -0.56800002 -1.6619999 0.34
8.3000002 -0.542 -1.6619999 0.30000001
8.2880001 -0.51499999 -1.659 0.28999999
8.2950001 -0.48899999 -1.66 0.34
8.2980003 -0.463 -1.661 0.30000001
8.2980003 -0.43700001 -1.66 0.30000001
8.2869997 -0.42399999 -1.658 0.28999999
8.2919998 -0.398 -1.658 0.31
8.3070002 -0.37200001 -1.661 0.34
8.3039999 -0.34599999 -1.661 0.31999999
8.3050003 -0.31999999 -1.661 0.31999999
8.302 -0.294 -1.66 0.31999999
8.2889996 -0.28 -1.6569999 0.30000001
8.3039999 -0.255 -1.66 0.33000001
8.302 -0.228 -1.659 0.33000001
8.2969999 -0.20200001 -1.658 0.25
8.3149996 -0.176 -1.6619999 0.38
8.3000002 -0.15000001 -1.658 0.28999999
8.309 -0.124 -1.66 0.34999999
8.2969999 -0.097999997 -1.658 0.30000001
8.2969999 -0.085000001 -1.658 0.31999999
8.3009996 -0.059 -1.658 0.30000001
8.2959995 -0.033 -1.6569999 0.34
8.2919998 -0.0070000002 -1.656 0.31
7.987 0.011 -1.656 0.34
7.9899998 0.035999998 -1.6569999 0.30000001
7.9860001 0.061000001 -1.656 0.28999999
8 0.086000003 -1.659 0.34
7.9840002 0.111 -1.656 0.31
7.9819999 0.13600001 -1.656 0.28999999
7.9889998 0.149 -1.6569999 0.33000001
7.987 0.17399999 -1.6569999 0.30000001
7.9980001 0.199 -1.659 0.34
7.9850001 0.22400001 -1.6569999 0.31999999
7.987 0.249 -1.6569999 0.31
7.98 0.27399999 -1.656 0.31999999
7.9689999 0.29899999 -1.654 0.28
7.9840002 0.31200001 -1.6569999 0.34
7.9809999 0.33700001 -1.6569999 0.31999999
7.9759998 0.36199999 -1.656 0.31999999
7.9850001 0.38699999 -1.658 0.31999999
7.9819999 0.412 -1.658 0.33000001
7.9790001 0.43700001 -1.6569999 0.33000001
7.9829998 0.463 -1.659 0.31999999
7.9860001 0.47499999 -1.659 0.31
7.973 0.5 -1.6569999 0.31999999
7.9629998 0.52399999 -1.655 0.30000001
7.973 0.55000001 -1.658 0.31999999
7.9699998 0.57499999 -1.6569999 0.30000001
7.974 0.60000002 -1.659 0.28999999
7.9720001 0.625 -1.659 0.31
7.9569998 0.63700002 -1.656 0.31
7.9549999 0.662 -1.656 0.28999999
7.9629998 0.68800002 -1.658 0.31
7.9590001 0.713 -1.6569999 0.31999999
7.9559999 0.73799998 -1.6569999 0.28999999
7.96 0.76300001 -1.659 0.28999999
7.9499998 0.787 -1.6569999 0.31
7.954 0.80000001 -1.658 0.31
7.9499998 0.82499999 -1.658 0.30000001
7.9590001 0.85100001 -1.66 0.30000001
7.9520001 0.87599999 -1.659 0.28999999
7.9400001 0.89999998 -1.6569999 0.28999999
7.9369998 0.92500001 -1.6569999 0.31
7.9400001 0.94999999 -1.659 0.30000001
7.934 0.96200001 -1.658 0.28
7.927 0.98699999 -1.6569999 0.30000001
7.9159999 1.011 -1.655 0.30000001
7.927 1.0369999 -1.658 0.31999999
7.9120002 1.061 -1.656 0.28
7.9200001 1.087 -1.658 0.31999999
7.921 1.113 -1.659 0.30000001
7.9029999 1.123 -1.656 0.28
7.8959999 1.147 -1.655 0.28999999
7.8979998 1.173 -1.656 0.28999999
7.908 1.2 -1.659 0.31
7.8870001 1.222 -1.655 0.27000001
7.8870001 1.247 -1.656 0.28999999
7.881 1.272 -1.656 0.28999999
7.8829999 1.285 -1.656 0.31999999
7.8629999 1.307 -1.653 0.28999999
7.8720002 1.334 -1.656 0.31999999
7.8759999 1.36 -1.658 0.30000001
7.8540001 1.382 -1.654 0.28
7.848 1.406 -1.653 0.30000001
7.8590002 1.433 -1.6569999 0.31999999
7.849 1.444 -1.655 0.31999999
7.829 1.466 -1.652 0.27000001
7.842 1.494 -1.656 0.33000001
7.8270001 1.517 -1.653 0.31999999
7.8150001 1.54 -1.652 0.31
7.8200002 1.566 -1.654 0.30000001
7.8150001 1.591 -1.654 0.31999999
7.8179998 1.604 -1.655 0.33000001
7.7919998 1.625 -1.65 0.28999999
7.8039999 1.653 -1.654 0.33000001
7.7870002 1.675 -1.652 0.28999999
7.776 1.698 -1.65 0.30000001
7.7729998 1.723 -1.651 0.31
7.7729998 1.748 -1.652 0.33000001
7.7529998 1.757 -1.648 0.23
7.7779999 1.788 -1.655 0.19
7.7649999 1.811 -1.653 0.50999999
7.7680001 1.837 -1.656 0.55000001
7.763 1.862 -1.656 0.51999998
7.7589998 1.887 -1.656 0.57999998
7.8000002 1.9220001 -1.6670001 0.66000003
7.7340002 1.919 -1.652 0.31
7.717 1.941 -1.65 0.31
7.7150002 1.966 -1.651 0.30000001
7.7140002 1.992 -1.652 0.30000001
7.7119999 2.017 -1.653 0.34
7.7010002 2.04 -1.652 0.28999999
7.6929998 2.0639999 -1.652 0.31999999
7.6900001 2.076 -1.652 0.31999999
7.6950002 2.1029999 -1.654 0.36000001
7.6880002 2.1270001 -1.654 0.31999999
7.6700001 2.148 -1.652 0.30000001
7.6630001 2.1719999 -1.652 0.31999999
7.658 2.197 -1.652 0.31999999
7.6589999 2.223 -1.654 0.34999999
7.651 2.234 -1.653 0.28999999
7.6500001 2.26 -1.654 0.33000001
7.6409998 2.283 -1.654 0.30000001
7.6339998 2.3069999 -1.654 0.31999999
7.6300001 2.332 -1.655 0.31
7.6339998 2.3599999 -1.6569999 0.28999999
7.625 2.3829999 -1.6569999 0.28999999
7.6300001 2.398 -1.659 0.31
7.6040001 2.4159999 -1.655 0.31
7.6059999 2.4430001 -1.6569999 0.28999999
7.6129999 2.4719999 -1.66 0.28999999
7.5939999 2.4920001 -1.658 0.34
7.5819998 2.5139999 -1.6569999 0.28
7.5780001 2.54 -1.658 0.30000001
7.5780001 2.553 -1.659 0.31999999
7.5830002 2.5810001 -1.6619999 0.31
7.5689998 2.6029999 -1.66 0.28
7.552 2.6229999 -1.658 0.30000001
7.5489998 2.6489999 -1.659 0.31
7.5479999 2.675 -1.661 0.31
7.5359998 2.698 -1.66 0.31
7.5349998 2.711 -1.661 0.30000001
7.5359998 2.7379999 -1.663 0.30000001
7.5089998 2.7550001 -1.659 0.30000001
7.5019999 2.779 -1.659 0.28999999
7.5100002 2.809 -1.663 0.28999999
7.4970002 2.8310001 -1.663 0.28999999
7.4699998 2.8469999 -1.658 0.27000001
7.48 2.865 -1.6619999 0.28999999
7.447 2.8789999 -1.656 0.30000001
7.447 2.9059999 -1.658 0.28999999
7.4460001 2.9319999 -1.66 0.31
7.4359999 2.9560001 -1.66 0.30000001
7.4310002 2.98 -1.661 0.30000001
7.4190001 3.003 -1.66 0.30000001
7.3969998 3.007 -1.656 0.28
7.4029999 3.0369999 -1.66 0.34
7.381 3.0550001 -1.6569999 0.27000001
7.375 3.0799999 -1.658 0.34
7.3759999 3.108 -1.66 0.28999999
7.375 3.135 -1.663 0.38
7.3390002 3.1459999 -1.656 0.25
7.335 3.1589999 -1.656 0.34
7.3429999 3.1889999 -1.661 0.33000001
7.3319998 3.2119999 -1.66 0.31
7.323 3.2349999 -1.661 0.30000001
7.309 3.257 -1.66 0.31
7.303 3.2809999 -1.661 0.31
7.2849998 3.3010001 -1.659 0.28999999
7.2930002 3.3180001 -1.6619999 0.34999999
7.2639999 3.3329999 -1.658 0.30000001
7.2519999 3.355 -1.6569999 0.30000001
7.2449999 3.3789999 -1.658 0.30000001
7.2399998 3.405 -1.659 0.33000001
7.2220001 3.424 -1.658 0.30000001
7.2129998 3.447 -1.658 0.31
7.204 3.457 -1.6569999 0.31
7.1999998 3.483 -1.659 0.33000001
7.1869998 3.5050001 -1.659 0.30000001
7.1830001 3.5309999 -1.66 0.34999999
7.165 3.55 -1.659 0.28999999
7.1560001 3.573 -1.659 0.30000001
7.1459999 3.5969999 -1.659 0.34999999
7.132 3.6040001 -1.6569999 0.30000001
7.1240001 3.628 -1.658 0.30000001
7.1259999 3.6570001 -1.6619999 0.34999999
7.1110001 3.678 -1.661 0.31999999
7.0960002 3.698 -1.66 0.28
7.0900002 3.723 -1.661 0.33000001
7.0749998 3.744 -1.66 0.31999999
7.0650001 3.753 -1.659 0.30000001
7.0549998 3.776 -1.66 0.30000001
7.0500002 3.802 -1.6619999 0.30000001
7.0370002 3.823 -1.661 0.30000001
7.0190001 3.842 -1.66 0.31999999
7.0159998 3.869 -1.6619999 0.28999999
7.0120001 3.8959999 -1.664 0.31999999
6.9959998 3.901 -1.6619999 0.27000001
6.987 3.925 -1.663 0.30000001
6.9749999 3.947 -1.663 0.31
6.9590001 3.967 -1.6619999 0.28999999
6.9549999 3.994 -1.664 0.31
6.9349999 4.0120001 -1.6619999 0.28999999
6.9310002 4.0380001 -1.664 0.31
6.9180002 4.0450001 -1.663 0.28
6.9050002 4.0669999 -1.663 0.28999999
6.8979998 4.0910001 -1.664 0.34
6.881 4.1110001 -1.663 0.28
6.8769999 4.138 -1.665 0.31999999
6.8699999 4.1630001 -1.6670001 0.30000001
6.849 4.1799998 -1.665 0.28
6.8410001 4.1900001 -1.664 0.28999999
6.8239999 4.2090001 -1.663 0.28999999
6.8179998 4.2350001 -1.665 0.31
6.8140001 4.2620001 -1.668 0.30000001
6.7969999 4.2810001 -1.6670001 0.28999999
6.7810001 4.3010001 -1.666 0.28
6.7649999 4.3210001 -1.666 0.27000001
6.7600002 4.3330002 -1.666 0.28999999
6.75 4.3559999 -1.6670001 0.31999999
6.7379999 4.3779998 -1.6670001 0.31
6.711 4.3909998 -1.664 0.28
6.6989999 4.4130001 -1.664 0.28999999
6.691 4.4380002 -1.666 0.28999999
6.6760001 4.4580002 -1.666 0.30000001
6.677 4.474 -1.668 0.31999999
6.6529999 4.4889998 -1.665 0.25
6.6420002 4.5120001 -1.666 0.28999999
6.6259999 4.5310001 -1.666 0.28999999
6.6199999 4.5580001 -1.668 0.31999999
6.6059999 4.5780001 -1.668 0.30000001
6.5869999 4.5809999 -1.665 0.28
6.5809999 4.6069999 -1.6670001 0.30000001
6.5630002 4.6259999 -1.666 0.31999999
6.5489998 4.6459999 -1.666 0.30000001
6.54 4.671 -1.668 0.31999999
6.526 4.6919999 -1.668 0.30000001
6.5110002 4.7119999 -1.668 0.30000001
6.4910002 4.7290001 -1.666 0.28999999
6.473 4.7309999 -1.663 0.28
6.4580002 4.7519999 -1.663 0.30000001
6.4569998 4.7820001 -1.6670001 0.34
6.4450002 4.8049998 -1.668 0.31999999
6.4299998 4.8249998 -1.668 0.31999999
6.4060001 4.8379998 -1.666 0.30000001
6.3930001 4.8610001 -1.666 0.34
6.3829999 4.869 -1.666 0.28999999
6.3779998 4.8969998 -1.669 0.30000001
6.3610001 4.9159999 -1.668 0.31999999
6.3410001 4.9320002 -1.6670001 0.30000001
6.3439999 4.9660001 -1.6720001 0.34
6.302 4.9660001 -1.665 0.25
6.302 4.9980001 -1.669 0.38
6.3000002 5.0120001 -1.671 0.28999999
6.2740002 5.0240002 -1.668 0.31999999
6.2600002 5.0450001 -1.668 0.31999999
6.2470002 5.0669999 -1.669 0.31999999
6.2259998 5.0830002 -1.668 0.31
6.2030001 5.0960002 -1.666 0.33000001
6.1999998 5.1269999 -1.669 0.31
6.1830001 5.1290002 -1.6670001 0.31999999
6.171 5.152 -1.668 0.31999999
6.158 5.1739998 -1.669 0.31999999
6.1360002 5.1880002 -1.6670001 0.28
6.1209998 5.2090001 -1.668 0.34999999
6.118 5.2389998 -1.6720001 0.28999999
6.099 5.256 -1.671 0.2
6.1009998 5.2740002 -1.674 0.34
6.0900002 5.2989998 -1.676 0.63
6.059 5.3049998 -1.671 0.66000003
6.0430002 5.3249998 -1.6720001 0.60000002
6.0370002 5.3530002 -1.675 0.68000001
6.0079999 5.362 -1.671 0.64999998
5.9840002 5.3740001 -1.669 0.57999998
5.973 5.381 -1.668 0.62
5.941 5.3870001 -1.664 0.30000001
5.9380002 5.4169998 -1.668 0.31999999
5.9320002 5.4460001 -1.671 0.41
5.9029999 5.454 -1.668 0.20999999
5.8699999 5.4580002 -1.663 0.46000001
5.8979998 5.5180001 -1.676 0.25
5.8759999 5.5149999 -1.673 0.61000001
5.835 5.5110002 -1.665 0.43000001
5.8340001 5.5450001 -1.67 0.31
5.8080001 5.5549998 -1.668 0.34999999
5.7800002 5.5630002 -1.664 0.37
5.7550001 5.5739999 -1.6619999 0.44999999
5.7090001 5.5650001 -1.653 0.38
5.691 5.5650001 -1.65 0.38
5.6570001 5.566 -1.645 0.38
5.6199999 5.5650001 -1.6390001 0.38999999
5.585 5.566 -1.6339999 0.38
5.5609999 5.5760002 -1.632 0.38
5.526 5.5760002 -1.626 0.31999999
5.493 5.5780001 -1.6210001 0.44
5.48 5.5819998 -1.62 0.41999999
5.4380002 5.5739999 -1.612 0.38999999
5.4239998 5.5960002 -1.613 0.37
5.4039998 5.6100001 -1.612 0.41999999
5.3730001 5.6129999 -1.608 0.36000001
5.3569999 5.631 -1.609 0.41999999
5.3319998 5.6409998 -1.6059999 0.36000001
5.316 5.6420002 -1.604 0.41999999
5.303 5.6630001 -1.6059999 0.36000001
5.2740002 5.6680002 -1.602 0.38
5.2659998 5.6950002 -1.605 0.37
5.2389998 5.7010002 -1.602 0.38
5.217 5.7129998 -1.601 0.43000001
5.1989999 5.73 -1.601 0.38999999
5.1880002 5.737 -1.6 0.38999999
5.1690001 5.7509999 -1.6 0.38
5.1479998 5.7649999 -1.599 0.38
5.1279998 5.7779999 -1.598 0.38
5.1030002 5.7870002 -1.596 0.38
5.0910001 5.8099999 -1.598 0.38
5.073 5.8260002 -1.598 0.38
5.0510001 5.8369999 -1.597 0.40000001
5.0359998 5.8390002 -1.595 0.38
5.0219998 5.8600001 -1.596 0.43000001
4.9949999 5.8649998 -1.5930001 0.30000001
4.9819999 5.888 -1.596 0.38999999
4.9679999 5.908 -1.597 0.38
4.9400001 5.9130001 -1.594 0.38999999
4.9250002 5.9330001 -1.595 0.38999999
4.9099998 5.934 -1.5930001 0.38999999
4.8870001 5.9439998 -1.592 0.38999999
4.8720002 5.9640002 -1.5930001 0.38999999
4.8569999 5.9840002 -1.594 0.38
4.8309999 5.9899998 -1.592 0.38999999
4.8200002 6.0149999 -1.594 0.38999999
4.803 6.013 -1.592 0.36000001
4.7859998 6.0310001 -1.592 0.38
4.763 6.04 -1.591 0.38999999
4.7459998 6.0580001 -1.592 0.38
4.7259998 6.0710001 -1.591 0.38999999
4.71 6.0910001 -1.592 0.37
4.6900001 6.1040001 -1.592 0.37
4.6799998 6.1110001 -1.592 0.36000001
4.6669998 6.1339998 -1.594 0.36000001
4.645 6.145 -1.5930001 0.37
4.6269999 6.1609998 -1.594 0.38
4.6069999 6.1739998 -1.5930001 0.37
4.5799999 6.1789999 -1.591 0.36000001
4.5609999 6.1939998 -1.591 0.36000001
4.5469999 6.2160001 -1.5930001 0.37
4.5409999 6.2280002 -1.594 0.36000001
4.5190001 6.2389998 -1.5930001 0.36000001
4.4970002 6.25 -1.592 0.34999999
4.4790001 6.2659998 -1.5930001 0.36000001
4.4590001 6.2800002 -1.5930001 0.36000001
4.4439998 6.3000002 -1.595 0.38
4.4229999 6.3119998 -1.594 0.37
4.4099998 6.316 -1.5930001 0.37
4.3860002 6.323 -1.592 0.38999999
4.362 6.3309999 -1.59 0.34
4.3369999 6.3379998 -1.5880001 0.38
4.3119998 6.3439999 -1.586 0.40000001
4.283 6.3439999 -1.582 0.38999999
4.263 6.3579998 -1.582 0.40000001
4.2480001 6.3559999 -1.58 0.31999999
4.2309999 6.3740001 -1.582 0.31999999
4.2119999 6.3889999 -1.582 0.33000001
4.1929998 6.4039998 -1.582 0.36000001
4.1820002 6.4299998 -1.586 0.28999999
4.1729999 6.461 -1.591 0.30000001
4.1539998 6.4759998 -1.591 0.38999999
4.145 6.4840002 -1.592 0.34
4.1230001 6.4959998 -1.591 0.38999999
4.105 6.5120001 -1.592 0.34999999
4.085 6.526 -1.592 0.36000001
4.0609999 6.533 -1.591 0.36000001
4.04 6.5450001 -1.591 0.36000001
4.0180001 6.5549998 -1.59 0.41
4.013 6.5710001 -1.592 0.23
3.98 6.5619998 -1.587 0.47999999
3.9679999 6.5890002 -1.591 0.36000001
3.944 6.5970001 -1.589 0.37
3.928 6.6160002 -1.591 0.41
3.904 6.6230001 -1.59 0.34
3.885 6.6389999 -1.591 0.38999999
3.8640001 6.651 -1.591 0.38
3.8540001 6.6570001 -1.591 0.34
3.8340001 6.671 -1.591 0.38999999
3.8099999 6.678 -1.59 0.38
3.7880001 6.6880002 -1.589 0.34
3.767 6.6999998 -1.589 0.38999999
3.7509999 6.7199998 -1.592 0.33000001
3.7249999 6.723 -1.589 0.36000001
3.7149999 6.7309999 -1.59 0.38999999
3.691 6.737 -1.589 0.34
3.6730001 6.7540002 -1.59 0.34999999
3.6500001 6.7639999 -1.589 0.34999999
3.6300001 6.777 -1.59 0.38999999
3.609 6.7880001 -1.59 0.34999999
3.5880001 6.8010001 -1.59 0.36000001
3.573 6.7979999 -1.5880001 0.38
3.5539999 6.8150001 -1.589 0.38
3.5339999 6.8280001 -1.59 0.38999999
3.5120001 6.8390002 -1.59 0.37
3.4949999 6.8569999 -1.592 0.38999999
3.4719999 6.8660002 -1.591 0.33000001
3.448 6.8709998 -1.59 0.38999999
3.4389999 6.8800001 -1.591 0.34999999
3.4189999 6.895 -1.592 0.38999999
3.3959999 6.902 -1.591 0.34999999
3.372 6.9089999 -1.59 0.38999999
3.3559999 6.9299998 -1.592 0.34
3.3299999 6.9320002 -1.59 0.36000001
3.0840001 6.4759998 -1.475 0.28
3.0510001 6.4330001 -1.4630001 0.5
3.0409999 6.4660001 -1.469 0.25999999
3.0439999 6.5250001 -1.4809999 0.5
3.075 6.6440001 -1.508 0.34
3.2149999 7.0009999 -1.5930001 0.34
3.1900001 7.0040002 -1.592 0.38999999
3.1700001 7.0190001 -1.5930001 0.38
3.1589999 7.0240002 -1.5930001 0.37
3.135 7.0279999 -1.592 0.34
3.1159999 7.0450001 -1.5930001 0.34999999
3.0940001 7.0549998 -1.5930001 0.36000001
3.069 7.059 -1.592 0.38999999
3.0510001 7.0780001 -1.594 0.38
3.03 7.0910001 -1.595 0.38
3.016 7.0890002 -1.5930001 0.36000001
3 7.1139998 -1.597 0.34
2.971 7.1069999 -1.5930001 0.34999999
2.948 7.1149998 -1.5930001 0.34999999
2.9360001 7.1490002 -1.599 0.37
2.905 7.1370001 -1.594 0.38
2.8859999 7.1550002 -1.596 0.38
2.878 7.1690001 -1.598 0.37
2.8510001 7.165 -1.595 0.37
2.829 7.1760001 -1.596 0.36000001
2.809 7.1919999 -1.597 0.34
2.7850001 7.197 -1.596 0.38
2.7609999 7.2020001 -1.596 0.36000001
2.744 7.223 -1.599 0.34
2.7149999 7.217 -1.595 0.34
2.7030001 7.2199998 -1.595 0.33000001
2.687 7.2470002 -1.599 0.38
2.661 7.2459998 -1.597 0.31999999
2.6370001 7.2509999 -1.596 0.31999999
2.6210001 7.277 -1.6 0.38
2.5899999 7.263 -1.595 0.30000001
2.5680001 7.2729998 -1.596 0.31999999
2.5569999 7.277 -1.596 0.33000001
2.533 7.283 -1.595 0.34
2.5079999 7.2859998 -1.594 0.34
2.487 7.2989998 -1.595 0.34
2.4630001 7.303 -1.594 0.36000001
2.4389999 7.3070002 -1.5930001 0.34999999
2.4189999 7.3239999 -1.596 0.31999999
2.404 7.3169999 -1.5930001 0.34
2.3829999 7.3299999 -1.594 0.34999999
2.3640001 7.3499999 -1.597 0.37
2.336 7.3429999 -1.594 0.38
2.312 7.348 -1.5930001 0.38999999
2.293 7.369 -1.596 0.34
2.2650001 7.3590002 -1.592 0.33000001
2.253 7.3629999 -1.592 0.31999999
2.233 7.3790002 -1.595 0.31999999
2.2060001 7.375 -1.592 0.33000001
2.1830001 7.3800001 -1.592 0.34
2.1630001 7.3979998 -1.594 0.34
2.1359999 7.3930001 -1.592 0.33000001
2.1159999 7.4109998 -1.594 0.31999999
2.1040001 7.4130001 -1.594 0.23999999
1.795 6.4130001 -1.3609999 0.30000001
1.77 6.4029999 -1.357 0.51999998
1.763 6.4559999 -1.368 0.25
1.757 6.5120001 -1.38 0.51999998
1.9859999 7.441 -1.5930001 0.38
1.9630001 7.447 -1.5930001 0.30000001
1.942 7.4629998 -1.595 0.34999999
1.927 7.4530001 -1.592 0.34
1.905 7.4660001 -1.594 0.31
1.883 7.4780002 -1.595 0.33000001
1.86 7.4840002 -1.595 0.31999999
1.832 7.4710002 -1.591 0.28999999
1.472 6.1069999 -1.277 0.25
1.45 6.1009998 -1.274 0.28
1.4400001 6.099 -1.273 0.28
1.418 6.0939999 -1.271 0.31999999
1.399 6.099 -1.271 0.33000001
1.377 6.0910001 -1.268 0.34
1.3559999 6.086 -1.266 0.36000001
1.337 6.092 -1.267 0.34
1.318 6.0949998 -1.266 0.41999999
1.308 6.0949998 -1.266 0.36000001
1.288 6.0970001 -1.265 0.43000001
1.268 6.0949998 -1.2640001 0.36000001
1.2460001 6.086 -1.261 0.38
1.228 6.0939999 -1.262 0.37
1.205 6.0819998 -1.258 0.38
1.189 6.099 -1.261 0.38
1.1799999 6.1030002 -1.262 0.38
1.1569999 6.0890002 -1.258 0.38999999
1.137 6.0890002 -1.257 0.38
1.117 6.0869999 -1.256 0.38
1.098 6.092 -1.256 0.38
1.0779999 6.0900002 -1.255 0.38999999
1.058 6.0900002 -1.2539999 0.38
1.041 6.1009998 -1.256 0.38
1.03 6.0949998 -1.2539999 0.38999999
1.0089999 6.086 -1.251 0.38999999
0.98900002 6.0869999 -1.251 0.38999999
0.97100002 6.0960002 -1.252 0.41
0.94999999 6.0900002 -1.25 0.41
0.93000001 6.085 -1.248 0.41
0.91000003 6.086 -1.248 0.41
0.90100002 6.0869999 -1.248 0.41999999
0.88 6.0799999 -1.2460001 0.41
0.861 6.085 -1.2460001 0.41
0.84299999 6.092 -1.247 0.38999999
0.82300001 6.0879998 -1.2460001 0.40000001
0.80299997 6.0830002 -1.244 0.31999999
0.78200001 6.0760002 -1.242 0.41999999
0.77499998 6.0910001 -1.245 0.34
0.75300002 6.0780001 -1.2410001 0.47999999
0.73500001 6.086 -1.243 0.31
0.71499997 6.0819998 -1.2410001 0.5
0.69599998 6.0809999 -1.2410001 0.31999999
0.67699999 6.085 -1.2410001 0.43000001
0.65799999 6.0910001 -1.242 0.34999999
0.64700001 6.0819998 -1.24 0.5
0.62900001 6.086 -1.24 0.31999999
0.60900003 6.086 -1.24 0.41999999
0.58999997 6.086 -1.239 0.41
0.57099998 6.0900002 -1.24 0.33000001
0.551 6.0799999 -1.237 0.41999999
0.53299999 6.0910001 -1.239 0.31999999
0.52200001 6.0819998 -1.237 0.44
0.50300002 6.0799999 -1.2359999 0.41999999
0.48300001 6.0780001 -1.235 0.34
0.46399999 6.079 -1.235 0.43000001
0.44499999 6.0830002 -1.2359999 0.41
0.426 6.0840001 -1.2359999 0.41
0.40700001 6.079 -1.234 0.41
0.38699999 6.0809999 -1.234 0.38999999
0.377 6.0739999 -1.233 0.40000001
0.35800001 6.073 -1.232 0.38
0.33899999 6.0780001 -1.233 0.40000001
0.31999999 6.079 -1.233 0.40000001
0.301 6.086 -1.234 0.38999999
0.28200001 6.079 -1.233 0.38
0.27200001 6.073 -1.2309999 0.41
0.25299999 6.0819998 -1.233 0.34
0.234 6.0770001 -1.232 0.43000001
0.215 6.0739999 -1.2309999 0.38
0.19599999 6.072 -1.2309999 0.40000001
0.177 6.085 -1.233 0.38
0.15800001 6.0770001 -1.2309999 0.38999999
0.138 6.0760002 -1.2309999 0.40000001
0.12899999 6.0700002 -1.23 0.38999999
0.11 6.0780001 -1.2309999 0.38
0.090999998 6.079 -1.2309999 0.38999999
0.071999997 6.0809999 -1.232 0.40000001
0.052000001 6.073 -1.23 0.40000001
0.033 6.0679998 -1.229 0.38999999
0.014 6.0679998 -1.229 0.44
0.0049999999 6.0809999 -1.232 0.30000001
-0.014 6.0770001 -1.2309999 0.43000001
-0.033 6.0679998 -1.229 0.38
-0.052999999 6.0830002 -1.232 0.33000001
-0.071999997 6.0710001 -1.23 0.47999999
-0.090999998 6.0710001 -1.23 0.31999999
-0.11 6.0710001 -1.23 0.44999999
-0.119 6.0679998 -1.229 0.38
-0.138 6.0739999 -1.2309999 0.37
-0.15700001 6.0679998 -1.229 0.38999999
-0.176 6.0710001 -1.23 0.38
-0.19599999 6.0739999 -1.2309999 0.41
-0.215 6.0679998 -1.23 0.38
-0.234 6.0710001 -1.2309999 0.41
-0.243 6.0689998 -1.23 0.38999999
-0.26199999 6.0599999 -1.228 0.41
-0.28200001 6.0770001 -1.232 0.38
-0.30000001 6.0640001 -1.23 0.38999999
-0.31999999 6.073 -1.232 0.38999999
-0.33899999 6.0760002 -1.233 0.40000001
-0.35800001 6.079 -1.234 0.38999999
-0.377 6.0679998 -1.2309999 0.41
-0.38699999 6.073 -1.233 0.40000001
-0.40599999 6.0679998 -1.232 0.40000001
-0.426 6.0799999 -1.235 0.38
-0.44400001 6.0749998 -1.234 0.33000001
-0.463 6.0700002 -1.233 0.43000001
-0.48199999 6.066 -1.233 0.41
-0.50199997 6.0700002 -1.234 0.40000001
-0.51099998 6.0679998 -1.234 0.41
-0.53100002 6.0780001 -1.2359999 0.34
-0.55000001 6.0760002 -1.2359999 0.43000001
-0.56900001 6.0739999 -1.2359999 0.41
-0.588 6.0669999 -1.235 0.41
-0.60699999 6.0689998 -1.2359999 0.41
-0.62599999 6.0669999 -1.2359999 0.41
-0.63700002 6.0770001 -1.238 0.33000001
-0.65499997 6.066 -1.2359999 0.46000001
-0.67500001 6.0749998 -1.239 0.28999999
-0.69400001 6.0669999 -1.238 0.43000001
-0.71399999 6.079 -1.2410001 0.36000001
-0.73199999 6.0609999 -1.237 0.43000001
-0.75300002 6.0760002 -1.2410001 0.34999999
-0.76200002 6.073 -1.2410001 0.43000001
-0.78399998 6.0900002 -1.245 0.33000001
-0.80000001 6.0640001 -1.24 0.43000001
-0.81999999 6.0710001 -1.242 0.41
-0.84200001 6.0900002 -1.247 0.33000001
-0.85799998 6.0679998 -1.242 0.49000001
-0.87599999 6.0549998 -1.24 0.38
-0.889 6.0770001 -1.245 0.36000001
-0.90799999 6.0700002 -1.244 0.41
-0.92799997 6.079 -1.247 0.36000001
-0.94800001 6.0780001 -1.248 0.47999999
-0.96600002 6.0689998 -1.2460001 0.31
-0.98500001 6.066 -1.2460001 0.46000001
-1.008 6.0900002 -1.252 0.31
-1.024 6.0640001 -1.247 0.46000001
-1.035 6.0760002 -1.25 0.31
-1.057 6.086 -1.253 0.41999999
-1.076 6.0809999 -1.253 0.33000001
-1.092 6.0640001 -1.25 0.47
-1.1160001 6.0869999 -1.256 0.31
-1.132 6.0679998 -1.252 0.41999999
-1.152 6.0669999 -1.253 0.38999999
-1.164 6.0799999 -1.256 0.40000001
-1.182 6.0669999 -1.2539999 0.38999999
-1.2029999 6.0749998 -1.257 0.41
-1.224 6.0799999 -1.2589999 0.38999999
-1.2410001 6.0650001 -1.256 0.41999999
-1.262 6.0710001 -1.258 0.34
-1.283 6.0799999 -1.261 0.43000001
-1.29 6.0650001 -1.258 0.38999999
-1.312 6.072 -1.261 0.40000001
-1.334 6.0809999 -1.2640001 0.40000001
-1.35 6.0640001 -1.261 0.38999999
-1.37 6.0630002 -1.262 0.38999999
-1.393 6.0760002 -1.266 0.38
-1.409 6.0619998 -1.2640001 0.38999999
-1.421 6.0689998 -1.266 0.41
-1.443 6.0760002 -1.268 0.38999999
-1.461 6.0679998 -1.268 0.40000001
-1.482 6.0689998 -1.2690001 0.38999999
-1.502 6.072 -1.271 0.38
-1.521 6.0650001 -1.27 0.38999999
-1.543 6.0739999 -1.273 0.38
-1.5650001 6.0799999 -1.276 0.41
-1.572 6.0679998 -1.274 0.41
-1.594 6.073 -1.276 0.38999999
-1.615 6.0749998 -1.278 0.41
-1.636 6.0760002 -1.279 0.41
-1.656 6.0739999 -1.28 0.38999999
-1.678 6.0809999 -1.2819999 0.40000001
-1.684 6.0669999 -1.28 0.38999999
-1.706 6.073 -1.2819999 0.38999999
-1.728 6.0770001 -1.284 0.41
-1.747 6.0710001 -1.284 0.41
-1.771 6.0819998 -1.288 0.34
-1.791 6.0809999 -1.289 0.43000001
-1.809 6.0689998 -1.288 0.41
-1.83 6.0710001 -1.29 0.41
-1.84 6.0700002 -1.29 0.41
-1.862 6.0739999 -1.2920001 0.41999999
-1.8839999 6.0770001 -1.294 0.38999999
-1.902 6.0669999 -1.294 0.38999999
-1.9220001 6.0650001 -1.294 0.41
-1.946 6.0739999 -1.298 0.38999999
-1.966 6.072 -1.299 0.40000001
-1.977 6.0739999 -1.3 0.38999999
-1.998 6.073 -1.301 0.40000001
-2.0190001 6.073 -1.303 0.38999999
-2.039 6.0679998 -1.303 0.38999999
-2.062 6.073 -1.306 0.37
-2.0810001 6.0679998 -1.306 0.41
-2.1040001 6.0710001 -1.308 0.31999999
-2.1140001 6.0689998 -1.309 0.41
-2.135 6.0700002 -1.311 0.38999999
-2.1559999 6.0669999 -1.311 0.38999999
-2.177 6.0669999 -1.313 0.34999999
-2.1989999 6.0679998 -1.3150001 0.31999999
-2.223 6.0739999 -1.318 0.34999999
-2.247 6.0799999 -1.321 0.34
-2.7590001 7.4120002 -1.6390001 0.28999999
-2.7720001 7.4109998 -1.64 0.28999999
-2.799 7.4130001 -1.642 0.31999999
-2.823 7.4060001 -1.643 0.28999999
-2.852 7.4120002 -1.646 0.36000001
-2.8740001 7.3990002 -1.646 0.31999999
-2.8970001 7.3899999 -1.646 0.31999999
-2.9230001 7.3860002 -1.647 0.34
-2.937 7.3889999 -1.649 0.34
-2.96 7.3779998 -1.648 0.31999999
-2.9860001 7.3759999 -1.65 0.34999999
-3.01 7.368 -1.65 0.36000001
-3.033 7.3590002 -1.65 0.33000001
-3.056 7.3509998 -1.651 0.33000001
-3.0799999 7.3429999 -1.651 0.34
-3.096 7.349 -1.654 0.31999999
-3.1129999 7.3249998 -1.65 0.31999999
-3.1370001 7.3169999 -1.651 0.33000001
-3.1659999 7.322 -1.654 0.36000001
-3.1849999 7.3010001 -1.652 0.36000001
-3.211 7.2979999 -1.653 0.36000001
-3.237 7.2950001 -1.655 0.31999999
-3.25 7.2930002 -1.656 0.34999999
-3.2720001 7.2810001 -1.656 0.30000001
-3.296 7.2750001 -1.656 0.33000001
-3.322 7.2709999 -1.658 0.31999999
-3.3440001 7.2589998 -1.658 0.31999999
-3.3699999 7.256 -1.659 0.36000001
-3.3900001 7.2379999 -1.658 0.30000001
-3.4059999 7.243 -1.66 0.36000001
-3.431 7.2360001 -1.661 0.34999999
-3.4530001 7.2249999 -1.661 0.34
-3.473 7.2090001 -1.66 0.30000001
-3.4960001 7.198 -1.66 0.31999999
-3.526 7.2030001 -1.664 0.38
-3.5439999 7.1810002 -1.661 0.31
-3.572 7.1820002 -1.664 0.36000001
-3.5769999 7.1630001 -1.661 0.31
-3.5999999 7.1529999 -1.661 0.28999999
-3.286 6.4720001 -1.494 0.25
-3.3039999 6.4580002 -1.493 0.47999999
-3.2909999 6.382 -1.477 0.30000001
-3.3080001 6.3660002 -1.475 0.5
-3.3499999 6.3969998 -1.4859999 0.38999999
-3.7290001 7.0999999 -1.664 0.34
-3.756 7.099 -1.666 0.34
-3.777 7.0840001 -1.666 0.36000001
-3.8 7.073 -1.666 0.31999999
-3.8280001 7.072 -1.669 0.34
-3.8499999 7.0599999 -1.669 0.36000001
-3.869 7.0419998 -1.6670001 0.36000001
-3.8929999 7.0339999 -1.668 0.37
-3.905 7.0289998 -1.669 0.36000001
-3.9300001 7.0219998 -1.67 0.37
-3.954 7.013 -1.671 0.37
-3.977 7.0019999 -1.671 0.36000001
-4.0009999 6.993 -1.6720001 0.36000001
-4.0229998 6.9809999 -1.6720001 0.34
-4.0469999 6.9710002 -1.673 0.34
-4.0599999 6.9679999 -1.674 0.34
-4.0840001 6.9590001 -1.675 0.36000001
-4.1040001 6.9439998 -1.674 0.37
-4.1290002 6.9359999 -1.676 0.37
-4.1500001 6.9219999 -1.675 0.37
-4.177 6.9169998 -1.677 0.38
-4.1950002 6.8990002 -1.676 0.37
-4.21 6.8990002 -1.678 0.38
-4.2309999 6.8839998 -1.677 0.38
-4.2519999 6.8709998 -1.677 0.37
-4.2779999 6.8639998 -1.679 0.38
-4.3039999 6.8569999 -1.681 0.37
-4.322 6.8390002 -1.679 0.34
-4.348 6.8319998 -1.681 0.40000001
-4.3579998 6.823 -1.681 0.38
-4.3790002 6.809 -1.681 0.37
-4.402 6.7989998 -1.682 0.37
-4.428 6.7919998 -1.683 0.36000001
-4.4510002 6.7810001 -1.684 0.36000001
-4.4710002 6.7639999 -1.683 0.36000001
-4.4970002 6.7579999 -1.686 0.36000001
-4.506 6.7470002 -1.6849999 0.34999999
-4.5250001 6.73 -1.684 0.34999999
-4.553 6.7270002 -1.687 0.37
-4.5760002 6.7140002 -1.687 0.36000001
-4.5939999 6.697 -1.686 0.36000001
-4.6139998 6.6810002 -1.686 0.36000001
-4.6399999 6.6729999 -1.688 0.37
-4.664 6.6630001 -1.689 0.37
-4.6729999 6.6539998 -1.689 0.36000001
-4.5929999 6.4949999 -1.649 0.25999999
-4.5869999 6.4429998 -1.6390001 0.47999999
-4.5799999 6.3899999 -1.6289999 0.33000001
-4.5799999 6.349 -1.6210001 0.44999999
-4.6399999 6.3899999 -1.636 0.43000001
-4.796 6.5830002 -1.692 0.37
-4.822 6.5760002 -1.694 0.36000001
-4.842 6.559 -1.693 0.28
-4.8600001 6.5409999 -1.693 0.44999999
-4.8829999 6.5289998 -1.693 0.36000001
-4.895 6.5019999 -1.6900001 0.36000001
-4.927 6.5019999 -1.6950001 0.33000001
-4.9510002 6.4920001 -1.696 0.38999999
-4.9650002 6.4889998 -1.697 0.38
-4.98 6.467 -1.696 0.37
-5.0040002 6.4559999 -1.697 0.38
-5.033 6.4510002 -1.7 0.38
-5.0500002 6.4299998 -1.699 0.38
-5.0669999 6.4109998 -1.698 0.38
-5.0960002 6.4060001 -1.701 0.37
-5.0970001 6.3870001 -1.698 0.34
-5.1220002 6.3769999 -1.699 0.34999999
-5.1560001 6.3779998 -1.704 0.40000001
-5.1669998 6.3509998 -1.701 0.34
-5.1849999 6.3319998 -1.7 0.38999999
-5.2150002 6.3280001 -1.704 0.38
-5.2270002 6.302 -1.701 0.38
-5.2529998 6.2930002 -1.7029999 0.38
-5.2779999 6.303 -1.709 0.38
-5.2880001 6.2740002 -1.705 0.34
-5.3070002 6.2579999 -1.705 0.38999999
-5.3369999 6.2529998 -1.709 0.34
-5.3540001 6.2329998 -1.7079999 0.36000001
-5.375 6.2179999 -1.7079999 0.36000001
-5.401 6.2080002 -1.71 0.34999999
-5.4039998 6.1919999 -1.7079999 0.34999999
-5.4310002 6.184 -1.711 0.36000001
-5.4559999 6.1729999 -1.7130001 0.36000001
-5.473 6.1529999 -1.712 0.36000001
-5.4910002 6.1339998 -1.711 0.37
-5.52 6.1290002 -1.715 0.36000001
-5.5289998 6.0999999 -1.711 0.36000001
-5.546 6.0999999 -1.714 0.36000001
-5.5770001 6.0949998 -1.7180001 0.38
-5.5900002 6.0700002 -1.716 0.37
-5.6100001 6.0539999 -1.716 0.36000001
-5.6430001 6.0510001 -1.72 0.36000001
-5.652 6.0229998 -1.717 0.37
-5.6680002 6.0029998 -1.716 0.36000001
-5.6929998 6.0089998 -1.721 0.37
-5.7069998 5.987 -1.72 0.37
-5.7290001 5.9720001 -1.721 0.37
-5.7490001 5.9549999 -1.721 0.38
-5.7659998 5.9359999 -1.721 0.38
-5.7859998 5.9190001 -1.721 0.38
-5.8169999 5.9130001 -1.725 0.38
-5.8200002 5.8969998 -1.723 0.38
-5.8390002 5.8800001 -1.723 0.38
-5.8660002 5.8699999 -1.726 0.38
-5.8860002 5.8530002 -1.726 0.38999999
-5.9099998 5.8400002 -1.728 0.38999999
-5.9250002 5.8189998 -1.727 0.40000001
-5.948 5.8039999 -1.729 0.38
-5.961 5.7989998 -1.73 0.38
-5.9809999 5.7820001 -1.73 0.37
-6 5.7639999 -1.7309999 0.36000001
-6.0209999 5.7480001 -1.732 0.36000001
-6.0489998 5.7389998 -1.735 0.38
-6.0630002 5.7160001 -1.733 0.37
-6.0840001 5.6989999 -1.734 0.37
-6.1100001 5.6880002 -1.737 0.36000001
-6.1170001 5.677 -1.7359999 0.36000001
-6.1420002 5.664 -1.739 0.38
-6.164 5.6490002 -1.74 0.38
-6.178 5.6259999 -1.739 0.36000001
-6.2030001 5.6129999 -1.7410001 0.37
-6.2290001 5.6009998 -1.743 0.37
-6.2490001 5.5840001 -1.744 0.37
-6.2550001 5.572 -1.743 0.33000001
-6.2820001 5.5599999 -1.7460001 0.41999999
-6.303 5.5440001 -1.747 0.36000001
-6.3270001 5.5289998 -1.749 0.37
-6.348 5.513 -1.75 0.44999999
-6.3730001 5.5 -1.753 0.36000001
-6.3990002 5.487 -1.755 0.37
-6.415 5.4840002 -1.757 0.37
-6.441 5.4710002 -1.76 0.38
-6.4749999 5.4650002 -1.765 0.38
-6.5110002 5.461 -1.77 0.34999999
-6.54 5.4499998 -1.774 0.44
-6.5799999 5.448 -1.78 0.38
-6.6170001 5.4439998 -1.786 0.43000001
-6.6430001 5.448 -1.791 0.31
-6.6919999 5.454 -1.8 0.49000001
-6.73 5.4499998 -1.806 0.44
-6.7470002 5.4289999 -1.806 0.30000001
-6.7600002 5.4039998 -1.8049999 0.28999999
-6.7859998 5.3899999 -1.808 0.36000001
-6.8010001 5.3670001 -1.807 0.33000001
-6.8260002 5.3520002 -1.8099999 0.34
-6.8369999 5.3429999 -1.8099999 0.36000001
-6.8509998 5.3200002 -1.8099999 0.30000001
-6.8889999 5.3150001 -1.816 0.18000001
-6.8920002 5.2820001 -1.812 0.38
-6.9190001 5.2690001 -1.8150001 0.69999999
-6.9450002 5.2540002 -1.817 0.70999998
-6.9629998 5.2340002 -1.818 0.69999999
-6.9710002 5.223 -1.818 0.73000002
-6.9959998 5.2069998 -1.8200001 0.69999999
-7.0139999 5.1859999 -1.8200001 0.52999997
-7.0380001 5.1700001 -1.823 0.63
-7.046 5.1420002 -1.8200001 0.41
-7.0619998 5.1199999 -1.8200001 0.33000001
-7.073 5.0939999 -1.819 0.31999999
-7.0799999 5.0819998 -1.819 0.31
-7.1069999 5.0669999 -1.822 0.31
-7.1230001 5.0450001 -1.822 0.34
-7.131 5.0170002 -1.8200001 0.30000001
-7.145 4.993 -1.819 0.31999999
-7.1750002 4.9809999 -1.823 0.33000001
-7.1869998 4.9559999 -1.822 0.28999999
-7.1919999 4.9429998 -1.821 0.30000001
-7.21 4.9219999 -1.822 0.34
-7.2259998 4.9000001 -1.822 0.31
-7.2480001 4.881 -1.824 0.31999999
-7.2529998 4.8520002 -1.821 0.28
-7.2750001 4.8330002 -1.823 0.33000001
-7.2930002 4.8130002 -1.824 0.31999999
-7.3010001 4.8010001 -1.824 0.33000001
-7.3239999 4.7839999 -1.826 0.31999999
-7.3410001 4.7620001 -1.826 0.31999999
-7.3610001 4.7420001 -1.8279999 0.31999999
-7.3709998 4.7150002 -1.826 0.28
-7.3850002 4.6919999 -1.826 0.28999999
-7.402 4.6700001 -1.827 0.31
-7.414 4.6620002 -1.8279999 0.30000001
-7.4299998 4.6389999 -1.829 0.31
-7.4499998 4.619 -1.83 0.31
-7.4640002 4.5960002 -1.83 0.28999999
-7.4770002 4.5710001 -1.83 0.31999999
-7.5029998 4.5549998 -1.8329999 0.31999999
-7.5149999 4.5300002 -1.832 0.28999999
-7.5209999 4.5170002 -1.832 0.31
-7.5450001 4.5 -1.834 0.31999999
-7.5609999 4.4770002 -1.835 0.30000001
-7.572 4.4510002 -1.834 0.28
-7.5869999 4.428 -1.834 0.31999999
-7.6030002 4.4060001 -1.835 0.30000001
-7.625 4.3860002 -1.837 0.30000001
-7.6339998 4.375 -1.837 0.28999999
-7.6409998 4.348 -1.836 0.28999999
-7.652 4.323 -1.835 0.28
-7.664 4.2979999 -1.835 0.28
-7.6760001 4.2729998 -1.834 0.30000001
-7.6999998 4.2540002 -1.837 0.28999999
-7.71 4.2280002 -1.836 0.31
-7.73 4.2080002 -1.8380001 0.30000001
-7.7470002 4.2010002 -1.84 0.31999999
-7.7600002 4.177 -1.84 0.28999999
-7.7750001 4.1529999 -1.841 0.28999999
-7.7820001 4.1259999 -1.84 0.30000001
-7.8060002 4.1069999 -1.842 0.28999999
-7.8119998 4.079 -1.84 0.28
-7.8280001 4.0560002 -1.841 0.28999999
-7.836 4.0450001 -1.842 0.28999999
-7.8429999 4.0170002 -1.84 0.27000001
-7.8720002 4.0009999 -1.844 0.31999999
-7.888 3.9779999 -1.845 0.28999999
-7.881 3.9430001 -1.84 0.27000001
-7.914 3.9289999 -1.846 0.31999999
-7.921 3.901 -1.844 0.31
-7.9320002 3.8759999 -1.844 0.28
-7.9380002 3.8629999 -1.844 0.28999999
-7.948 3.8369999 -1.8430001 0.31999999
-7.9689999 3.8169999 -1.846 0.31999999
-7.974 3.7880001 -1.844 0.28
-7.993 3.766 -1.846 0.30000001
-8.0059996 3.7420001 -1.846 0.31
-8.0159998 3.7160001 -1.846 0.31999999
-8.0220003 3.704 -1.846 0.27000001
-8.0349998 3.6789999 -1.846 0.33000001
-8.0450001 3.6530001 -1.846 0.31999999
-8.073 3.635 -1.85 0.31
-8.0799999 3.608 -1.849 0.30000001
-8.092 3.5829999 -1.849 0.28999999
-8.1049995 3.573 -1.85 0.34
-8.1070004 3.5439999 -1.848 0.25999999
-8.1230001 3.5209999 -1.85 0.28999999
-8.132 3.494 -1.849 0.31999999
-8.1470003 3.47 -1.85 0.31
-8.158 3.4449999 -1.85 0.33000001
-8.1739998 3.421 -1.851 0.30000001
-8.1759996 3.4070001 -1.85 0.30000001
-8.1879997 3.382 -1.851 0.30000001
-8.1969995 3.355 -1.85 0.30000001
-8.2130003 3.332 -1.852 0.30000001
-8.2270002 3.3080001 -1.853 0.30000001
-8.2360001 3.2809999 -1.852 0.30000001
-8.2419996 3.2539999 -1.851 0.30000001
-8.2550001 3.244 -1.853 0.30000001
-8.2740002 3.221 -1.855 0.34
-8.2799997 3.194 -1.854 0.28
-8.2869997 3.1659999 -1.853 0.28999999
-8.2959995 3.1400001 -1.853 0.30000001
-8.3149996 3.118 -1.8559999 0.31999999
-8.3199997 3.089 -1.854 0.30000001
-8.3310003 3.0639999 -1.855 0.30000001
-8.3360004 3.0510001 -1.855 0.31
-8.349 3.026 -1.8559999 0.28999999
-8.3439999 2.994 -1.852 0.30000001
-8.3739996 2.9760001 -1.857 0.34
-8.368 2.944 -1.853 0.28
-8.3959999 2.924 -1.858 0.31999999
-8.3920002 2.8929999 -1.855 0.28
-8.408 2.8840001 -1.857 0.33000001
-8.4180002 2.858 -1.858 0.31
-8.4200001 2.829 -1.8559999 0.28
-8.427 2.802 -1.8559999 0.30000001
-8.4359999 2.776 -1.8559999 0.28999999
-8.4540005 2.7520001 -1.858 0.31
-8.4530001 2.723 -1.8559999 0.28999999
-8.467 2.7119999 -1.858 0.31
-8.4790001 2.687 -1.859 0.31999999
-8.4890003 2.661 -1.859 0.31
-8.4919996 2.632 -1.858 0.28
-8.5109997 2.609 -1.86 0.31
-8.5100002 2.579 -1.858 0.28
-8.5240002 2.5539999 -1.86 0.31
-8.533 2.543 -1.8609999 0.31999999
-8.5410004 2.516 -1.8609999 0.30000001
-8.54 2.4860001 -1.859 0.28999999
-8.5570002 2.4619999 -1.8609999 0.28999999
-8.5649996 2.4349999 -1.8609999 0.31999999
-8.5679998 2.4070001 -1.86 0.28
-8.5830002 2.382 -1.862 0.31999999
-8.5869999 2.369 -1.862 0.28999999
-8.5930004 2.3410001 -1.8609999 0.28999999
-8.6110001 2.3180001 -1.864 0.34
-8.6110001 2.2880001 -1.862 0.28999999
-8.6110001 2.2590001 -1.86 0.28999999
-8.6210003 2.233 -1.8609999 0.28
-8.6379995 2.2090001 -1.863 0.34
-8.6429996 2.181 -1.863 0.30000001
-8.6540003 2.1689999 -1.865 0.33000001
-8.6549997 2.141 -1.863 0.30000001
-8.6619997 2.1140001 -1.863 0.31
-8.6639996 2.085 -1.863 0.31999999
-8.6669998 2.0569999 -1.862 0.30000001
-8.6789999 2.0309999 -1.863 0.27000001
-8.6820002 2.003 -1.862 0.33000001
-8.7040005 1.994 -1.867 0.31
-8.684 1.961 -1.86 0.28
-8.6990004 1.9349999 -1.863 0.36000001
-8.7220001 1.9119999 -1.867 0.31
-8.7069998 1.88 -1.862 0.31999999
-8.717 1.853 -1.863 0.28999999
-8.7379999 1.829 -1.8660001 0.33000001
-8.7180004 1.811 -1.8609999 0.27000001
-8.7290001 1.784 -1.862 0.18000001
-8.75 1.76 -1.8660001 0.31999999
-8.7480001 1.7309999 -1.864 0.49000001
-8.7550001 1.704 -1.864 0.56999999
-8.7700005 1.678 -1.867 0.55000001
-8.7559996 1.647 -1.862 0.67000002
-8.7779999 1.637 -1.867 0.40000001
-8.7869997 1.61 -1.867 0.30000001
-8.7670002 1.5779999 -1.862 0.31
-8.776 1.551 -1.863 0.28999999
-8.8039999 1.528 -1.868 0.33000001
-8.7910004 1.497 -1.864 0.30000001
-8.7980003 1.47 -1.864 0.30000001
-8.8100004 1.457 -1.867 0.28
-8.8079996 1.429 -1.865 0.28999999
-8.8260002 1.403 -1.868 0.31999999
-8.8249998 1.375 -1.867 0.28999999
-8.8179998 1.345 -1.864 0.28999999
-8.8299999 1.319 -1.8660001 0.31999999
-8.8470001 1.293 -1.869 0.28999999
-8.8470001 1.2640001 -1.868 0.30000001
-8.849 1.251 -1.868 0.30000001
-8.8690004 1.225 -1.872 0.30000001
-8.8610001 1.1950001 -1.869 0.30000001
-8.8610001 1.1670001 -1.868 0.28999999
-8.8800001 1.141 -1.872 0.28
-8.8850002 1.114 -1.872 0.28999999
-8.8870001 1.085 -1.872 0.27000001
-8.8979998 1.073 -1.874 0.30000001
-8.8839998 1.043 -1.87 0.28999999
-8.882 1.0140001 -1.869 0.30000001
-8.9099998 0.98900002 -1.874 0.25999999
-8.9029999 0.95999998 -1.872 0.28
-8.9119997 0.93300003 -1.873 0.28999999
-8.9189997 0.90499997 -1.874 0.30000001
-8.9069996 0.88999999 -1.8710001 0.30000001
-8.9020004 0.861 -1.87 0.28999999
-8.9160004 0.83399999 -1.872 0.28
-8.9090004 0.80500001 -1.87 0.28999999
-8.9230003 0.778 -1.873 0.28999999
-8.9490004 0.75199997 -1.878 0.25
-8.9329996 0.72299999 -1.874 0.28
-8.9420004 0.70899999 -1.876 0.27000001
-8.9429998 0.68099999 -1.875 0.28
-8.9350004 0.65200001 -1.873 0.28
-8.9429998 0.62400001 -1.874 0.31999999
-8.96 0.597 -1.878 0.25999999
-8.9519997 0.56900001 -1.876 0.30000001
-8.9499998 0.54000002 -1.875 0.28999999
-8.9689999 0.52700001 -1.8789999 0.28999999
-8.9589996 0.498 -1.876 0.28999999
-8.9619999 0.47 -1.877 0.28999999
-8.96 0.442 -1.876 0.30000001
-8.9729996 0.414 -1.878 0.30000001
-8.9499998 0.38499999 -1.873 0.27000001
-8.9569998 0.35699999 -1.874 0.28999999
-8.9700003 0.34400001 -1.877 0.30000001
-8.9750004 0.31600001 -1.878 0.30000001
-8.9759998 0.287 -1.878 0.31
-8.9750004 0.259 -1.877 0.30000001
-8.9729996 0.23100001 -1.877 0.31999999
-8.974 0.20299999 -1.877 0.30000001
-8.9750004 0.175 -1.877 0.28999999
-8.9790001 0.161 -1.878 0.28999999
-8.9849997 0.132 -1.8789999 0.28999999
-8.9799995 0.104 -1.878 0.30000001
-8.9759998 0.075999998 -1.877 0.31
-8.9860001 0.048 -1.8789999 0.30000001
-8.9879999 0.02 -1.88 0.30000001
-8.9860001 -0.0089999996 -1.8789999 0.30000001
-8.9799995 -0.037 -1.878 0.30000001
-8.9840002 -0.050999999 -1.8789999 0.30000001
-8.9840002 -0.079000004 -1.8789999 0.33000001
-8.9890003 -0.108 -1.88 0.30000001
-8.9829998 -0.13600001 -1.8789999 0.27000001
-8.9870005 -0.164 -1.88 0.31
-8.9919996 -0.192 -1.881 0.28999999
-8.9949999 -0.207 -1.882 0.28999999
-8.9949999 -0.235 -1.882 0.30000001
-8.9879999 -0.26300001 -1.88 0.30000001
-8.9870005 -0.29100001 -1.88 0.31
-8.9860001 -0.31900001 -1.88 0.28
-8.9790001 -0.347 -1.8789999 0.28999999
-8.9820004 -0.37599999 -1.88 0.31999999
-8.9779997 -0.38999999 -1.8789999 0.30000001
-8.9879999 -0.41800001 -1.882 0.30000001
-8.9849997 -0.447 -1.881 0.30000001
-8.9829998 -0.47499999 -1.881 0.30000001
-8.9680004 -0.50199997 -1.878 0.28999999
-8.9919996 -0.53200001 -1.8839999 0.25
-8.9820004 -0.56 -1.882 0.28999999
-8.9750004 -0.588 -1.881 0.25
-8.9700003 -0.60100001 -1.88 0.31
-8.9680004 -0.63 -1.88 0.30000001
-8.974 -0.65799999 -1.882 0.23999999
-8.9770002 -0.68699998 -1.883 0.28
-8.967 -0.71399999 -1.881 0.27000001
-8.9709997 -0.74299997 -1.883 0.28999999
-8.967 -0.77100003 -1.882 0.28999999
-8.9689999 -0.78600001 -1.883 0.28999999
-8.9689999 -0.81400001 -1.883 0.28999999
-8.9639997 -0.84200001 -1.883 0.27000001
-8.9610004 -0.87 -1.883 0.28
-8.9510002 -0.89700001 -1.881 0.30000001
-8.9499998 -0.926 -1.882 0.28999999
-8.9510002 -0.954 -1.883 0.28999999
-8.9569998 -0.96899998 -1.8839999 0.28999999
-8.941 -0.99599999 -1.881 0.28
-8.9370003 -1.024 -1.881 0.28999999
-8.9239998 -1.051 -1.8789999 0.28
-8.9230003 -1.079 -1.88 0.28999999
-8.9219999 -1.107 -1.88 0.28999999
-8.9139996 -1.135 -1.8789999 0.28999999
-8.9180002 -1.164 -1.881 0.28999999
-8.9090004 -1.177 -1.8789999 0.28999999
-8.8950005 -1.204 -1.877 0.30000001
-8.9049997 -1.233 -1.88 0.30000001
-8.8909998 -1.26 -1.878 0.30000001
-8.8850002 -1.288 -1.877 0.31999999
-8.8830004 -1.316 -1.878 0.31999999
-8.8769999 -1.329 -1.877 0.31999999
-8.8710003 -1.357 -1.877 0.30000001
-8.8690004 -1.385 -1.877 0.27000001
-8.8590002 -1.4119999 -1.876 0.34
-8.8450003 -1.438 -1.873 0.28999999
-8.8520002 -1.4680001 -1.876 0.30000001
-8.8450003 -1.495 -1.876 0.36000001
-8.8439999 -1.51 -1.876 0.31999999
-8.849 -1.539 -1.878 0.28999999
-8.8389997 -1.566 -1.877 0.33000001
-8.8299999 -1.5930001 -1.876 0.30000001
-8.8330002 -1.622 -1.878 0.31
-8.8199997 -1.648 -1.876 0.34
-8.809 -1.675 -1.875 0.28999999
-8.8170004 -1.705 -1.878 0.17
-8.8140001 -1.719 -1.878 0.31999999
-8.8030005 -1.7460001 -1.877 0.69999999
-8.8070002 -1.775 -1.8789999 0.73000002
-8.7939997 -1.801 -1.877 0.72000003
-8.7709999 -1.825 -1.873 0.76999998
-8.7770004 -1.855 -1.876 0.56999999
-8.7629995 -1.881 -1.874 0.31999999
-8.7620001 -1.895 -1.874 0.31999999
-8.7600002 -1.924 -1.875 0.31999999
-8.7419996 -1.949 -1.873 0.31
-8.7440004 -1.978 -1.874 0.31999999
-8.7550001 -2.0090001 -1.878 0.38999999
-8.6990004 -2.0250001 -1.867 0.2
-8.6850004 -2.0510001 -1.865 0.34999999
-8.6090002 -2.0480001 -1.849 0.36000001
-8.5139999 -2.053 -1.8279999 0.31
-8.4139996 -2.0580001 -1.807 0.37
-8.375 -2.076 -1.8 0.36000001
-8.335 -2.0940001 -1.7920001 0.36000001
-8.3219995 -2.119 -1.79 0.36000001
-8.3140001 -2.1440001 -1.79 0.34999999
-8.3070002 -2.1570001 -1.789 0.36000001
-8.2939997 -2.181 -1.788 0.36000001
-8.283 -2.2060001 -1.7869999 0.36000001
-8.2629995 -2.2290001 -1.784 0.36000001
-8.2539997 -2.2539999 -1.783 0.36000001
-8.2550001 -2.2820001 -1.785 0.37
-8.2340002 -2.3039999 -1.7819999 0.36000001
-8.2349997 -2.3180001 -1.783 0.37
-8.2200003 -2.342 -1.781 0.37
-8.21 -2.3670001 -1.781 0.33000001
-8.1879997 -2.3889999 -1.777 0.38999999
-8.184 -2.4159999 -1.778 0.34
-8.1669998 -2.4389999 -1.776 0.38999999
-8.1590004 -2.464 -1.776 0.37
-8.1499996 -2.4749999 -1.775 0.37
-8.1370001 -2.4990001 -1.773 0.37
-8.1230001 -2.523 -1.772 0.38
-8.1110001 -2.5469999 -1.771 0.38
-8.1009998 -2.572 -1.771 0.33000001
-8.1009998 -2.5999999 -1.773 0.38999999
-8.0780001 -2.6210001 -1.7690001 0.37
-8.0810003 -2.6500001 -1.772 0.38
-8.0670004 -2.6589999 -1.77 0.37
-8.0480003 -2.681 -1.767 0.37
-8.0469999 -2.7090001 -1.7690001 0.38
-8.0340004 -2.733 -1.768 0.36000001
-8.0240002 -2.757 -1.767 0.38
-8.0100002 -2.7809999 -1.766 0.37
-8.0010004 -2.806 -1.766 0.38
-7.9949999 -2.8180001 -1.766 0.38
-7.9889998 -2.8440001 -1.766 0.38
-7.9770002 -2.868 -1.766 0.38
-7.9660001 -2.892 -1.765 0.37
-7.9530001 -2.9159999 -1.7640001 0.34
-7.927 -2.9349999 -1.76 0.38999999
-7.9180002 -2.96 -1.76 0.38
-7.9120002 -2.9719999 -1.76 0.38
-7.9169998 -3.0020001 -1.763 0.38
-7.8909998 -3.0209999 -1.76 0.37
-7.8720002 -3.0420001 -1.757 0.34
-7.3800001 -2.8800001 -1.642 0.27000001
-7.3909998 -2.911 -1.647 0.38
-7.402 -2.9419999 -1.652 0.33000001
-7.3920002 -2.9519999 -1.65 0.47999999
-7.3969998 -2.9809999 -1.654 0.47999999
-6.27 -2.5539999 -1.385 0.30000001
-6.2129998 -2.5539999 -1.374 0.31999999
-6.1550002 -2.552 -1.3609999 0.37
-6.0999999 -2.552 -1.35 0.36000001
-6.0430002 -2.5510001 -1.3380001 0.34
-5.987 -2.539 -1.326 0.37
-5.9380002 -2.54 -1.316 0.34999999
-5.888 -2.5409999 -1.306 0.33000001
-5.8390002 -2.5420001 -1.296 0.33000001
-5.8010001 -2.5469999 -1.288 0.33000001
-5.7589998 -2.55 -1.28 0.31999999
-5.7379999 -2.563 -1.277 0.33000001
-5.7179999 -2.5650001 -1.273 0.33000001
-5.6960001 -2.576 -1.27 0.33000001
-5.6750002 -2.5880001 -1.267 0.38999999
-5.6370001 -2.5929999 -1.2589999 0.28999999
-5.6139998 -2.6040001 -1.256 0.31999999
-5.5689998 -2.6040001 -1.247 0.33000001
-5.5310001 -2.608 -1.239 0.38999999
-5.4520001 -2.592 -1.222 0.37
-5.2820001 -2.5220001 -1.181 0.28999999
-5.217 -2.5120001 -1.1670001 0.31
-5.1939998 -2.5209999 -1.163 0.34
-5.1490002 -2.5190001 -1.154 0.33000001
-5.099 -2.5150001 -1.1440001 0.30000001
-5.0710001 -2.5209999 -1.1390001 0.31
-5.0180001 -2.5150001 -1.127 0.31999999
-4.9809999 -2.506 -1.119 0.33000001
-4.9400001 -2.5050001 -1.1109999 0.31
-4.914 -2.5120001 -1.107 0.31
-4.8610001 -2.5039999 -1.095 0.31
-4.8189998 -2.5009999 -1.087 0.28999999
-4.7810001 -2.5009999 -1.079 0.31999999
-4.763 -2.5109999 -1.077 0.31
-4.744 -2.51 -1.073 0.38999999
-4.7129998 -2.513 -1.067 0.15000001
-7.402 -3.96 -1.747 0.25999999
-7.3940001 -3.9860001 -1.749 0.44999999
-10.236 -5.5479999 -2.471 0.22
-10.155 -5.546 -2.4549999 0.36000001
-10.158 -5.5890002 -2.46 0.34999999
-10.565 -5.8330002 -2.566 0.57999998
-10.268 -5.7119999 -2.4949999 0.28999999
-6.7750001 -3.8069999 -1.609 0.30000001
-6.7259998 -3.8069999 -1.599 0.30000001
-5.2319999 -2.99 -1.22 0.19
-5.1989999 -2.993 -1.214 0.31
-5.158 -2.9909999 -1.205 0.30000001
-5.0939999 -2.9649999 -1.1900001 0.34999999
-5.0050001 -2.9349999 -1.17 0.31
-4.9250002 -2.9089999 -1.151 0.31999999
-4.803 -2.858 -1.122 0.28999999
-4.7490001 -2.8469999 -1.11 0.27000001
-4.7329998 -2.8570001 -1.109 0.31
-4.7309999 -2.8759999 -1.11 0.34
-4.711 -2.875 -1.107 0.28
-4.6989999 -2.8870001 -1.1059999 0.30000001
-4.697 -2.9059999 -1.107 0.28999999
-4.6869998 -2.921 -1.107 0.33000001
-4.6799998 -2.937 -1.108 0.34999999
-4.6810002 -2.9579999 -1.11 0.28999999
-4.6859999 -2.9820001 -1.114 0.49000001
-4.6810002 -2.9890001 -1.114 0.33000001
-5.9200001 -3.7980001 -1.444 0.20999999
-5.9219999 -3.825 -1.448 0.38999999
-7.8400002 -5.0890002 -1.96 0.28999999
-7.8260002 -5.1149998 -1.96 0.37
-5.776 -3.809 -1.418 0.28999999
-10.031 -6.6609998 -2.5599999 0.56
-5.7820001 -3.839 -1.423 0.15000001
-10.192 -6.8130002 -2.609 0.16
-5.664 -3.826 -1.4 0.44999999
-5.6469998 -3.8399999 -1.398 0.23
-10.102 -6.8909998 -2.602 0.34
-8.9020004 -6.118 -2.2839999 0.25
-5.5120001 -3.826 -1.372 0.43000001
-5.5159998 -3.8410001 -1.375 0.23
-8.573 -5.9920001 -2.2079999 0.23999999
-10.008 -7.0370002 -2.6029999 0.44
-5.3610001 -3.8099999 -1.342 0.36000001
-5.362 -3.836 -1.346 0.31
-10.108 -7.25 -2.6489999 0.25999999
-10.157 -7.3330002 -2.668 0.44
