# .PCD v0.7 - Point Cloud Data file format
VERSION 0.7
FIELDS x y z intensity
SIZE 4 4 4 4
TYPE F F F F
COUNT 1 1 1 1
WIDTH 1374
HEIGHT 1
VIEWPOINT 0 0 0 1 0 0 0
POINTS 1374
DATA ascii
0.182 -5.6259999 -1.085 0.40000001
0.20100001 -5.6700001 -1.094 0.54000002
0.20999999 -5.677 -1.096 0.40000001
0.228 -5.665 -1.0930001 0.41
0.243 -5.619 -1.084 0.47
0.25600001 -5.5250001 -1.064 0.40000001
0.27399999 -5.5279999 -1.064 0.41999999
0.29300001 -5.5560002 -1.071 0.55000001
0.31 -5.5479999 -1.069 0.31999999
0.331 -5.7540002 -1.114 0.52999997
0.34599999 -5.7059999 -1.104 0.37
0.36399999 -5.6989999 -1.102 0.44999999
0.38299999 -5.7129998 -1.1059999 0.44
0.39500001 -5.6399999 -1.09 0.5
0.41299999 -5.631 -1.0880001 0.38
0.41999999 -5.6129999 -1.085 0.5
0.43700001 -5.6020002 -1.0829999 0.43000001
0.44800001 -5.526 -1.067 0.41999999
0.461 -5.474 -1.056 0.40000001
0.479 -5.4840002 -1.058 0.47
0.5 -5.5240002 -1.067 0.47999999
0.52200001 -5.5650001 -1.076 0.36000001
0.52399999 -5.5 -1.062 0.49000001
0.542 -5.506 -1.064 0.34999999
0.55500001 -5.4619999 -1.0549999 0.56999999
0.574 -5.4790001 -1.059 0.38
0.58899999 -5.4559999 -1.054 0.41
0.61299998 -5.5159998 -1.068 0.54000002
0.63700002 -5.5669999 -1.079 0.36000001
0.63999999 -5.5170002 -1.069 0.41999999
0.65899998 -5.5310001 -1.072 0.55000001
0.69199997 -5.6490002 -1.098 0.41
0.70200002 -5.5869999 -1.085 0.28999999
0.73000002 -5.664 -1.102 0.5
0.755 -5.7119999 -1.113 0.34
0.755 -5.6469998 -1.099 0.54000002
0.75999999 -5.5570002 -1.08 0.38999999
0.77100003 -5.5120001 -1.071 0.5
0.79100001 -5.5229998 -1.074 0.38999999
0.824 -5.6230001 -1.096 0.41
0.852 -5.6880002 -1.1109999 0.43000001
0.86299998 -5.6469998 -1.103 0.41
0.87 -5.632 -1.1 0.56
0.89300001 -5.664 -1.107 0.38999999
0.90799999 -5.6440001 -1.104 0.55000001
0.92900002 -5.6560001 -1.107 0.36000001
0.94300002 -5.6339998 -1.103 0.50999999
0.96600002 -5.658 -1.109 0.38
0.98100001 -5.6420002 -1.1059999 0.47
0.98900002 -5.638 -1.105 0.51999998
1.0089999 -5.645 -1.107 0.46000001
1.027 -5.645 -1.108 0.41
1.033 -5.579 -1.094 0.34999999
1.0470001 -5.5560002 -1.09 0.47
1.0369999 -5.415 -1.0599999 0.37
1.035 -5.316 -1.039 0.50999999
1.063 -5.4099998 -1.0599999 0.30000001
1.096 -5.4850001 -1.077 0.51999998
1.128 -5.5539999 -1.0930001 0.37
1.176 -5.6939998 -1.124 0.36000001
1.197 -5.7059999 -1.128 0.61000001
1.207 -5.6680002 -1.12 0.33000001
1.23 -5.6849999 -1.125 0.54000002
1.239 -5.6849999 -1.125 0.40000001
1.261 -5.6999998 -1.13 0.54000002
1.262 -5.6220002 -1.113 0.38999999
1.272 -5.585 -1.1059999 0.63
1.3710001 -5.9239998 -1.182 0.2
1.327 -5.6589999 -1.124 0.49000001
1.321 -5.5960002 -1.1109999 0.31
1.345 -5.6160002 -1.1160001 0.66000003
1.373 -5.6539998 -1.125 0.31
1.378 -5.5999999 -1.114 0.62
1.513 -6.0580001 -1.217 0.25999999
1.454 -5.7490001 -1.149 0.55000001
1.473 -5.75 -1.151 0.23
1.443 -5.598 -1.117 0.56
1.465 -5.6090002 -1.1210001 0.34999999
1.483 -5.6059999 -1.1210001 0.43000001
1.502 -5.6069999 -1.122 0.56
1.517 -5.5910001 -1.12 0.36000001
1.54 -5.6069999 -1.124 0.56999999
1.564 -5.6259999 -1.13 0.36000001
1.577 -5.6389999 -1.133 0.5
1.557 -5.5019999 -1.104 0.41999999
1.5779999 -5.5089998 -1.1059999 0.38
1.6160001 -5.573 -1.122 0.44999999
1.649 -5.6199999 -1.1339999 0.40000001
1.661 -5.598 -1.13 0.44
1.678 -5.5910001 -1.13 0.52999997
1.74 -5.7610002 -1.168 0.38999999
1.763 -5.77 -1.1720001 0.44999999
1.791 -5.7979999 -1.179 0.56999999
1.76 -5.638 -1.1440001 0.44
1.816 -5.7490001 -1.171 0.38
1.86 -5.8239999 -1.189 0.49000001
1.86 -5.7950001 -1.183 0.63
1.845 -5.6869998 -1.16 0.40000001
1.837 -5.6030002 -1.142 0.47
1.892 -5.7080002 -1.1670001 0.40000001
1.9170001 -5.7249999 -1.1720001 0.5
1.943 -5.7410002 -1.177 0.34999999
1.965 -5.7459998 -1.1799999 0.46000001
1.969 -5.73 -1.177 0.63999999
1.97 -5.6760001 -1.166 0.37
1.983 -5.6550002 -1.163 0.44
2.0039999 -5.658 -1.165 0.44999999
2.027 -5.6659999 -1.168 0.41999999
2.046 -5.6630001 -1.169 0.52999997
2.066 -5.6620002 -1.17 0.38999999
2.063 -5.6279998 -1.163 0.54000002
2.092 -5.651 -1.17 0.38999999
2.1240001 -5.6820002 -1.179 0.55000001
2.152 -5.7010002 -1.1849999 0.38999999
2.188 -5.7420001 -1.1950001 0.54000002
2.2 -5.7189999 -1.192 0.62
2.22 -5.717 -1.193 0.40000001
2.217 -5.6830001 -1.186 0.51999998
2.2219999 -5.645 -1.179 0.38999999
2.2449999 -5.651 -1.182 0.41999999
2.2390001 -5.585 -1.168 0.52999997
2.273 -5.618 -1.177 0.41999999
2.3110001 -5.6599998 -1.189 0.36000001
2.339 -5.7010002 -1.199 0.49000001
2.3299999 -5.631 -1.1849999 0.34999999
2.316 -5.5479999 -1.1670001 0.41999999
2.332 -5.5370002 -1.166 0.46000001
2.378 -5.5960002 -1.182 0.36000001
2.342 -5.467 -1.153 0.47
2.368 -5.4790001 -1.158 0.38
2.3900001 -5.506 -1.165 0.41
2.4170001 -5.52 -1.17 0.46000001
2.461 -5.573 -1.184 0.38
2.484 -5.5760002 -1.187 0.47999999
2.487 -5.5370002 -1.179 0.40000001
2.517 -5.5560002 -1.186 0.46000001
2.549 -5.5799999 -1.193 0.38
2.5450001 -5.5500002 -1.187 0.46000001
2.5650001 -5.5450001 -1.188 0.43000001
2.576 -5.5250001 -1.1849999 0.41999999
2.589 -5.5079999 -1.183 0.50999999
2.6270001 -5.5419998 -1.193 0.37
2.6830001 -5.6149998 -1.212 0.62
2.6819999 -5.5679998 -1.2029999 0.34
2.7130001 -5.6090002 -1.214 0.5
2.733 -5.6059999 -1.215 0.40000001
2.7609999 -5.6160002 -1.22 0.41
2.7869999 -5.625 -1.224 0.46000001
2.8269999 -5.6599998 -1.234 0.40000001
2.813 -5.5900002 -1.22 0.37
2.78 -5.5019999 -1.2 0.44999999
2.796 -5.4920001 -1.199 0.51999998
2.8369999 -5.5279999 -1.21 0.31999999
2.8629999 -5.5359998 -1.214 0.47999999
2.885 -5.5359998 -1.216 0.38999999
2.9030001 -5.5289998 -1.217 0.54000002
2.9319999 -5.54 -1.222 0.33000001
2.9389999 -5.5339999 -1.221 0.58999997
3.027 -5.6550002 -1.253 0.34
3.1240001 -5.79 -1.289 0.41999999
3.108 -5.7179999 -1.274 0.38999999
3.1600001 -5.77 -1.289 0.47
3.168 -5.7410002 -1.284 0.49000001
3.2119999 -5.7779999 -1.295 0.43000001
3.234 -5.796 -1.301 0.46000001
3.2539999 -5.79 -1.302 0.5
3.2750001 -5.7839999 -1.303 0.46000001
3.2739999 -5.7399998 -1.295 0.52999997
3.2650001 -5.684 -1.284 0.31999999
3.2019999 -5.5349998 -1.249 0.51999998
3.2279999 -5.539 -1.253 0.36000001
3.2639999 -5.5809999 -1.2640001 0.54000002
3.303 -5.6059999 -1.273 0.31
3.3369999 -5.6240001 -1.28 0.47
3.457 -5.783 -1.323 0.40000001
3.471 -5.7649999 -1.321 0.41
3.5079999 -5.7839999 -1.3279999 0.44999999
3.513 -5.7719998 -1.327 0.38
3.484 -5.6859999 -1.308 0.54000002
3.471 -5.625 -1.295 0.40000001
3.474 -5.5910001 -1.289 0.63999999
3.4909999 -5.579 -1.289 0.31
3.562 -5.652 -1.3099999 0.44999999
3.575 -5.6339998 -1.309 0.51999998
3.6140001 -5.6739998 -1.321 0.38
3.6229999 -5.6500001 -1.317 0.44
3.6429999 -5.6420002 -1.318 0.55000001
3.651 -5.6160002 -1.314 0.36000001
3.7119999 -5.6690001 -1.331 0.47
3.714 -5.6350002 -1.325 0.40000001
3.7349999 -5.6279998 -1.326 0.41
3.7620001 -5.6479998 -1.3329999 0.41999999
3.793 -5.6560001 -1.3380001 0.47
3.806 -5.6370001 -1.336 0.56999999
3.8340001 -5.6399999 -1.34 0.38999999
3.8429999 -5.6160002 -1.337 0.41
3.8499999 -5.5879998 -1.3329999 0.5
3.8789999 -5.592 -1.337 0.38
3.921 -5.6339998 -1.35 0.44
3.9579999 -5.6490002 -1.357 0.44999999
4.0050001 -5.678 -1.368 0.47
4.0110002 -5.6479998 -1.363 0.44
4.0229998 -5.6269999 -1.3609999 0.41
4.0320001 -5.6040001 -1.358 0.49000001
4.0430002 -5.5809999 -1.3559999 0.38
4.0819998 -5.6160002 -1.367 0.41
4.151 -5.6739998 -1.386 0.41999999
4.1630001 -5.6529999 -1.383 0.41999999
4.1849999 -5.645 -1.385 0.41999999
4.2249999 -5.6609998 -1.393 0.5
4.2399998 -5.645 -1.392 0.50999999
4.2670002 -5.6609998 -1.398 0.50999999
4.2880001 -5.6529999 -1.399 0.55000001
4.3010001 -5.6329999 -1.398 0.46000001
4.3150001 -5.6149998 -1.396 0.55000001
4.3060002 -5.5669999 -1.387 0.61000001
4.335 -5.5679998 -1.391 0.36000001
4.3870001 -5.598 -1.403 0.52999997
4.4000001 -5.5960002 -1.404 0.44
4.4159999 -5.5809999 -1.404 0.49000001
4.434 -5.5669999 -1.404 0.47999999
4.4530001 -5.5560002 -1.405 0.47999999
4.48 -5.553 -1.408 0.46000001
4.4980001 -5.54 -1.408 0.50999999
4.5279999 -5.5409999 -1.4119999 0.41999999
4.5339999 -5.5310001 -1.4119999 0.44999999
4.5669999 -5.5349998 -1.4170001 0.41999999
4.579 -5.5139999 -1.415 0.44
4.5970001 -5.5009999 -1.415 0.57999998
4.6370001 -5.5139999 -1.423 0.37
4.6659999 -5.5120001 -1.427 0.44999999
4.6760001 -5.507 -1.427 0.54000002
4.677 -5.473 -1.4220001 0.47999999
4.6929998 -5.4559999 -1.421 0.44
4.7270002 -5.461 -1.427 0.51999998
4.7639999 -5.4689999 -1.433 0.38999999
4.7810001 -5.454 -1.433 0.41999999
4.8000002 -5.441 -1.434 0.44999999
4.8060002 -5.4299998 -1.433 0.46000001
4.823 -5.415 -1.433 0.56
4.848 -5.4089999 -1.436 0.43000001
4.8829999 -5.414 -1.441 0.40000001
4.8909998 -5.388 -1.438 0.54000002
4.9060001 -5.3720002 -1.438 0.58999997
4.9460001 -5.3800001 -1.4450001 0.34999999
4.9650002 -5.3839998 -1.449 0.34
4.9910002 -5.3790002 -1.451 0.41999999
5.0120001 -5.3670001 -1.4529999 0.44
5.0409999 -5.3639998 -1.457 0.43000001
5.052 -5.3429999 -1.455 0.44999999
5.0749998 -5.3319998 -1.457 0.52999997
5.092 -5.3340001 -1.459 0.36000001
5.1129999 -5.322 -1.461 0.51999998
5.1440001 -5.3200002 -1.465 0.41
5.158 -5.3010001 -1.464 0.38999999
5.1799998 -5.2909999 -1.466 0.34999999
5.1989999 -5.277 -1.467 0.44999999
5.2059999 -5.2509999 -1.464 0.36000001
5.2179999 -5.2470002 -1.465 0.36000001
5.2470002 -5.243 -1.469 0.38
5.257 -5.2199998 -1.467 0.34
5.27 -5.1999998 -1.466 0.38
5.2880001 -5.1849999 -1.466 0.37
5.3109999 -5.1750002 -1.4680001 0.36000001
5.3299999 -5.1609998 -1.469 0.44999999
5.3410001 -5.1560001 -1.47 0.36000001
5.3559999 -5.138 -1.47 0.41
5.3720002 -5.1209998 -1.47 0.38
5.4000001 -5.1139998 -1.473 0.38
5.414 -5.0960002 -1.472 0.36000001
5.427 -5.0760002 -1.472 0.34
5.4559999 -5.0710001 -1.475 0.38
5.4580002 -5.0570002 -1.474 0.31999999
5.473 -5.039 -1.473 0.31999999
5.4990001 -5.0310001 -1.476 0.41
5.5149999 -5.0139999 -1.476 0.31999999
5.5300002 -4.9959998 -1.476 0.44
5.5549998 -4.987 -1.479 0.36000001
5.5570002 -4.9580002 -1.475 0.33000001
5.5689998 -4.9530001 -1.476 0.30000001
5.5939999 -4.9429998 -1.479 0.44
5.605 -4.921 -1.478 0.34
5.6170001 -4.901 -1.477 0.38
5.6370001 -4.8870001 -1.478 0.33000001
5.6570001 -4.8740001 -1.479 0.34
5.6719999 -4.8709998 -1.4809999 0.34
5.6929998 -4.8579998 -1.483 0.34
5.6989999 -4.8330002 -1.48 0.34
5.7179999 -4.8169999 -1.4809999 0.34
5.7420001 -4.8070002 -1.484 0.37
5.7480001 -4.7810001 -1.4809999 0.36000001
5.7670002 -4.7670002 -1.483 0.36000001
5.776 -4.7589998 -1.483 0.34999999
5.8060002 -4.7529998 -1.487 0.36000001
5.8080001 -4.724 -1.483 0.34999999
5.8309999 -4.7129998 -1.4859999 0.36000001
5.8569999 -4.7030001 -1.489 0.34
5.8520002 -4.6690001 -1.483 0.33000001
5.8709998 -4.6539998 -1.485 0.33000001
5.8940001 -4.6570001 -1.489 0.37
5.8940001 -4.6279998 -1.485 0.33000001
5.9180002 -4.6160002 -1.488 0.31999999
5.9369998 -4.6009998 -1.489 0.38
5.947 -4.579 -1.488 0.36000001
5.9679999 -4.5650001 -1.489 0.31999999
5.9879999 -4.5510001 -1.4910001 0.34999999
5.9829998 -4.5320001 -1.488 0.34
6.0079999 -4.5219998 -1.4910001 0.38
6.0250001 -4.5050001 -1.4910001 0.36000001
6.0320001 -4.48 -1.489 0.31
6.0580001 -4.4710002 -1.493 0.41
6.0689998 -4.4489999 -1.492 0.31999999
6.073 -4.4369998 -1.4910001 0.38
6.098 -4.4260001 -1.494 0.36000001
6.1149998 -4.4089999 -1.495 0.34
6.118 -4.382 -1.492 0.36000001
6.1409998 -4.3699999 -1.494 0.36000001
6.1560001 -4.3520002 -1.495 0.33000001
6.1620002 -4.3270001 -1.493 0.34
6.1830001 -4.3270001 -1.4960001 0.36000001
6.1950002 -4.3060002 -1.4960001 0.36000001
6.2090001 -4.2870002 -1.4960001 0.36000001
6.2270002 -4.2709999 -1.497 0.34999999
6.2350001 -4.2480001 -1.4960001 0.31999999
6.2620001 -4.237 -1.499 0.37
6.277 -4.2179999 -1.5 0.34
6.2750001 -4.2030001 -1.498 0.31999999
6.29 -4.184 -1.498 0.38
6.303 -4.165 -1.498 0.36000001
6.316 -4.145 -1.498 0.36000001
6.3340001 -4.1279998 -1.499 0.34999999
6.3499999 -4.1100001 -1.5 0.36000001
6.3600001 -4.0879998 -1.499 0.33000001
6.3649998 -4.0770001 -1.499 0.34
6.3870001 -4.0630002 -1.501 0.38999999
6.402 -4.0440001 -1.502 0.36000001
6.414 -4.0240002 -1.502 0.36000001
6.4289999 -4.0050001 -1.502 0.31999999
6.4460001 -3.9879999 -1.5039999 0.38
6.447 -3.9749999 -1.502 0.34
6.4580002 -3.9530001 -1.502 0.36000001
6.467 -3.931 -1.501 0.31999999
6.4809999 -3.9119999 -1.501 0.37
6.5019999 -3.8959999 -1.5039999 0.33000001
6.5240002 -3.882 -1.506 0.38999999
6.5279999 -3.8559999 -1.5039999 0.31999999
6.5320001 -3.845 -1.5039999 0.34
6.5560002 -3.832 -1.506 0.41999999
6.5700002 -3.812 -1.507 0.34
6.5900002 -3.796 -1.5089999 0.36000001
6.5949998 -3.7720001 -1.507 0.36000001
6.6160002 -3.756 -1.5089999 0.34
6.6240001 -3.733 -1.5089999 0.28999999
6.6399999 -3.7279999 -1.511 0.23
6.6539998 -3.7079999 -1.512 0.63999999
6.6739998 -3.6919999 -1.5140001 0.60000002
6.6849999 -3.671 -1.5140001 0.56999999
6.6999998 -3.652 -1.5140001 0.60000002
6.71 -3.6300001 -1.5140001 0.43000001
6.7199998 -3.608 -1.5140001 0.5
6.7249999 -3.5969999 -1.5140001 0.41
6.7329998 -3.5739999 -1.513 0.34999999
6.743 -3.552 -1.512 0.31
6.7589998 -3.5339999 -1.5140001 0.34999999
6.7789998 -3.517 -1.516 0.40000001
6.7849998 -3.493 -1.5140001 0.34999999
6.79 -3.4820001 -1.5140001 0.33000001
6.8099999 -3.4649999 -1.517 0.34
6.822 -3.4449999 -1.517 0.34999999
6.835 -3.424 -1.517 0.34
6.8470001 -3.404 -1.518 0.36000001
6.8649998 -3.3859999 -1.5190001 0.36000001
6.8720002 -3.362 -1.5190001 0.33000001
6.8899999 -3.3570001 -1.522 0.34
6.895 -3.3329999 -1.52 0.31999999
6.9029999 -3.3110001 -1.52 0.33000001
6.9159999 -3.29 -1.52 0.33000001
6.9330001 -3.2709999 -1.522 0.33000001
6.9380002 -3.247 -1.521 0.34
6.9569998 -3.2290001 -1.523 0.33000001
6.9619999 -3.2179999 -1.523 0.34999999
6.974 -3.197 -1.523 0.34999999
6.993 -3.1789999 -1.525 0.34999999
7.0029998 -3.158 -1.525 0.31999999
7.0180001 -3.138 -1.527 0.33000001
7.0310001 -3.1170001 -1.527 0.31999999
7.039 -3.0940001 -1.527 0.34999999
7.046 -3.0840001 -1.527 0.34999999
7.059 -3.0639999 -1.528 0.31999999
7.072 -3.043 -1.529 0.33000001
7.0780001 -3.0190001 -1.528 0.31999999
7.1040001 -3.0039999 -1.5319999 0.34
7.1100001 -2.98 -1.531 0.34999999
7.1199999 -2.971 -1.5319999 0.33000001
7.1259999 -2.947 -1.5319999 0.37
7.1389999 -2.9260001 -1.5319999 0.36000001
7.1529999 -2.9059999 -1.534 0.36000001
7.1620002 -2.8829999 -1.534 0.31999999
7.178 -2.8640001 -1.535 0.37
7.1859999 -2.8410001 -1.535 0.31999999
7.2010002 -2.8329999 -1.538 0.34
7.204 -2.809 -1.536 0.30000001
7.2189999 -2.7880001 -1.538 0.34999999
7.2350001 -2.7679999 -1.539 0.36000001
7.2470002 -2.747 -1.54 0.34
7.2680001 -2.7290001 -1.543 0.33000001
7.2839999 -2.7090001 -1.545 0.41999999
7.283 -2.6949999 -1.543 0.34999999
7.2839999 -2.6700001 -1.5420001 0.33000001
7.2930002 -2.6470001 -1.5420001 0.36000001
7.3039999 -2.625 -1.543 0.34
7.3049998 -2.5999999 -1.541 0.34
7.3210001 -2.579 -1.543 0.34
7.3509998 -2.5769999 -1.548 0.38
7.3330002 -2.5450001 -1.543 0.31999999
7.3460002 -2.5239999 -1.544 0.33000001
7.3709998 -2.506 -1.548 0.31999999
7.3639998 -2.4779999 -1.544 0.31999999
7.3790002 -2.457 -1.546 0.31999999
7.4070001 -2.441 -1.551 0.31999999
7.4000001 -2.425 -1.548 0.34
7.4109998 -2.4030001 -1.549 0.31999999
7.4359999 -2.385 -1.553 0.33000001
7.4390001 -2.3610001 -1.552 0.31999999
7.4450002 -2.3369999 -1.551 0.33000001
7.4650002 -2.3180001 -1.554 0.31999999
7.461 -2.2909999 -1.552 0.38999999
7.4650002 -2.279 -1.552 0.31999999
7.4889998 -2.2609999 -1.556 0.31999999
7.4899998 -2.2349999 -1.554 0.31999999
7.507 -2.2149999 -1.556 0.38999999
7.527 -2.1949999 -1.559 0.31999999
7.5320001 -2.171 -1.559 0.36000001
7.5310001 -2.145 -1.557 0.31
7.5380001 -2.1340001 -1.558 0.31999999
7.5370002 -2.108 -1.556 0.31999999
7.5489998 -2.086 -1.558 0.36000001
7.5669999 -2.0650001 -1.5599999 0.31
7.5599999 -2.0380001 -1.557 0.31999999
7.5760002 -2.017 -1.559 0.31999999
7.6020002 -1.998 -1.564 0.31999999
7.599 -1.984 -1.562 0.33000001
7.6149998 -1.9630001 -1.564 0.38
7.598 -1.933 -1.559 0.34
7.631 -1.916 -1.5650001 0.31
7.6420002 -1.893 -1.566 0.31999999
7.6669998 -1.874 -1.571 0.31999999
7.6729999 -1.85 -1.571 0.33000001
7.6950002 -1.842 -1.575 0.37
7.7160001 -1.822 -1.5779999 0.27000001
7.7329998 -1.8 -1.581 0.38
7.75 -1.778 -1.5829999 0.38
7.744 -1.751 -1.581 0.30000001
7.757 -1.729 -1.582 0.34999999
7.77 -1.719 -1.585 0.30000001
7.7919998 -1.698 -1.5880001 0.36000001
7.7839999 -1.671 -1.585 0.31
7.8140001 -1.651 -1.591 0.38
7.8709998 -1.637 -1.602 0.34
7.9489999 -1.627 -1.618 0.31999999
8.0349998 -1.618 -1.636 0.28
8.1450005 -1.627 -1.659 0.36000001
8.2270002 -1.6160001 -1.676 0.27000001
8.2930002 -1.602 -1.689 0.34
8.3109999 -1.5779999 -1.692 0.37
8.3179998 -1.553 -1.693 0.38999999
8.3369999 -1.529 -1.696 0.38999999
8.3430004 -1.503 -1.696 0.33000001
8.3319998 -1.488 -1.693 0.30000001
8.3389997 -1.462 -1.694 0.36000001
8.3120003 -1.4299999 -1.687 0.33000001
8.3299999 -1.406 -1.6900001 0.34
8.3290005 -1.3789999 -1.689 0.30000001
8.3120003 -1.35 -1.684 0.31
8.3280001 -1.325 -1.687 0.31
8.3339996 -1.313 -1.687 0.33000001
8.3319998 -1.286 -1.686 0.33000001
8.3570004 -1.263 -1.691 0.33000001
8.3520002 -1.235 -1.689 0.28999999
8.3520002 -1.2079999 -1.688 0.31
8.3610001 -1.183 -1.689 0.30000001
8.349 -1.168 -1.686 0.31999999
8.3339996 -1.1390001 -1.682 0.30000001
8.3310003 -1.112 -1.681 0.31999999
8.3330002 -1.086 -1.6799999 0.30000001
8.3269997 -1.058 -1.678 0.31
8.3360004 -1.033 -1.679 0.31
8.3540001 -1.0089999 -1.683 0.31999999
8.3559999 -0.995 -1.683 0.30000001
8.3590002 -0.96899998 -1.683 0.30000001
8.3800001 -0.94499999 -1.687 0.28999999
8.382 -0.91799998 -1.687 0.28999999
8.3909998 -0.89300001 -1.688 0.27000001
8.4060001 -0.86799997 -1.6900001 0.27000001
8.3990002 -0.83999997 -1.688 0.30000001
8.4130001 -0.82800001 -1.691 0.28999999
8.4139996 -0.80199999 -1.691 0.27000001
8.3950005 -0.773 -1.686 0.2
8.4359999 -0.75 -1.6950001 0.27000001
8.4189997 -0.722 -1.6900001 0.25
8.4180002 -0.69499999 -1.689 0.19
8.4610004 -0.67199999 -1.698 0.25999999
8.4460001 -0.65799999 -1.6950001 0.23999999
8.448 -0.63099998 -1.6950001 0.22
8.4680004 -0.60600001 -1.699 0.23
8.4499998 -0.57800001 -1.6950001 0.23999999
8.4440002 -0.551 -1.693 0.19
8.4689999 -0.52600002 -1.698 0.25999999
8.467 -0.49900001 -1.697 0.22
8.4729996 -0.486 -1.698 0.12
8.4610004 -0.45899999 -1.6950001 0.20999999
8.4919996 -0.433 -1.702 0.11
8.4759998 -0.40599999 -1.698 0.2
8.4569998 -0.37799999 -1.694 0.18000001
8.4899998 -0.35299999 -1.7 0.27000001
8.4709997 -0.33899999 -1.696 0.23
8.4720001 -0.31200001 -1.696 0.18000001
8.4899998 -0.28600001 -1.7 0.25999999
8.4680004 -0.259 -1.6950001 0.23999999
8.4569998 -0.23199999 -1.692 0.19
8.493 -0.206 -1.7 0.27000001
8.4659996 -0.17900001 -1.694 0.25
8.46 -0.16599999 -1.693 0.25999999
8.4650002 -0.139 -1.694 0.27000001
8.4689999 -0.113 -1.6950001 0.23
8.4460001 -0.086000003 -1.689 0.19
8.4790001 -0.059999999 -1.697 0.28
8.4499998 -0.033 -1.6900001 0.25
8.4560003 -0.0060000001 -1.692 0.25999999
8.125 0.0099999998 -1.687 0.22
8.1020002 0.035999998 -1.682 0.18000001
8.1330004 0.048999999 -1.689 0.28
8.1090002 0.074000001 -1.684 0.23
8.1049995 0.1 -1.683 0.27000001
8.1090002 0.125 -1.684 0.27000001
8.1140003 0.15099999 -1.6849999 0.28999999
8.1040001 0.176 -1.683 0.27000001
8.1049995 0.20100001 -1.683 0.28
8.1110001 0.214 -1.6849999 0.25999999
8.1099997 0.23999999 -1.6849999 0.27000001
8.1070004 0.26499999 -1.684 0.27000001
8.0950003 0.28999999 -1.682 0.30000001
8.0959997 0.31600001 -1.682 0.25999999
8.0970001 0.34099999 -1.683 0.28999999
8.0860004 0.366 -1.6799999 0.28999999
8.0749998 0.37900001 -1.678 0.30000001
8.0719995 0.40400001 -1.678 0.30000001
8.0649996 0.42899999 -1.676 0.30000001
8.0670004 0.454 -1.677 0.28999999
8.0579996 0.479 -1.676 0.28999999
8.0530005 0.50400001 -1.675 0.31999999
8.0489998 0.52999997 -1.674 0.27000001
8.0559998 0.54299998 -1.676 0.23999999
8.0270004 0.56599998 -1.67 0.17
8.0640001 0.59399998 -1.679 0.31
8.0509996 0.61900002 -1.676 0.25
8.0509996 0.64399999 -1.676 0.28999999
8.052 0.67000002 -1.677 0.28999999
8.0480003 0.69499999 -1.677 0.2
8.0749998 0.70999998 -1.683 0.25999999
8.0550003 0.73400003 -1.679 0.23999999
8.0559998 0.759 -1.6799999 0.2
8.0790005 0.787 -1.686 0.27000001
8.0670004 0.81099999 -1.683 0.23999999
8.0640001 0.83700001 -1.683 0.2
8.0790005 0.85100001 -1.687 0.25
8.0679998 0.87599999 -1.6849999 0.18000001
8.0869999 0.903 -1.6900001 0.13
8.0640001 0.926 -1.686 0.2
8.0629997 0.95200002 -1.686 0.17
8.085 0.98000002 -1.692 0.25999999
8.0629997 1.003 -1.687 0.18000001
8.0869999 1.0190001 -1.693 0.13
8.066 1.0420001 -1.689 0.2
8.0550003 1.067 -1.687 0.19
8.0790005 1.096 -1.693 0.27000001
8.0539999 1.118 -1.689 0.19
8.0679998 1.146 -1.693 0.23999999
8.0410004 1.168 -1.687 0.16
8.0780001 1.186 -1.696 0.25999999
8.0640001 1.21 -1.694 0.23
8.0389996 1.232 -1.689 0.16
8.0620003 1.261 -1.6950001 0.28
8.0430002 1.284 -1.692 0.23
8.0179996 1.306 -1.687 0.14
8.0380001 1.335 -1.693 0.28999999
8.0319996 1.347 -1.692 0.23
8.0030003 1.368 -1.686 0.17
8.0200005 1.397 -1.691 0.28999999
8.0059996 1.421 -1.689 0.25
8 1.446 -1.688 0.25999999
7.9889998 1.47 -1.687 0.25
7.9580002 1.477 -1.6799999 0.18000001
7.9840002 1.508 -1.687 0.30000001
7.9699998 1.531 -1.6849999 0.25
7.9510002 1.553 -1.682 0.25999999
7.9499998 1.579 -1.683 0.30000001
7.9429998 1.604 -1.683 0.27000001
7.9439998 1.63 -1.684 0.30000001
7.9489999 1.6569999 -1.686 0.30000001
7.9289999 1.666 -1.682 0.25999999
7.927 1.691 -1.683 0.30000001
7.9260001 1.717 -1.684 0.33000001
7.8990002 1.737 -1.679 0.25
7.8839998 1.76 -1.677 0.19
7.875 1.784 -1.676 0.34999999
7.8699999 1.796 -1.676 0.36000001
7.8639998 1.821 -1.676 0.37
7.849 1.8430001 -1.673 0.33000001
7.8449998 1.868 -1.674 0.47999999
7.8559999 1.897 -1.678 0.40000001
7.8369999 1.918 -1.675 0.31
7.8439999 1.946 -1.678 0.33000001
7.8169999 1.9529999 -1.6720001 0.25999999
7.8309999 1.982 -1.677 0.31
7.8309999 2.0079999 -1.678 0.31999999
7.8210001 2.0320001 -1.677 0.28999999
7.8200002 2.0580001 -1.679 0.31
7.802 2.0799999 -1.676 0.27000001
7.8080001 2.0940001 -1.678 0.31999999
7.8070002 2.1199999 -1.679 0.25
7.789 2.142 -1.677 0.34
7.7639999 2.161 -1.673 0.27000001
7.7740002 2.1900001 -1.676 0.25
7.789 2.221 -1.682 0.30000001
7.7670002 2.2409999 -1.678 0.25999999
7.7600002 2.2520001 -1.677 0.31999999
7.757 2.2780001 -1.678 0.28999999
7.7459998 2.3010001 -1.677 0.30000001
7.7350001 2.3239999 -1.676 0.30000001
7.744 2.3529999 -1.6799999 0.31999999
7.7410002 2.3789999 -1.681 0.28999999
7.7389998 2.405 -1.683 0.31
7.7270002 2.415 -1.681 0.30000001
7.7329998 2.4430001 -1.684 0.30000001
7.7270002 2.4679999 -1.684 0.30000001
7.7140002 2.49 -1.683 0.25
7.6929998 2.51 -1.6799999 0.30000001
7.7069998 2.5420001 -1.6849999 0.28999999
7.6900001 2.563 -1.683 0.25
7.6880002 2.576 -1.683 0.30000001
7.6939998 2.605 -1.687 0.27000001
7.6900001 2.6300001 -1.688 0.25
7.6700001 2.651 -1.6849999 0.27000001
7.6789999 2.6800001 -1.689 0.30000001
7.652 2.698 -1.6849999 0.27000001
7.6539998 2.7260001 -1.687 0.28
7.6550002 2.74 -1.689 0.27000001
7.6279998 2.757 -1.684 0.27000001
7.6220002 2.7820001 -1.6849999 0.27000001
7.6350002 2.8139999 -1.6900001 0.25
7.6220002 2.8369999 -1.689 0.28
7.6100001 2.859 -1.688 0.28
7.6090002 2.8729999 -1.689 0.25999999
7.5869999 2.892 -1.686 0.25999999
7.5939999 2.9219999 -1.6900001 0.27000001
7.5910001 2.948 -1.691 0.25999999
7.5780001 2.97 -1.6900001 0.28999999
7.5700002 2.9949999 -1.691 0.27000001
7.5679998 3.0209999 -1.693 0.28999999
7.5500002 3.0280001 -1.689 0.28
7.539 3.0510001 -1.689 0.28
7.5419998 3.0799999 -1.692 0.28999999
7.5229998 3.0999999 -1.6900001 0.31
7.5029998 3.119 -1.687 0.25999999
7.5110002 3.1500001 -1.692 0.34
7.4829998 3.1659999 -1.687 0.27000001
7.4829998 3.1800001 -1.689 0.31
7.4790001 3.2060001 -1.6900001 0.28
7.4489999 3.221 -1.6849999 0.28
7.4489999 3.2490001 -1.688 0.33000001
7.4390001 3.2720001 -1.688 0.27000001
7.4200001 3.2920001 -1.686 0.28999999
7.3920002 3.3069999 -1.681 0.28
7.4169998 3.332 -1.689 0.34999999
7.3829999 3.345 -1.683 0.28
7.3779998 3.3710001 -1.684 0.31
7.3530002 3.3870001 -1.681 0.28999999
7.355 3.4159999 -1.684 0.34
7.3410001 3.438 -1.683 0.31999999
7.3239999 3.4579999 -1.682 0.31999999
7.3189998 3.47 -1.682 0.27000001
7.322 3.4990001 -1.6849999 0.38
7.3010001 3.517 -1.683 0.25999999
7.2950001 3.543 -1.684 0.31
7.2849998 3.566 -1.684 0.33000001
7.2690001 3.5869999 -1.683 0.31
7.27 3.602 -1.6849999 0.30000001
7.257 3.6240001 -1.684 0.30000001
7.2490001 3.648 -1.6849999 0.30000001
7.2340002 3.6689999 -1.684 0.34999999
7.2280002 3.694 -1.686 0.25999999
7.2150002 3.7160001 -1.6849999 0.28999999
7.2080002 3.7420001 -1.686 0.28999999
7.197 3.75 -1.6849999 0.31999999
7.1939998 3.777 -1.687 0.25
7.1820002 3.8 -1.687 0.28999999
7.1680002 3.822 -1.687 0.30000001
7.158 3.845 -1.687 0.30000001
7.1350002 3.862 -1.6849999 0.27000001
7.1279998 3.872 -1.684 0.30000001
7.1170001 3.895 -1.6849999 0.31999999
7.1069999 3.9189999 -1.6849999 0.30000001
7.0939999 3.941 -1.6849999 0.28999999
7.0949998 3.971 -1.689 0.33000001
7.085 3.994 -1.689 0.28999999
7.0669999 4.013 -1.688 0.28999999
7.0510001 4.0339999 -1.687 0.28999999
7.04 4.0419998 -1.686 0.25
7.02 4.0599999 -1.684 0.28999999
7.0209999 4.0900002 -1.687 0.28999999
7.006 4.1110001 -1.687 0.28
6.9899998 4.131 -1.686 0.27000001
6.9889998 4.1599998 -1.689 0.23999999
6.9590001 4.1570001 -1.683 0.18000001
6.967 4.1919999 -1.689 0.30000001
6.954 4.2140002 -1.689 0.25
6.9460001 4.2389998 -1.6900001 0.25999999
6.914 4.2490001 -1.6849999 0.18000001
6.9310002 4.289 -1.693 0.30000001
6.915 4.3099999 -1.693 0.22
6.8720002 4.2979999 -1.683 0.17
6.902 4.3470001 -1.694 0.30000001
6.8670001 4.355 -1.689 0.23
6.8579998 4.3790002 -1.6900001 0.25999999
6.8520002 4.4060001 -1.692 0.25999999
6.8299999 4.4219999 -1.6900001 0.28
6.8179998 4.4450002 -1.6900001 0.28
6.8140001 4.4580002 -1.691 0.28999999
6.7950001 4.4759998 -1.6900001 0.28
6.7909999 4.5040002 -1.693 0.25999999
6.7719998 4.5219998 -1.691 0.25
6.7620001 4.546 -1.693 0.31999999
6.7449999 4.5650001 -1.692 0.28
6.7389998 4.5770001 -1.692 0.28999999
6.7179999 4.5939999 -1.6900001 0.27000001
6.71 4.619 -1.692 0.31
6.6939998 4.6389999 -1.692 0.30000001
6.6700001 4.6539998 -1.689 0.30000001
6.6440001 4.6669998 -1.686 0.28
6.6360002 4.6919999 -1.688 0.30000001
6.6220002 4.698 -1.686 0.28999999
6.6009998 4.7140002 -1.684 0.28
6.6020002 4.7459998 -1.689 0.36000001
6.5739999 4.7579999 -1.6849999 0.28999999
6.5469999 4.7690001 -1.682 0.27000001
6.546 4.8000002 -1.686 0.37
6.52 4.8130002 -1.683 0.28999999
6.5029998 4.816 -1.6799999 0.31
6.4910002 4.8390002 -1.681 0.30000001
6.4770002 4.8600001 -1.681 0.31
6.4559999 4.8759999 -1.679 0.28999999
6.4429998 4.8990002 -1.6799999 0.34999999
6.4250002 4.9159999 -1.679 0.30000001
6.4219999 4.9460001 -1.683 0.34
6.4200001 4.961 -1.6849999 0.36000001
6.3839998 4.9660001 -1.679 0.28999999
6.355 4.9749999 -1.675 0.28
6.3670001 5.0159998 -1.683 0.34999999
6.336 5.0240002 -1.679 0.34999999
6.3119998 5.0380001 -1.676 0.34
6.309 5.0679998 -1.6799999 0.34
6.2870002 5.0669999 -1.676 0.31999999
6.276 5.0900002 -1.677 0.38
6.2600002 5.1100001 -1.677 0.28999999
6.237 5.1240001 -1.676 0.38
6.2179999 5.1409998 -1.675 0.30000001
6.2140002 5.171 -1.678 0.33000001
6.1869998 5.1820002 -1.675 0.38999999
6.1700001 5.184 -1.673 0.31
6.1719999 5.2179999 -1.678 0.30000001
6.1690001 5.2490001 -1.682 0.30000001
6.1430001 5.2610002 -1.679 0.34
6.105 5.2610002 -1.673 0.41
6.0900002 5.2810001 -1.673 0.41
6.0900002 5.2989998 -1.676 0.41999999
6.0560002 5.302 -1.67 0.44999999
6.0289998 5.3119998 -1.6670001 0.30000001
6.0110002 5.3299999 -1.6670001 0.55000001
5.9780002 5.335 -1.6619999 0.25
5.9549999 5.348 -1.66 0.51999998
5.928 5.3579998 -1.6569999 0.34
5.888 5.3379998 -1.648 0.50999999
5.842 5.3299999 -1.6390001 0.41
5.8080001 5.3330002 -1.6339999 0.44
5.7709999 5.3330002 -1.628 0.28999999
5.7290001 5.3270001 -1.62 0.41999999
5.7290001 5.3610001 -1.625 0.34999999
5.7059999 5.3740001 -1.623 0.55000001
5.677 5.3629999 -1.617 0.37
5.6409998 5.3629999 -1.6109999 0.38999999
5.612 5.368 -1.607 0.31999999
5.5739999 5.3660002 -1.601 0.31999999
5.526 5.3540001 -1.591 0.52999997
5.5029998 5.3649998 -1.589 0.47
5.4949999 5.3909998 -1.592 0.2
5.447 5.3610001 -1.58 0.51999998
5.461 5.4089999 -1.589 0.36000001
5.3699999 5.3530002 -1.566 0.5
5.395 5.4109998 -1.579 0.31999999
5.3200002 5.3699999 -1.561 0.44999999
5.3280001 5.4120002 -1.569 0.38999999
5.2849998 5.402 -1.561 0.41
5.289 5.4229999 -1.5650001 0.34
5.2779999 5.4460001 -1.567 0.44
5.2529998 5.454 -1.564 0.41
5.2449999 5.4809999 -1.567 0.34999999
5.2189999 5.487 -1.564 0.46000001
5.2059999 5.5079999 -1.5650001 0.38
5.1700001 5.4879999 -1.557 0.41
5.1490002 5.5 -1.5549999 0.41
5.1409998 5.526 -1.559 0.41999999
5.1110001 5.5289998 -1.5549999 0.41
5.0770001 5.526 -1.549 0.38999999
5.053 5.5349998 -1.5470001 0.41
5.0549998 5.573 -1.553 0.33000001
5.0419998 5.5760002 -1.552 0.51999998
5.0180001 5.585 -1.55 0.34999999
4.9770002 5.5739999 -1.5420001 0.5
4.973 5.605 -1.546 0.27000001
4.9419999 5.6059999 -1.5420001 0.58999997
4.9390001 5.6370001 -1.5470001 0.27000001
4.902 5.631 -1.54 0.50999999
4.8839998 5.6279998 -1.5369999 0.34999999
4.8559999 5.632 -1.534 0.44999999
4.8249998 5.632 -1.529 0.37
4.7950001 5.632 -1.525 0.46000001
4.776 5.6459999 -1.525 0.34999999
4.744 5.645 -1.52 0.41
4.7459998 5.6820002 -1.526 0.46000001
4.75 5.7059999 -1.531 0.30000001
4.7140002 5.698 -1.525 0.51999998
4.6919999 5.7080002 -1.523 0.36000001
4.6589999 5.7049999 -1.518 0.46000001
4.6339998 5.711 -1.515 0.36000001
4.605 5.711 -1.512 0.38
4.579 5.717 -1.5089999 0.47999999
4.553 5.7030001 -1.503 0.44
4.5500002 5.7350001 -1.508 0.28999999
4.5100002 5.7220001 -1.5 0.47999999
4.52 5.7709999 -1.51 0.28999999
4.4660001 5.7389998 -1.497 0.43000001
4.349 5.6269999 -1.462 0.40000001
4.283 5.5770001 -1.444 0.33000001
4.2270002 5.5240002 -1.427 0.43000001
4.1919999 5.5139999 -1.42 0.34999999
4.1620002 5.5100002 -1.415 0.47
4.1570001 5.54 -1.42 0.36000001
4.1630001 5.5840001 -1.429 0.56999999
4.1399999 5.5900002 -1.427 0.27000001
4.099 5.552 -1.415 0.5
4.119 5.6170001 -1.429 0.38
4.099 5.6269999 -1.428 0.5
4.0840001 5.6430001 -1.429 0.28
4.0999999 5.7010002 -1.442 0.54000002
4.1739998 5.8429999 -1.477 0.25999999
4.2340002 5.9650002 -1.507 0.54000002
4.2350001 5.9860001 -1.511 0.44999999
4.223 6.0089998 -1.513 0.30000001
4.1939998 6.0079999 -1.5089999 0.41999999
4.1479998 5.9829998 -1.499 0.44
4.1880002 6.0809999 -1.522 0.27000001
4.1799998 6.1100001 -1.526 0.47999999
4.132 6.0809999 -1.515 0.34999999
4.1240001 6.1100001 -1.5190001 0.43000001
4.112 6.1129999 -1.5190001 0.38999999
4.1009998 6.138 -1.522 0.31999999
4.1090002 6.191 -1.5319999 0.47999999
4.066 6.1700001 -1.523 0.30000001
4.0370002 6.1680002 -1.5190001 0.46000001
4.0209999 6.1849999 -1.521 0.36000001
4.0250001 6.2340002 -1.53 0.38
4.0170002 6.244 -1.531 0.44
4.026 6.3000002 -1.543 0.25
4.027 6.3439999 -1.551 0.54000002
3.9790001 6.3140001 -1.54 0.31999999
3.9530001 6.3169999 -1.5369999 0.43000001
3.9200001 6.3080001 -1.5319999 0.41
3.9159999 6.3239999 -1.534 0.41999999
3.902 6.3460002 -1.5369999 0.28999999
3.9070001 6.3979998 -1.5470001 0.47999999
3.8699999 6.382 -1.54 0.22
3.865 6.4190001 -1.546 0.44
3.842 6.4260001 -1.545 0.43000001
3.8210001 6.4380002 -1.545 0.43000001
3.803 6.4310002 -1.5420001 0.47
3.799 6.4699998 -1.549 0.30000001
3.773 6.4710002 -1.546 0.54000002
3.753 6.4850001 -1.546 0.25
3.724 6.4809999 -1.5420001 0.47999999
3.71 6.5029998 -1.545 0.34
3.707 6.5469999 -1.553 0.46000001
3.7060001 6.5679998 -1.557 0.41
3.674 6.559 -1.552 0.38999999
3.6489999 6.5640001 -1.55 0.34
3.6240001 6.5669999 -1.548 0.43000001
3.605 6.5819998 -1.549 0.38
3.5929999 6.6079998 -1.553 0.49000001
3.5669999 6.6110001 -1.551 0.28
3.552 6.6079998 -1.549 0.56
3.5550001 6.6620002 -1.559 0.28
3.51 6.6290002 -1.548 0.57999998
3.4630001 6.5900002 -1.535 0.25999999
3.4530001 6.6209998 -1.541 0.51999998
3.4360001 6.6409998 -1.543 0.22
3.418 6.6570001 -1.544 0.50999999
3.4260001 6.697 -1.553 0.30000001
3.395 6.6880002 -1.548 0.49000001
3.3150001 6.5819998 -1.5190001 0.25
3.3440001 6.6919999 -1.544 0.5
3.3499999 6.757 -1.557 0.31999999
3.2750001 6.6589999 -1.53 0.43000001
3.276 6.7129998 -1.541 0.28999999
3.2679999 6.7249999 -1.543 0.47
3.257 6.7540002 -1.548 0.34
3.2130001 6.7189999 -1.536 0.46000001
3.27 6.8909998 -1.576 0.31
3.3429999 7.0999999 -1.626 0.17
3.464 7.415 -1.7 0.27000001
3.395 7.3280001 -1.676 0.2
3.5150001 7.6170001 -1.7460001 0.28999999
3.4979999 7.6440001 -1.75 0.27000001
3.4719999 7.6490002 -1.749 0.28
3.448 7.6599998 -1.749 0.27000001
3.425 7.6729999 -1.749 0.28999999
3.401 7.684 -1.749 0.28
3.385 7.7140002 -1.7539999 0.25999999
3.3710001 7.7160001 -1.753 0.27000001
3.346 7.724 -1.753 0.30000001
3.3239999 7.7399998 -1.7539999 0.25999999
3.299 7.7490001 -1.753 0.28
3.2780001 7.7659998 -1.755 0.27000001
3.257 7.7859998 -1.757 0.28
3.2290001 7.7870002 -1.755 0.27000001
3.217 7.7919998 -1.755 0.27000001
3.197 7.8130002 -1.758 0.27000001
3.1619999 7.7969999 -1.752 0.16
3.151 7.842 -1.76 0.30000001
3.128 7.855 -1.761 0.25
3.0880001 7.8249998 -1.751 0.16
2.365 6.066 -1.3279999 0.28999999
2.3659999 6.0949998 -1.334 0.28999999
2.3410001 6.0879998 -1.33 0.57999998
2.332 6.1209998 -1.336 0.38999999
2.9979999 7.9229999 -1.7640001 0.27000001
2.9679999 7.9190001 -1.761 0.28999999
2.9419999 7.9250002 -1.76 0.28
2.9230001 7.9520001 -1.765 0.28999999
2.911 7.9569998 -1.765 0.25
2.8859999 7.9660001 -1.765 0.30000001
2.8659999 7.9899998 -1.768 0.27000001
2.8340001 7.98 -1.7640001 0.27000001
2.812 7.9970002 -1.766 0.28
2.7909999 8.0179996 -1.7690001 0.28999999
2.7690001 8.0340004 -1.77 0.25999999
2.756 8.0389996 -1.77 0.28
2.7309999 8.0469999 -1.77 0.28999999
2.698 8.0340004 -1.765 0.27000001
2.677 8.0530005 -1.768 0.27000001
2.6570001 8.0799999 -1.772 0.28
2.6300001 8.0830002 -1.771 0.28
2.6170001 8.0869999 -1.771 0.25
2.5929999 8.099 -1.772 0.28999999
2.569 8.1110001 -1.773 0.25999999
2.5420001 8.1129999 -1.771 0.30000001
2.52 8.132 -1.774 0.27000001
2.4879999 8.1210003 -1.77 0.28999999
2.4660001 8.1389999 -1.772 0.28999999
2.4549999 8.1499996 -1.773 0.28
2.427 8.1499996 -1.772 0.25
2.404 8.1669998 -1.774 0.28
2.3800001 8.1780005 -1.775 0.30000001
2.3499999 8.1709995 -1.771 0.28999999
2.3239999 8.1759996 -1.771 0.28999999
2.306 8.2119999 -1.777 0.25999999
2.289 8.2019997 -1.774 0.28
2.2679999 8.224 -1.778 0.25
2.2420001 8.2329998 -1.778 0.31999999
2.2160001 8.2360001 -1.777 0.25999999
2.191 8.2489996 -1.779 0.28
2.1700001 8.2749996 -1.783 0.28
2.1400001 8.2650003 -1.779 0.31
2.1270001 8.2700005 -1.78 0.27000001
2.1059999 8.2950001 -1.784 0.27000001
2.079 8.2959995 -1.783 0.28
2.0550001 8.3120003 -1.785 0.27000001
2.0280001 8.3149996 -1.784 0.28999999
2.003 8.3249998 -1.785 0.30000001
1.975 8.3240004 -1.783 0.31
1.964 8.3360004 -1.785 0.25999999
1.939 8.3459997 -1.786 0.28
1.913 8.3559999 -1.7869999 0.28
1.8839999 8.349 -1.784 0.28999999
1.8609999 8.368 -1.7869999 0.27000001
1.8380001 8.3909998 -1.791 0.27000001
1.811 8.3929996 -1.79 0.28
1.799 8.401 -1.791 0.28999999
1.774 8.4130001 -1.793 0.28
1.745 8.4069996 -1.79 0.30000001
1.717 8.4060001 -1.789 0.28999999
1.697 8.4399996 -1.795 0.27000001
1.669 8.4399996 -1.794 0.27000001
1.645 8.4569998 -1.796 0.28
1.633 8.4650002 -1.798 0.30000001
1.607 8.474 -1.799 0.28
1.58 8.4750004 -1.798 0.28
1.552 8.4759998 -1.7970001 0.25999999
1.528 8.4960003 -1.8 0.31
1.502 8.5030003 -1.801 0.30000001
1.475 8.5059996 -1.8 0.28
1.4630001 8.5179996 -1.803 0.27000001
1.436 8.5170002 -1.801 0.28999999
1.41 8.5310001 -1.803 0.28999999
1.3839999 8.5369997 -1.804 0.28999999
1.3559999 8.5369997 -1.803 0.28
1.332 8.5550003 -1.806 0.28999999
1.304 8.5550003 -1.8049999 0.28999999
1.2920001 8.5670004 -1.807 0.28999999
1.266 8.573 -1.808 0.30000001
1.2359999 8.5609999 -1.804 0.28999999
1.212 8.585 -1.809 0.30000001
1.1849999 8.5860004 -1.808 0.30000001
1.159 8.5939999 -1.809 0.28
1.13 8.5839996 -1.806 0.27000001
1.119 8.6070004 -1.811 0.31999999
1.0930001 8.6140003 -1.812 0.31
1.067 8.6289997 -1.814 0.30000001
1.039 8.6269999 -1.813 0.28
1.013 8.6359997 -1.814 0.31
0.986 8.6389999 -1.814 0.28999999
0.95999998 8.6540003 -1.817 0.28999999
0.94599998 8.651 -1.816 0.28999999
0.91799998 8.6520004 -1.816 0.28999999
0.89200002 8.6630001 -1.817 0.28999999
0.86500001 8.6680002 -1.818 0.30000001
0.83700001 8.6669998 -1.817 0.28999999
0.81099999 8.6750002 -1.818 0.28
0.78399998 8.6789999 -1.819 0.30000001
0.76899999 8.6750002 -1.817 0.28999999
0.74400002 8.6929998 -1.821 0.28999999
0.71600002 8.6890001 -1.8200001 0.30000001
0.68800002 8.6890001 -1.819 0.28999999
0.66100001 8.6969995 -1.8200001 0.28
0.634 8.6960001 -1.8200001 0.30000001
0.60600001 8.6960001 -1.819 0.28999999
0.59299999 8.7060003 -1.821 0.27000001
0.56599998 8.7019997 -1.8200001 0.28
0.54000002 8.7229996 -1.824 0.25999999
0.51200002 8.7229996 -1.824 0.28999999
0.48500001 8.7229996 -1.823 0.20999999
0.458 8.7340002 -1.826 0.28
0.42899999 8.7119999 -1.8200001 0.23999999
0.41600001 8.7320004 -1.825 0.20999999
0.389 8.7309999 -1.824 0.23999999
0.36199999 8.7419996 -1.826 0.2
0.22400001 6.0710001 -1.2309999 0.12
0.205 6.0760002 -1.2309999 0.2
0.27900001 8.724 -1.822 0.12
0.167 6.0749998 -1.2309999 0.30000001
0.15700001 6.0710001 -1.23 0.25
0.138 6.0700002 -1.23 0.23999999
0.119 6.0700002 -1.23 0.28999999
0.1 6.0609999 -1.228 0.28
0.081 6.073 -1.23 0.28999999
0.061999999 6.0609999 -1.228 0.31999999
0.043000001 6.0539999 -1.226 0.28
0.033 6.0500002 -1.225 0.30000001
0.014 6.0580001 -1.227 0.33000001
-0.0049999999 6.052 -1.225 0.28
-0.024 6.04 -1.223 0.25
-0.043000001 6.0580001 -1.227 0.44999999
-0.061999999 6.0539999 -1.226 0.30000001
-0.081 6.0510001 -1.225 0.54000002
-0.090000004 6.0419998 -1.223 0.33000001
-0.109 6.0469999 -1.224 0.33000001
-0.12800001 6.039 -1.223 0.34
-0.147 6.0419998 -1.224 0.34
-0.16599999 6.04 -1.223 0.34
-0.185 6.0489998 -1.225 0.34
-0.19499999 6.0409999 -1.224 0.36000001
-0.214 6.0479999 -1.225 0.36000001
-0.233 6.0510001 -1.226 0.36000001
-0.252 6.0409999 -1.224 0.37
-0.271 6.0419998 -1.224 0.34
-0.28999999 6.0469999 -1.226 0.34999999
-0.30899999 6.0500002 -1.227 0.36000001
-0.31900001 6.053 -1.228 0.38
-0.338 6.0479999 -1.227 0.37
-0.35600001 6.04 -1.225 0.36000001
-0.37599999 6.0440001 -1.226 0.36000001
-0.39500001 6.0510001 -1.228 0.38999999
-0.414 6.053 -1.229 0.36000001
-0.433 6.0539999 -1.229 0.31999999
-0.45199999 6.039 -1.226 0.38
-0.46200001 6.0479999 -1.228 0.33000001
-0.48100001 6.0510001 -1.229 0.37
-0.5 6.0450001 -1.228 0.36000001
-0.51899999 6.0510001 -1.23 0.34999999
-0.53799999 6.0419998 -1.228 0.34
-0.55800003 6.052 -1.2309999 0.33000001
-0.56699997 6.0469999 -1.23 0.31999999
-0.58600003 6.0510001 -1.2309999 0.33000001
-0.60600001 6.0570002 -1.233 0.37
-0.625 6.0549998 -1.233 0.34999999
-0.64399999 6.0510001 -1.233 0.34
-0.66299999 6.0469999 -1.232 0.31999999
-0.68300003 6.053 -1.234 0.31999999
-0.69300002 6.0570002 -1.235 0.30000001
-0.713 6.0669999 -1.238 0.34
-0.73100001 6.053 -1.235 0.31
-0.75 6.0489998 -1.235 0.31999999
-0.77200001 6.0770001 -1.242 0.31999999
-0.792 6.0830002 -1.244 0.30000001
-0.80900002 6.0609999 -1.239 0.31
-0.81900001 6.0609999 -1.24 0.28999999
-0.83999997 6.0739999 -1.243 0.27000001
-0.85600001 6.0479999 -1.238 0.13
-0.87900001 6.073 -1.244 0.28999999
-1.284 8.7580004 -1.849 0.16
-0.917 6.0710001 -1.245 0.25999999
-1.339 8.7530003 -1.85 0.20999999
-1.368 8.7550001 -1.851 0.22
-1.3789999 8.7349997 -1.847 0.20999999
-1.4069999 8.7390003 -1.849 0.22
-1.437 8.7460003 -1.852 0.25
-1.461 8.724 -1.848 0.25
-1.49 8.7270002 -1.85 0.27000001
-1.52 8.7360001 -1.853 0.27000001
-1.535 8.7449999 -1.855 0.25999999
-1.562 8.7340002 -1.854 0.28
-1.592 8.743 -1.857 0.28
-1.615 8.7130003 -1.851 0.30000001
-1.642 8.71 -1.852 0.28999999
-1.673 8.724 -1.8559999 0.27000001
-1.701 8.7200003 -1.857 0.28999999
-1.714 8.7159996 -1.8559999 0.28
-1.743 8.7159996 -1.857 0.30000001
-1.7690001 8.7049999 -1.8559999 0.30000001
-1.798 8.7049999 -1.857 0.30000001
-1.8279999 8.7119999 -1.86 0.28999999
-1.851 8.6899996 -1.857 0.30000001
-1.8789999 8.684 -1.857 0.28999999
-1.895 8.6940002 -1.86 0.30000001
-1.918 8.6669998 -1.855 0.30000001
-1.947 8.6709995 -1.857 0.28
-1.977 8.6780005 -1.86 0.28999999
-2.003 8.6619997 -1.858 0.28999999
-2.0280001 8.6479998 -1.8559999 0.28999999
-2.059 8.6590004 -1.86 0.28999999
-2.0699999 8.6440001 -1.857 0.30000001
-2.098 8.6409998 -1.858 0.28999999
-2.1270001 8.6400003 -1.86 0.28
-2.1500001 8.6169996 -1.8559999 0.28999999
-2.1760001 8.6079998 -1.855 0.28999999
-2.2049999 8.6070004 -1.857 0.30000001
-2.2320001 8.6020002 -1.857 0.28999999
-2.2479999 8.6059999 -1.859 0.28999999
-2.276 8.6040001 -1.86 0.28999999
-2.2980001 8.5780001 -1.8559999 0.30000001
-2.3299999 8.5900002 -1.86 0.30000001
-2.3570001 8.5799999 -1.86 0.27000001
-2.382 8.5690002 -1.859 0.31
-2.4089999 8.5600004 -1.858 0.28
-2.424 8.5620003 -1.86 0.28999999
-2.4489999 8.5469999 -1.858 0.28999999
-2.4749999 8.5369997 -1.857 0.30000001
-2.506 8.5439997 -1.8609999 0.30000001
-2.529 8.5209999 -1.857 0.28999999
-2.5569999 8.5190001 -1.859 0.28999999
-2.5880001 8.5240002 -1.862 0.27000001
-2.599 8.5120001 -1.86 0.28999999
-2.6229999 8.4969997 -1.858 0.28
-2.6570001 8.5129995 -1.864 0.28
-2.675 8.4759998 -1.857 0.28
-2.7019999 8.4680004 -1.857 0.27000001
-2.733 8.474 -1.8609999 0.28
-2.756 8.4530001 -1.858 0.30000001
-2.7709999 8.4540005 -1.859 0.28999999
-2.8 8.4540005 -1.8609999 0.25999999
-2.8239999 8.4359999 -1.859 0.28
-2.8499999 8.4250002 -1.859 0.27000001
-2.8770001 8.4180002 -1.859 0.30000001
-2.9030001 8.4069996 -1.859 0.27000001
-2.927 8.3909998 -1.857 0.28999999
-2.9460001 8.4049997 -1.8609999 0.27000001
-2.967 8.3789997 -1.857 0.27000001
-2.9920001 8.368 -1.857 0.30000001
-3.0239999 8.3730001 -1.86 0.28
-3.0450001 8.3500004 -1.857 0.27000001
-3.0710001 8.3389997 -1.857 0.28999999
-3.1010001 8.3400002 -1.86 0.25999999
-3.1159999 8.3389997 -1.86 0.27000001
-3.142 8.3290005 -1.86 0.27000001
-3.171 8.3269997 -1.862 0.28999999
-3.1889999 8.2969999 -1.857 0.28999999
-3.2190001 8.2959995 -1.86 0.25999999
-3.247 8.2910004 -1.8609999 0.31
-3.2679999 8.2679996 -1.858 0.25999999
-3.2839999 8.2700005 -1.86 0.25999999
-3.303 8.243 -1.8559999 0.2
-3.3310001 8.2379999 -1.857 0.30000001
-3.352 8.2150002 -1.854 0.25
-2.517 6.0419998 -1.335 0.34999999
-2.5420001 6.0489998 -1.339 0.38
-2.5120001 5.9489999 -1.316 0.37
-3.47 8.1709995 -1.855 0.20999999
-3.4890001 8.1450005 -1.851 0.19
-3.523 8.1540003 -1.8559999 0.28999999
-3.539 8.1210003 -1.851 0.25
-3.5639999 8.1079998 -1.85 0.25999999
-3.592 8.1029997 -1.852 0.28
-3.6029999 8.0930004 -1.851 0.25
-3.625 8.0749998 -1.849 0.25999999
-3.6589999 8.0810003 -1.853 0.25
-3.6670001 8.0319996 -1.844 0.17
-3.7049999 8.0489998 -1.851 0.30000001
-3.73 8.0360003 -1.851 0.25
-3.756 8.026 -1.851 0.27000001
-3.757 7.9949999 -1.845 0.18000001
-3.7939999 8.0080004 -1.851 0.28999999
-3.809 7.9749999 -1.846 0.23999999
-3.829 7.9520001 -1.8430001 0.17
-3.8710001 7.9749999 -1.852 0.30000001
-3.885 7.9419999 -1.847 0.25
-3.9089999 7.928 -1.847 0.25
-3.918 7.9130001 -1.844 0.16
-3.9489999 7.9130001 -1.847 0.28999999
-3.967 7.888 -1.844 0.25
-3.9960001 7.8829999 -1.846 0.28
-4.0159998 7.862 -1.844 0.27000001
-4.0430002 7.8540001 -1.845 0.28
-4.0650001 7.836 -1.844 0.27000001
-4.0760002 7.8260002 -1.8430001 0.25999999
-4.1059999 7.8239999 -1.846 0.23999999
-4.1269999 7.8039999 -1.844 0.28999999
-4.1500001 7.789 -1.8430001 0.25999999
-4.1719999 7.7709999 -1.842 0.25999999
-4.2020001 7.7680001 -1.845 0.28
-4.2290001 7.7600002 -1.846 0.27000001
-4.2379999 7.7480001 -1.845 0.25999999
-4.2610002 7.7319999 -1.844 0.27000001
-4.2940001 7.7340002 -1.848 0.25
-4.3049998 7.6960001 -1.842 0.16
-4.336 7.6960001 -1.845 0.31
-4.349 7.6620002 -1.84 0.23999999
-4.375 7.652 -1.841 0.27000001
-4.3860002 7.6430001 -1.84 0.27000001
-4.4089999 7.6279998 -1.84 0.27000001
-4.4320002 7.612 -1.84 0.25999999
-4.4580002 7.6020002 -1.84 0.27000001
-4.4749999 7.5760002 -1.837 0.27000001
-4.4990001 7.5619998 -1.837 0.27000001
-4.52 7.5440001 -1.836 0.28999999
-4.5370002 7.5450001 -1.839 0.25999999
-4.5510001 7.5139999 -1.834 0.17
-4.5819998 7.513 -1.8380001 0.31999999
-4.599 7.487 -1.835 0.20999999
-4.625 7.4780002 -1.836 0.28999999
-4.6500001 7.4650002 -1.836 0.28999999
-4.6700001 7.4450002 -1.835 0.28999999
-4.6810002 7.4359999 -1.835 0.27000001
-4.7020001 7.4180002 -1.834 0.28999999
-4.7210002 7.3969998 -1.832 0.28
-4.7069998 7.323 -1.816 0.30000001
-4.6529999 7.1880002 -1.785 0.25
-4.7839999 7.342 -1.83 0.28999999
-4.7989998 7.3140001 -1.826 0.31999999
-4.6869998 7.1170001 -1.776 0.25999999
-4.5760002 6.9000001 -1.722 0.28
-4.5749998 6.8520002 -1.7130001 0.15000001
-4.5279999 6.7350001 -1.6849999 0.22
-4.3280001 6.3920002 -1.597 0.47999999
-4.4549999 6.5370002 -1.6390001 0.20999999
-4.52 6.5869999 -1.6569999 0.57999998
-4.5339999 6.586 -1.659 0.38999999
-4.494 6.4840002 -1.635 0.22
-4.4689999 6.4039998 -1.617 0.50999999
-4.5300002 6.4489999 -1.633 0.25
-4.5050001 6.369 -1.615 0.61000001
-4.5170002 6.3439999 -1.612 0.25
-4.5339999 6.3260002 -1.6109999 0.49000001
-4.592 6.3860002 -1.6289999 0.44
-4.6560001 6.4330001 -1.646 0.36000001
-4.6220002 6.3429999 -1.626 0.41999999
-4.645 6.3330002 -1.627 0.28
-4.6339998 6.276 -1.615 0.47
-4.7420001 6.381 -1.648 0.22
-4.7420001 6.3610001 -1.645 0.51999998
-4.7449999 6.322 -1.638 0.36000001
-4.7880001 6.3379998 -1.647 0.38999999
-4.823 6.3439999 -1.652 0.43000001
-4.7399998 6.1929998 -1.615 0.31999999
-4.6230001 6 -1.5650001 0.43000001
-4.6399999 5.9819999 -1.564 0.23999999
-4.6890001 6.006 -1.575 0.56
-4.7579999 6.0760002 -1.596 0.23
-4.6890001 5.9489999 -1.5650001 0.47999999
-4.71 5.9369998 -1.5650001 0.34
-4.7969999 6.0079999 -1.59 0.43000001
-4.75 5.9099998 -1.566 0.37
-4.8590002 6.0079999 -1.599 0.44
-4.9099998 6.0320001 -1.61 0.38
-4.8330002 5.9180002 -1.579 0.41
-4.8099999 5.8520002 -1.5650001 0.28999999
-4.7930002 5.7940001 -1.552 0.55000001
-4.823 5.7930002 -1.556 0.31999999
-4.8649998 5.8060002 -1.5650001 0.54000002
-4.868 5.7729998 -1.559 0.34999999
-4.8829999 5.7550001 -1.559 0.43000001
-4.8870001 5.7410002 -1.557 0.38
-4.9320002 5.757 -1.566 0.44999999
-4.9770002 5.7719998 -1.575 0.33000001
-4.9840002 5.7449999 -1.572 0.55000001
-4.9949999 5.7199998 -1.569 0.34999999
-5.0050001 5.6960001 -1.566 0.38999999
-5.0960002 5.7639999 -1.591 0.38
-5.0999999 5.75 -1.589 0.43000001
-5.1079998 5.7220001 -1.586 0.38999999
-5.1560001 5.7399998 -1.596 0.38999999
-5.1700001 5.7189999 -1.595 0.38999999
-5.1939998 5.71 -1.597 0.34
-5.224 5.7069998 -1.601 0.58999997
-5.2309999 5.6789999 -1.597 0.25999999
-5.2579999 5.6890001 -1.603 0.51999998
-5.2849998 5.6830001 -1.6059999 0.30000001
-5.3099999 5.6750002 -1.609 0.50999999
-5.3460002 5.6760001 -1.614 0.31999999
-5.3540001 5.6500001 -1.6109999 0.63999999
-5.3769999 5.638 -1.613 0.25
-5.3839998 5.6100001 -1.609 0.50999999
-5.4060001 5.6160002 -1.614 0.28999999
-5.3940001 5.5679998 -1.604 0.44999999
-5.3979998 5.5370002 -1.6 0.41
-5.4489999 5.5549998 -1.6109999 0.43000001
-5.4289999 5.4990001 -1.599 0.38999999
-5.4759998 5.5120001 -1.608 0.44999999
-5.4980001 5.5170002 -1.612 0.38
-5.5180001 5.5029998 -1.613 0.46000001
-5.5619998 5.5120001 -1.622 0.36000001
-5.5999999 5.5149999 -1.628 0.44999999
-5.6700001 5.5489998 -1.645 0.31
-5.6849999 5.5289998 -1.6440001 0.5
-5.7290001 5.5370002 -1.652 0.31
-5.73 5.5209999 -1.65 0.55000001
-5.7579999 5.5120001 -1.653 0.44999999
-5.7719998 5.4920001 -1.652 0.27000001
-5.8010001 5.4840002 -1.656 0.44
-5.8140001 5.4619999 -1.654 0.38
-5.875 5.4850001 -1.668 0.30000001
-5.9029999 5.4770002 -1.671 0.51999998
-5.9419999 5.4790001 -1.678 0.25
-5.9489999 5.4679999 -1.677 0.49000001
-5.9970002 5.4770002 -1.686 0.36000001
-6.0019999 5.448 -1.683 0.44999999
-6.0180001 5.427 -1.683 0.34
-6.0489998 5.421 -1.687 0.47
-6.072 5.408 -1.689 0.38
-6.0960002 5.395 -1.691 0.43000001
-6.0929999 5.375 -1.687 0.41
-6.1570001 5.3969998 -1.701 0.41
-6.1869998 5.3889999 -1.705 0.38
-6.2259998 5.3889999 -1.712 0.44999999
-6.2189999 5.349 -1.705 0.40000001
-6.2550001 5.3460002 -1.71 0.33000001
-6.277 5.348 -1.714 0.5
-6.283 5.3189998 -1.711 0.37
-6.303 5.302 -1.712 0.38999999
-6.3439999 5.302 -1.719 0.31999999
-6.381 5.3000002 -1.725 0.44999999
-6.4130001 5.2919998 -1.729 0.30000001
-6.4369998 5.2779999 -1.732 0.38999999
-6.4749999 5.2930002 -1.74 0.27000001
-6.4920001 5.2729998 -1.74 0.38
-6.5450001 5.2820001 -1.751 0.28
