# .PCD v0.7 - Point Cloud Data file format
VERSION 0.7
FIELDS x y z intensity
SIZE 4 4 4 4
TYPE F F F F
COUNT 1 1 1 1
WIDTH 1410
HEIGHT 1
VIEWPOINT 0 0 0 1 0 0 0
POINTS 1410
DATA ascii
6.3119998 -10.893 -2.109 0.11
6.355 -10.889 -2.112 0.2
6.4000001 -10.886 -2.1159999 0.1
6.4419999 -10.879 -2.118 0.18000001
6.4759998 -10.859 -2.118 0.050000001
6.5100002 -10.838 -2.118 0.17
6.5079999 -10.796 -2.112 0.050000001
6.5430002 -10.777 -2.112 0.17
6.5929999 -10.783 -2.118 0.2
6.7020001 -10.885 -2.1429999 0.1
6.862 -11.066 -2.1860001 0.16
6.9050002 -11.056 -2.188 0.20999999
6.9320002 -11.023 -2.1860001 0.1
6.9429998 -11.002 -2.1830001 0.18000001
6.9629998 -10.957 -2.1789999 0.12
6.9790001 -10.907 -2.1730001 0.30000001
6.9959998 -10.858 -2.1670001 0.23
7.0879998 -10.925 -2.1860001 0.11
7.1230001 -10.905 -2.1860001 0.18000001
7.0960002 -10.826 -2.1719999 0.050000001
7.1030002 -10.763 -2.1630001 0.18000001
7.1259999 -10.724 -2.1600001 0.2
7.1440001 -10.679 -2.155 0.090000004
7.1620002 -10.633 -2.1500001 0.18000001
7.1609998 -10.56 -2.1389999 0.20999999
7.171 -10.504 -2.132 0.19
7.177 -10.478 -2.1289999 0.25
7.217 -10.465 -2.131 0.28999999
7.2680001 -10.468 -2.1359999 0.33000001
7.3369999 -10.497 -2.148 0.30000001
7.4330001 -10.564 -2.1670001 0.18000001
7.5149999 -10.608 -2.1819999 0.14
7.5050001 -10.525 -2.1689999 0.2
7.4990001 -10.481 -2.1619999 0.2
7.5320001 -10.457 -2.1619999 0.13
7.5570002 -10.422 -2.1589999 0.2
7.5170002 -10.3 -2.138 0.18000001
7.5079999 -10.221 -2.125 0.25999999
7.5489998 -10.208 -2.128 0.25
7.6020002 -10.213 -2.1340001 0.20999999
7.6209998 -10.172 -2.1300001 0.27000001
7.625 -10.144 -2.1270001 0.2
7.6799998 -10.15 -2.1340001 0.12
7.7309999 -10.151 -2.1389999 0.20999999
7.756 -10.119 -2.1370001 0.27000001
7.7810001 -10.085 -2.135 0
7.7210002 -9.9420004 -2.109 0
7.6799998 -9.8590002 -2.0929999 0
7.4070001 -9.448 -2.0050001 0
7.362 -9.3299999 -1.984 0.029999999
7.4070001 -9.3269997 -1.989 0.07
7.4489999 -9.3190002 -1.992 0.090000004
7.4889998 -9.3100004 -1.995 0.18000001
7.5409999 -9.3140001 -2.0009999 0.1
7.566 -9.3149996 -2.0050001 0.19
7.6279998 -9.3310003 -2.0139999 0.11
7.6690001 -9.3210001 -2.017 0.19
7.724 -9.3290005 -2.0239999 0.11
7.7690001 -9.3219995 -2.0280001 0.19
7.8280001 -9.3339996 -2.0369999 0.11
7.8769999 -9.3319998 -2.0420001 0.17
7.9070001 -9.3380003 -2.046 0.20999999
7.9580002 -9.3380003 -2.052 0.1
8 -9.3280001 -2.056 0.18000001
8.0419998 -9.3179998 -2.059 0.2
8.1040001 -9.3290005 -2.0680001 0.1
8.1429996 -9.316 -2.0710001 0.18000001
8.1969995 -9.3179998 -2.0769999 0.2
8.2320004 -9.3269997 -2.0829999 0.1
8.2790003 -9.3219995 -2.0869999 0.18000001
8.3310003 -9.3210001 -2.0929999 0.19
8.3669996 -9.302 -2.095 0.090000004
8.4090004 -9.29 -2.099 0.090000004
8.4580002 -9.2860003 -2.1040001 0.090000004
8.5150003 -9.2889996 -2.1110001 0.15000001
8.5629997 -9.3120003 -2.1199999 0.23
8.5830002 -9.2749996 -2.1170001 0.16
8.6110001 -9.2469997 -2.1170001 0.23
8.6090002 -9.1870003 -2.109 0.20999999
8.6260004 -9.1470003 -2.1059999 0.12
8.6660004 -9.132 -2.109 0.2
8.71 -9.1210003 -2.1129999 0.17
8.8509998 -9.2390003 -2.145 0.25999999
8.927 -9.2589998 -2.1570001 0.23
8.9720001 -9.2480001 -2.161 0.27000001
9.0209999 -9.2399998 -2.1659999 0.23
9.0679998 -9.2290001 -2.171 0.23
9.0740004 -9.1780005 -2.165 0.17
9.1120005 -9.1879997 -2.171 0.25999999
9.1260004 -9.1440001 -2.1670001 0.20999999
9.1219997 -9.0830002 -2.1589999 0.28
9.1269999 -9.0310001 -2.1530001 0.19
9.1999998 -9.0469999 -2.165 0.30000001
9.198 -8.9870005 -2.1570001 0.23
9.2399998 -8.9720001 -2.1600001 0.27000001
9.2060003 -8.9110003 -2.1489999 0.23
9.2209997 -8.8699999 -2.145 0.20999999
9.2530003 -8.8450003 -2.1459999 0.31999999
6.9580002 -6.618 -1.579 0.17
6.993 -6.6100001 -1.582 0.34
9.2770004 -8.7019997 -2.132 0.18000001
7.1149998 -6.6409998 -1.602 0.41
9.2690001 -8.6129999 -2.1199999 0.27000001
9.2950001 -8.5819998 -2.1199999 0.25
9.3199997 -8.552 -2.1199999 0.12
9.3599997 -8.5340004 -2.1229999 0
8.7740002 -7.9520001 -1.976 0.039999999
8.6719999 -7.8099999 -1.946 0.039999999
8.6999998 -7.7870002 -1.947 0.17
8.7320004 -7.79 -1.951 0.11
8.7919998 -7.7940001 -1.96 0.2
8.849 -7.7950001 -1.9680001 0.11
8.9119997 -7.8010001 -1.977 0.2
8.9729996 -7.8049998 -1.985 0.11
9.0249996 -7.8000002 -1.992 0.2
9.0930004 -7.809 -2.0020001 0.11
9.1260004 -7.8119998 -2.007 0.18000001
9.1789999 -7.8080001 -2.013 0.11
9.2309999 -7.802 -2.02 0.20999999
9.2959995 -7.8070002 -2.029 0.11
9.3369999 -7.7909999 -2.033 0.18000001
9.3839998 -7.7810001 -2.0380001 0.11
9.3629999 -7.7140002 -2.0280001 0.2
9.434 -7.7480001 -2.0409999 0.11
9.5340004 -7.7789998 -2.0580001 0.19
9.5839996 -7.77 -2.0639999 0.11
9.6669998 -7.7859998 -2.0780001 0.17
9.8070002 -7.848 -2.1040001 0.20999999
9.8879995 -7.8629999 -2.1170001 0.23999999
9.8699999 -7.7969999 -2.1070001 0.28999999
9.9110003 -7.8049998 -2.1140001 0.27000001
9.9130001 -7.756 -2.108 0.23999999
9.9169998 -7.7090001 -2.1040001 0.27000001
9.9280005 -7.6680002 -2.1010001 0.28999999
9.9370003 -7.625 -2.098 0.31999999
9.934 -7.573 -2.092 0.28999999
9.9239998 -7.5409999 -2.0869999 0.25999999
9.9180002 -7.487 -2.0799999 0.19
9.9250002 -7.4439998 -2.0769999 0.31
9.3299999 -6.954 -1.9400001 0.20999999
9.908 -7.335 -2.063 0.27000001
9.9700003 -7.3319998 -2.0710001 0.18000001
9.9610004 -7.277 -2.0639999 0.30000001
9.8620005 -7.1820002 -2.04 0.23999999
9.5790005 -6.9310002 -1.973 0.2
9.5129995 -6.8379998 -1.954 0.2
9.809 -7.0029998 -2.0139999 0.25
9.9519997 -7.0570002 -2.04 0.2
9.8620005 -6.948 -2.016 0.33000001
9.8990002 -6.927 -2.0190001 0.2
9.665 -6.7189999 -1.964 0.20999999
9.823 -6.8060002 -1.995 0.38999999
9.823 -6.7600002 -1.9910001 0.30000001
9.7119999 -6.6399999 -1.9630001 0.28999999
9.6529999 -6.5549998 -1.946 0.30000001
9.6669998 -6.52 -1.944 0.34
9.6680002 -6.4770002 -1.9400001 0.34
9.79 -6.5359998 -1.964 0.34999999
9.7329998 -6.454 -1.947 0.34
9.6459999 -6.3530002 -1.925 0.34999999
9.6459999 -6.3099999 -1.92 0.34
9.6459999 -6.2670002 -1.916 0.34999999
9.6289997 -6.2129998 -1.908 0.34
9.599 -6.151 -1.898 0.34999999
9.6149998 -6.1399999 -1.899 0.38
9.5760002 -6.073 -1.887 0.34
9.5319996 -6.0029998 -1.874 0.37
9.559 -5.9780002 -1.876 0.34
9.526 -5.9159999 -1.865 0.41
9.5430002 -5.8850002 -1.864 0.36000001
9.5640001 -5.8569999 -1.865 0.37
9.5629997 -5.836 -1.863 0.38
9.5609999 -5.7940001 -1.859 0.34
9.5480003 -5.7449999 -1.852 0.41
9.5670004 -5.7160001 -1.853 0.38
9.5799999 -5.6830001 -1.852 0.38999999
9.5209999 -5.6079998 -1.836 0.31
9.6120005 -5.6199999 -1.851 0.34999999
9.6190004 -5.6040001 -1.85 0.38
9.6269999 -5.5679998 -1.848 0.36000001
9.6339998 -5.5320001 -1.846 0.41999999
9.4799995 -5.4039998 -1.811 0.30000001
9.507 -5.3800001 -1.813 0.37
9.5080004 -5.342 -1.8099999 0.37
9.46 -5.276 -1.7970001 0.25
9.4040003 -5.2259998 -1.784 0.44
9.4429998 -5.2080002 -1.789 0.41
9.4300003 -5.1630001 -1.783 0.38
9.4289999 -5.1240001 -1.779 0.38
9.408 -5.0739999 -1.772 0.31999999
9.3439999 -5.0019999 -1.756 0.43000001
9.316 -4.9499998 -1.747 0.34999999
9.2889996 -4.9169998 -1.74 0.31999999
9.2720003 -4.8699999 -1.733 0.46000001
9.1610003 -4.776 -1.7079999 0.28999999
9.0450001 -4.6799998 -1.682 0.41
9.026 -4.6339998 -1.675 0.33000001
8.875 -4.5219998 -1.643 0.38
9.0559998 -4.5960002 -1.677 0.40000001
8.9720001 -4.5180001 -1.658 0.28999999
9.1560001 -4.5739999 -1.691 0.36000001
9.1949997 -4.5580001 -1.696 0.36000001
9.2049999 -4.527 -1.6950001 0.41
9.1470003 -4.4629998 -1.681 0.41999999
9.0419998 -4.3769999 -1.658 0.30000001
9.1400003 -4.4060001 -1.675 0.41
9.191 -4.395 -1.683 0.38
9.2040005 -4.3660002 -1.683 0.33000001
9.1999998 -4.329 -1.679 0.44
9.1330004 -4.263 -1.664 0.34999999
9.052 -4.1900001 -1.645 0.40000001
9.1120005 -4.1830001 -1.654 0.38
9.1520004 -4.184 -1.661 0.31999999
9.1780005 -4.1609998 -1.663 0.40000001
9.2130003 -4.1420002 -1.6670001 0.38999999
9.2440004 -4.1209998 -1.671 0.40000001
9.2910004 -4.1069999 -1.677 0.23999999
9.2950001 -4.0739999 -1.676 0.55000001
9.342 -4.059 -1.682 0.34999999
9.368 -4.053 -1.686 0.38999999
9.4099998 -4.0359998 -1.692 0.46000001
9.4770002 -4.0300002 -1.702 0.38
9.5380001 -4.02 -1.712 0.25999999
9.5780001 -4.0019999 -1.717 0.51999998
9.6619997 -4.0009999 -1.7309999 0.33000001
9.7069998 -3.984 -1.737 0.25
9.7130003 -3.9690001 -1.737 0.47
9.7679996 -3.9549999 -1.745 0.34
9.7510004 -3.9119999 -1.739 0.47999999
9.8129997 -3.901 -1.749 0.44
9.8739996 -3.8900001 -1.758 0.38
9.8570004 -3.8469999 -1.753 0.33000001
9.8620005 -3.8139999 -1.751 0.27000001
9.882 -3.8039999 -1.7539999 0.27000001
9.948 -3.793 -1.7640001 0.31999999
10.009 -3.78 -1.774 0.28
10.071 -3.767 -1.783 0.23
10.135 -3.7550001 -1.793 0.28999999
10.2 -3.7420001 -1.803 0.34999999
10.264 -3.7290001 -1.813 0.46000001
10.31 -3.7279999 -1.8200001 0.31
10.32 -3.6949999 -1.8200001 0.44999999
10.346 -3.6670001 -1.823 0.27000001
10.404 -3.651 -1.832 0.5
10.464 -3.635 -1.841 0.40000001
10.47 -3.5999999 -1.84 0.30000001
10.448 -3.556 -1.8329999 0.28999999
10.435 -3.533 -1.83 0.30000001
10.438 -3.4979999 -1.8279999 0.28999999
10.443 -3.4630001 -1.827 0.27000001
10.445 -3.427 -1.826 0.28999999
10.452 -3.3929999 -1.825 0.28
10.449 -3.3559999 -1.823 0.27000001
10.454 -3.322 -1.821 0.27000001
10.465 -3.3069999 -1.823 0.28
10.466 -3.2709999 -1.821 0.27000001
10.465 -3.2349999 -1.819 0.25999999
10.473 -3.201 -1.818 0.27000001
10.483 -3.168 -1.818 0.27000001
10.495 -3.1359999 -1.819 0.25
10.495 -3.0999999 -1.817 0.20999999
10.493 -3.082 -1.816 0.28
10.5 -3.0480001 -1.8150001 0.25
10.499 -3.0120001 -1.813 0.2
10.508 -2.9790001 -1.813 0.28
10.517 -2.9460001 -1.813 0.25
10.517 -2.9100001 -1.811 0.25
10.524 -2.8770001 -1.811 0.25
10.519 -2.858 -1.809 0.27000001
10.522 -2.823 -1.808 0.25999999
10.525 -2.7880001 -1.807 0.27000001
10.536 -2.756 -1.807 0.27000001
10.541 -2.7219999 -1.807 0.27000001
10.538 -2.6860001 -1.8049999 0.28
10.535 -2.6500001 -1.803 0.27000001
10.537 -2.6329999 -1.802 0.28999999
10.54 -2.598 -1.801 0.28
10.542 -2.5639999 -1.8 0.28
10.55 -2.5309999 -1.8 0.27000001
10.55 -2.4960001 -1.799 0.28
10.558 -2.4619999 -1.799 0.28
10.554 -2.444 -1.7970001 0.28
10.548 -2.408 -1.795 0.28
10.554 -2.3740001 -1.795 0.27000001
10.554 -2.339 -1.793 0.28
10.567 -2.3080001 -1.794 0.25999999
10.558 -2.2709999 -1.791 0.18000001
10.566 -2.2379999 -1.791 0.16
10.569 -2.221 -1.791 0.5
10.582 -2.1889999 -1.7920001 0.49000001
10.59 -2.1559999 -1.793 0.58999997
10.599 -2.1229999 -1.793 0.61000001
10.608 -2.0910001 -1.794 0.66000003
10.605 -2.0550001 -1.7920001 0.68000001
10.611 -2.0220001 -1.7920001 0.66000003
10.593 -2.0009999 -1.788 0.61000001
10.613 -1.971 -1.79 0.41
10.584 -1.931 -1.784 0.27000001
10.57 -1.8940001 -1.781 0.27000001
10.592 -1.864 -1.783 0.25999999
10.582 -1.8279999 -1.781 0.25
10.576 -1.793 -1.778 0.20999999
10.587 -1.777 -1.78 0.27000001
10.575 -1.7410001 -1.777 0.23999999
10.574 -1.707 -1.776 0.18000001
10.601 -1.677 -1.78 0.27000001
10.585 -1.641 -1.776 0.25
10.586 -1.607 -1.775 0.18000001
10.597 -1.574 -1.776 0.25999999
10.58 -1.5549999 -1.773 0.23
10.591 -1.522 -1.774 0.18000001
10.603 -1.49 -1.775 0.25999999
10.582 -1.4529999 -1.77 0.23
10.577 -1.419 -1.7690001 0.16
10.599 -1.388 -1.772 0.28999999
10.59 -1.353 -1.7690001 0.23
10.594 -1.337 -1.77 0.25999999
10.588 -1.302 -1.768 0.23
10.598 -1.27 -1.7690001 0.25
10.6 -1.2359999 -1.7690001 0.20999999
10.594 -1.202 -1.767 0.11
10.58 -1.166 -1.7640001 0.20999999
10.578 -1.133 -1.763 0.11
10.574 -1.115 -1.762 0.20999999
10.589 -1.0829999 -1.7640001 0.11
10.577 -1.048 -1.761 0.2
10.586 -1.016 -1.762 0.11
10.56 -0.98000002 -1.757 0.18000001
10.576 -0.94800001 -1.7589999 0.20999999
10.579 -0.91500002 -1.7589999 0.1
10.577 -0.898 -1.7589999 0.16
10.572 -0.86400002 -1.757 0.050000001
10.57 -0.82999998 -1.756 0.18000001
10.575 -0.79699999 -1.757 0.050000001
10.577 -0.764 -1.757 0.17
10.59 -0.73100001 -1.7589999 0.050000001
10.57 -0.69700003 -1.755 0.07
10.571 -0.68000001 -1.755 0.18000001
10.571 -0.64700001 -1.7539999 0.050000001
10.55 -0.61199999 -1.75 0.16
10.561 -0.57999998 -1.752 0.050000001
10.553 -0.546 -1.75 0.16
10.541 -0.51200002 -1.748 0.050000001
10.549 -0.479 -1.749 0.17
10.55 -0.463 -1.749 0.050000001
10.537 -0.42899999 -1.7460001 0.17
10.542 -0.396 -1.747 0.2
10.54 -0.36300001 -1.7460001 0.1
10.539 -0.33000001 -1.7460001 0.17
10.53 -0.296 -1.744 0.20999999
10.537 -0.26300001 -1.745 0.1
10.525 -0.24699999 -1.743 0.18000001
10.518 -0.213 -1.742 0.2
10.523 -0.18000001 -1.742 0.1
10.503 -0.147 -1.739 0.19
10.51 -0.114 -1.74 0.11
10.506 -0.081 -1.739 0.19
10.502 -0.048 -1.739 0.11
10.499 -0.032000002 -1.738 0.2
10.107 0.032000002 -1.743 0
10.104 0.048 -1.743 0
10.096 0.079000004 -1.7410001 0
10.098 0.111 -1.742 0
10.088 0.14300001 -1.74 0
10.093 0.17399999 -1.7410001 0
10.079 0.206 -1.738 0
10.07 0.237 -1.737 0
10.068 0.25299999 -1.737 0
10.059 0.285 -1.735 0
10.054 0.31600001 -1.734 0
10.061 0.34799999 -1.7359999 0
10.05 0.37900001 -1.734 0
10.047 0.41100001 -1.734 0
10.074 0.428 -1.739 0
10.033 0.458 -1.7309999 0
10.026 0.48899999 -1.73 0
10.062 0.52200001 -1.737 0
10.017 0.551 -1.729 0
10.048 0.58499998 -1.735 0
10.011 0.61400002 -1.729 0
10 0.62900001 -1.727 0
9.9980001 0.66100001 -1.727 0
10.031 0.69499999 -1.734 0
9.9860001 0.72299999 -1.726 0
10.005 0.75599998 -1.73 0
9.9750004 0.78500003 -1.725 0
9.9849997 0.81800002 -1.727 0
9.9899998 0.85000002 -1.728 0
9.9870005 0.86500001 -1.728 0
9.941 0.89300001 -1.72 0
9.9610004 0.926 -1.724 0
9.9250002 0.954 -1.7180001 0
9.9469995 0.98799998 -1.723 0
9.948 1.02 -1.723 0
9.9160004 1.048 -1.7180001 0
9.8979998 1.062 -1.715 0
9.9259996 1.096 -1.721 0
9.8900003 1.124 -1.715 0
9.8839998 1.154 -1.714 0.029999999
9.8730001 1.1849999 -1.7130001 0.029999999
9.8690004 1.216 -1.7130001 0.029999999
9.8690004 1.2309999 -1.7130001 0.029999999
9.8629999 1.262 -1.7130001 0.029999999
9.8509998 1.2920001 -1.711 0.029999999
9.835 1.322 -1.709 0.029999999
9.8210001 1.351 -1.707 0.029999999
9.8290005 1.3839999 -1.71 0.029999999
9.8149996 1.413 -1.7079999 0.029999999
9.8100004 1.428 -1.707 0.029999999
9.8000002 1.4579999 -1.706 0.039999999
9.7969999 1.489 -1.707 0.07
9.7810001 1.518 -1.705 0.039999999
9.7860003 1.55 -1.706 0.07
9.7650003 1.579 -1.7029999 0.039999999
9.7659998 1.61 -1.705 0.07
9.7620001 1.625 -1.704 0.039999999
9.7469997 1.654 -1.702 0.07
9.7279997 1.683 -1.7 0.039999999
9.7270002 1.714 -1.701 0.07
9.7130003 1.743 -1.699 0.16
9.7119999 1.774 -1.7 0.17
9.7080002 1.8049999 -1.7 0.17
9.6859999 1.817 -1.697 0.17
9.684 1.848 -1.697 0.18000001
9.6780005 1.878 -1.697 0.17
9.6660004 1.908 -1.696 0.17
9.6549997 1.937 -1.6950001 0.18000001
9.6599998 1.97 -1.697 0.039999999
9.6129999 1.992 -1.6900001 0.16
9.6309996 2.0109999 -1.694 0.050000001
9.6079998 2.0380001 -1.6900001 0.16
9.6090002 2.069 -1.692 0.050000001
9.5830002 2.095 -1.688 0.16
9.6029997 2.131 -1.693 0.050000001
9.5509996 2.151 -1.6849999 0.16
9.5749998 2.188 -1.6900001 0.2
9.5649996 2.2019999 -1.689 0.23999999
9.5389996 2.2279999 -1.686 0.25999999
9.5360003 2.2590001 -1.686 0.25999999
9.54 2.2909999 -1.689 0.28
9.5310001 2.3210001 -1.688 0.11
9.5240002 2.3510001 -1.688 0.14
9.5139999 2.3800001 -1.688 0.13
9.5150003 2.3959999 -1.689 0.36000001
9.4919996 2.4219999 -1.686 0.30000001
9.4899998 2.4530001 -1.687 0.33000001
9.4720001 2.4809999 -1.6849999 0.31
9.467 2.5109999 -1.6849999 0.059999999
9.4779997 2.546 -1.689 0.17
9.4770002 2.5769999 -1.6900001 0.050000001
9.4689999 2.5910001 -1.6900001 0.18000001
9.4820004 2.6270001 -1.694 0.050000001
9.4510002 2.6500001 -1.689 0.16
9.467 2.687 -1.694 0.2
9.4530001 2.7149999 -1.693 0.090000004
9.448 2.7460001 -1.694 0.090000004
9.4569998 2.78 -1.697 0.090000004
9.4499998 2.7950001 -1.697 0.090000004
9.4359999 2.823 -1.6950001 0.090000004
9.4289999 2.8529999 -1.696 0.090000004
9.4099998 2.8800001 -1.694 0.090000004
9.4110003 2.9119999 -1.696 0.079999998
9.4049997 2.9430001 -1.697 0.079999998
9.4049997 2.9749999 -1.698 0.090000004
9.3970003 2.9890001 -1.698 0.079999998
9.3929996 3.02 -1.699 0.079999998
9.3780003 3.0480001 -1.698 0.079999998
9.3719997 3.0780001 -1.698 0.079999998
9.368 3.1099999 -1.699 0.039999999
9.3669996 3.142 -1.701 0.07
9.3520002 3.1700001 -1.7 0.079999998
9.3540001 3.187 -1.702 0.039999999
9.3389997 3.214 -1.701 0.07
9.3290005 3.244 -1.701 0.039999999
9.3240004 3.2750001 -1.702 0.07
9.3079996 3.302 -1.701 0.039999999
9.3050003 3.3340001 -1.702 0.07
9.2889996 3.3610001 -1.701 0.039999999
9.2860003 3.3770001 -1.701 0.07
9.2709999 3.404 -1.701 0.039999999
9.2700005 3.437 -1.702 0.079999998
9.2530003 3.464 -1.701 0.039999999
9.2589998 3.4990001 -1.705 0.079999998
9.2329998 3.523 -1.702 0.039999999
9.2460003 3.5439999 -1.705 0.079999998
9.2290001 3.5710001 -1.704 0.16
9.2130003 3.598 -1.7029999 0.16
9.1990004 3.6259999 -1.7029999 0.16
9.1929998 3.6570001 -1.704 0.17
9.1870003 3.688 -1.705 0.16
9.1669998 3.7130001 -1.7029999 0.16
9.1630001 3.7290001 -1.7029999 0.16
9.1490002 3.757 -1.7029999 0.16
9.1370001 3.7850001 -1.7029999 0.17
9.1309996 3.816 -1.704 0.18000001
9.1110001 3.842 -1.7029999 0.18000001
9.0970001 3.8699999 -1.702 0.18000001
9.085 3.898 -1.702 0.17
9.085 3.915 -1.7029999 0.18000001
9.0719995 3.9430001 -1.7029999 0.17
9.0559998 3.97 -1.7029999 0.18000001
9.0450001 4 -1.7029999 0.18000001
9.0469999 4.0339999 -1.706 0.17
9.0240002 4.0580001 -1.704 0.039999999
8.9969997 4.0799999 -1.701 0.15000001
9.0100002 4.1030002 -1.705 0.18000001
8.9949999 4.1300001 -1.705 0.039999999
8.9790001 4.1570001 -1.704 0.16
8.9870005 4.1950002 -1.7079999 0.18000001
8.9680004 4.2210002 -1.707 0.17
8.96 4.2509999 -1.7079999 0.17
8.9429998 4.2779999 -1.707 0.17
8.9329996 4.29 -1.707 0.17
8.927 4.322 -1.7079999 0.17
8.9250002 4.3559999 -1.711 0.039999999
8.9060001 4.381 -1.71 0.079999998
8.8979998 4.4120002 -1.711 0.15000001
8.8889999 4.4419999 -1.712 0.039999999
8.8839998 4.474 -1.714 0.079999998
8.8719997 4.4860001 -1.7130001 0.039999999
8.875 4.5229998 -1.716 0.07
8.8540001 4.5469999 -1.715 0.039999999
8.8339996 4.572 -1.714 0.07
8.823 4.6009998 -1.714 0.039999999
8.8190002 4.6350002 -1.717 0.07
8.8009996 4.6599998 -1.716 0.039999999
8.7989998 4.677 -1.717 0.07
8.7790003 4.7020001 -1.716 0.039999999
8.7679996 4.7309999 -1.717 0.07
8.7550001 4.7600002 -1.717 0.039999999
8.7480001 4.7919998 -1.719 0.07
8.7299995 4.8179998 -1.7180001 0.039999999
8.7150002 4.8449998 -1.7180001 0.039999999
8.7019997 4.8559999 -1.717 0.07
8.6879997 4.8839998 -1.717 0.039999999
8.6800003 4.915 -1.719 0.07
8.6590004 4.9390001 -1.7180001 0.039999999
8.6540003 4.973 -1.72 0
8.625 4.9920001 -1.717 0
8.6219997 5.0079999 -1.7180001 0
8.5860004 5.0240002 -1.714 0
8.5880003 5.0609999 -1.7180001 0
8.5950003 5.1009998 -1.722 0
8.5970001 5.1389999 -1.726 0.02
8.5609999 5.1539998 -1.722 0.029999999
8.5459995 5.1820002 -1.722 0.07
8.5249996 5.2059999 -1.721 0.039999999
8.5229998 5.223 -1.723 0.07
8.5030003 5.2480001 -1.722 0.039999999
8.4899998 5.277 -1.723 0.07
8.4940004 5.316 -1.727 0.15000001
8.467 5.336 -1.725 0.16
8.4469995 5.3610001 -1.724 0.16
8.4370003 5.3920002 -1.726 0.16
8.4280005 5.4050002 -1.726 0.16
8.4090004 5.4299998 -1.725 0.039999999
8.3789997 5.448 -1.722 0.15000001
8.4060001 5.5029998 -1.732 0.19
8.3839998 5.526 -1.7309999 0.18000001
8.368 5.5539999 -1.7309999 0.23
8.3149996 5.5560002 -1.723 0.31999999
8.3000002 5.5650001 -1.722 0.34
8.2980003 5.6020002 -1.726 0.38999999
8.2469997 5.605 -1.7180001 0.31999999
8.2609997 5.6529999 -1.725 0.25999999
8.2700005 5.6960001 -1.7309999 0.090000004
8.2550001 5.7249999 -1.732 0.039999999
8.2480001 5.7579999 -1.734 0.07
8.2440004 5.7750001 -1.735 0.039999999
8.224 5.7989998 -1.735 0.07
8.2010002 5.822 -1.734 0.039999999
8.1999998 5.8600001 -1.738 0.07
8.1789999 5.8839998 -1.737 0.039999999
8.1569996 5.9070001 -1.737 0.039999999
8.1639996 5.9310002 -1.74 0.039999999
8.1210003 5.9400001 -1.735 0.029999999
8.1120005 5.9720001 -1.737 0.039999999
8.1359997 6.0289998 -1.747 0
8.0839996 6.0300002 -1.739 0
8.066 6.0560002 -1.739 0
8.0600004 6.0910001 -1.742 0
8.0710001 6.119 -1.747 0
8.033 6.1300001 -1.743 0
8.0270004 6.1659999 -1.7460001 0
8.0220003 6.2020001 -1.749 0
8.0059996 6.23 -1.75 0
7.9920001 6.2600002 -1.751 0
7.9710002 6.2839999 -1.751 0
7.9580002 6.2940001 -1.75 0
7.947 6.3260002 -1.753 0
7.915 6.3410001 -1.75 0
7.901 6.3709998 -1.751 0
7.8779998 6.3930001 -1.75 0
7.8520002 6.4130001 -1.749 0
7.8460002 6.4489999 -1.752 0
7.8249998 6.4520001 -1.75 0
7.783 6.4590001 -1.745 0
7.7639999 6.4850001 -1.745 0.029999999
7.7410002 6.507 -1.744 0.029999999
7.7189999 6.5300002 -1.744 0.029999999
7.7059999 6.5599999 -1.7460001 0.029999999
7.6789999 6.5799999 -1.744 0.029999999
7.6630001 6.5869999 -1.743 0.029999999
7.6479998 6.6160002 -1.744 0.07
7.618 6.632 -1.742 0.039999999
7.6040001 6.6609998 -1.743 0.079999998
7.5840001 6.6859999 -1.744 0.039999999
7.5669999 6.7140002 -1.745 0.079999998
7.5370002 6.73 -1.743 0.16
7.5219998 6.7379999 -1.742 0.039999999
7.5089998 6.7680001 -1.743 0.079999998
7.4809999 6.7859998 -1.742 0.079999998
7.46 6.8099999 -1.742 0.079999998
7.4520001 6.8449998 -1.745 0.090000004
7.4239998 6.8629999 -1.744 0.079999998
7.4060001 6.8889999 -1.745 0.079999998
7.3870001 6.915 -1.745 0.090000004
7.3730001 6.9239998 -1.745 0.079999998
7.3499999 6.9460001 -1.744 0.079999998
7.342 6.9819999 -1.748 0.090000004
7.3150001 7 -1.7460001 0.079999998
7.3010001 7.0310001 -1.749 0.16
7.2820001 7.0560002 -1.749 0.16
7.2540002 7.0739999 -1.748 0.039999999
7.2490001 7.0910001 -1.749 0.079999998
7.2329998 7.1199999 -1.751 0.079999998
7.2210002 7.1529999 -1.7539999 0.079999998
7.198 7.1750002 -1.7539999 0.079999998
7.1729999 7.1950002 -1.753 0.090000004
7.1500001 7.2179999 -1.753 0.039999999
7.1469998 7.237 -1.755 0.07
7.1160002 7.2509999 -1.753 0.039999999
7.0949998 7.2750001 -1.753 0.07
7.0840001 7.3099999 -1.757 0.039999999
7.0640001 7.335 -1.757 0.07
7.0489998 7.3660002 -1.7589999 0.039999999
7.0279999 7.3909998 -1.76 0
7.0250001 7.4099998 -1.762 0
7.0029998 7.434 -1.763 0
6.993 7.4699998 -1.766 0
6.974 7.4959998 -1.767 0
6.954 7.5219998 -1.7690001 0
6.9330001 7.5469999 -1.7690001 0
6.9390001 7.6009998 -1.777 0
6.908 7.5910001 -1.772 0
6.9070001 7.638 -1.778 0
6.8920002 7.6700001 -1.781 0
6.8509998 7.6719999 -1.776 0
6.8299999 7.698 -1.777 0
6.8000002 7.7119999 -1.775 0
6.7880001 7.7480001 -1.779 0
6.7930002 7.7779999 -1.784 0
6.7610002 7.79 -1.7819999 0
6.7399998 7.816 -1.783 0
6.717 7.8390002 -1.783 0
6.6939998 7.8610001 -1.783 0
6.665 7.8779998 -1.7819999 0
6.6420002 7.9000001 -1.783 0
6.6090002 7.9120002 -1.78 0
6.598 7.9239998 -1.781 0
6.579 7.9520001 -1.783 0
6.5479999 7.9650002 -1.781 0
6.5240002 7.987 -1.781 0
6.493 8 -1.779 0
6.448 7.9959998 -1.774 0
6.4229999 8.0159998 -1.774 0
6.4130001 8.0290003 -1.774 0
6.3790002 8.0389996 -1.772 0
6.3520002 8.0570002 -1.771 0.059999999
6.3179998 8.066 -1.7690001 0.039999999
6.2940001 8.0880003 -1.7690001 0.039999999
6.2649999 8.1029997 -1.768 0.029999999
6.243 8.1269999 -1.7690001 0.07
6.2220001 8.1260004 -1.767 0.039999999
6.198 8.1470003 -1.767 0.07
6.164 8.1549997 -1.765 0.039999999
6.1350002 8.1700001 -1.763 0
6.105 8.184 -1.762 0
6.105 8.2379999 -1.77 0
6.0619998 8.2340002 -1.765 0
6.0749998 8.2779999 -1.773 0
6.0479999 8.2959995 -1.772 0
6.0349998 8.3339996 -1.777 0.059999999
6.0190001 8.3669996 -1.78 0.039999999
5.9990001 8.3940001 -1.7819999 0.07
5.9949999 8.4440002 -1.789 0.14
5.9759998 8.4729996 -1.791 0.16
5.9679999 8.4899998 -1.793 0.16
5.947 8.5170002 -1.795 0.18000001
5.9190001 8.5340004 -1.795 0.090000004
5.8899999 8.5489998 -1.794 0.16
5.869 8.5760002 -1.796 0.20999999
5.8390002 8.5909996 -1.795 0.16
5.802 8.5950003 -1.7920001 0.23999999
5.7789998 8.5889997 -1.788 0.18000001
5.7480001 8.6009998 -1.7869999 0.23999999
5.7090001 8.6009998 -1.783 0.23
5.671 8.6020002 -1.779 0.25
5.6230001 8.5889997 -1.772 0.23999999
5.5910001 8.5979996 -1.771 0.30000001
5.553 8.599 -1.767 0.25
5.54 8.6099997 -1.767 0.28
5.5040002 8.6120005 -1.7640001 0.25
5.4689999 8.618 -1.762 0.19
5.4499998 8.6470003 -1.7640001 0.25999999
5.3940001 8.6190004 -1.7539999 0.23
5.3590002 8.6219997 -1.751 0.28
5.3210001 8.6219997 -1.748 0.27000001
5.302 8.6219997 -1.7460001 0.27000001
5.2740002 8.6370001 -1.7460001 0.27000001
5.2389998 8.6400003 -1.743 0.28
5.2049999 8.6450005 -1.74 0.28
5.164 8.6389999 -1.735 0.28
5.1329999 8.6490002 -1.734 0.31999999
5.0900002 8.6379995 -1.728 0.31
5.0640001 8.6260004 -1.724 0.28
5.04 8.6459999 -1.725 0.25999999
5.007 8.6520004 -1.723 0.28
4.967 8.6459999 -1.7180001 0.30000001
4.9310002 8.6459999 -1.715 0.28999999
4.908 8.6680002 -1.716 0.27000001
4.8709998 8.6660004 -1.7130001 0.28
4.849 8.6599998 -1.71 0.28
4.8150001 8.6619997 -1.707 0.28
4.776 8.6560001 -1.702 0.30000001
4.7519999 8.6759996 -1.7029999 0.25
4.717 8.677 -1.701 0.27000001
4.6810002 8.677 -1.697 0.12
4.6420002 8.6709995 -1.693 0.20999999
4.6240001 8.6689997 -1.691 0.27000001
4.6020002 8.6940002 -1.693 0.25
4.5599999 8.6809998 -1.687 0.20999999
4.5339999 8.6969995 -1.688 0.25999999
4.5089998 8.7139997 -1.689 0.2
4.4689999 8.7060003 -1.684 0.11
4.4380002 8.7130003 -1.682 0.2
4.4299998 8.7299995 -1.6849999 0.11
4.3889999 8.7180004 -1.679 0.19
4.3730001 8.7530003 -1.683 0.2
4.348 8.7720003 -1.6849999 0.1
4.3119998 8.7690001 -1.681 0.18000001
4.2940001 8.802 -1.6849999 0.11
4.2540002 8.7910004 -1.6799999 0.18000001
4.2529998 8.8219995 -1.6849999 0.11
4.2160001 8.8179998 -1.682 0.2
4.198 8.8509998 -1.686 0.14
4.1719999 8.8669996 -1.686 0.28999999
4.1269999 8.8450003 -1.679 0.25
4.1149998 8.8920002 -1.686 0.25
4.0809999 8.8900003 -1.683 0.27000001
4.0539999 8.9069996 -1.684 0.31999999
4.0450001 8.9239998 -1.686 0.27000001
3.994 8.8859997 -1.676 0.28999999
3.9679999 8.9020004 -1.677 0.27000001
3.9389999 8.9110003 -1.676 0.31999999
3.8929999 8.8839998 -1.668 0.27000001
3.868 8.901 -1.669 0.41999999
3.8570001 8.9169998 -1.671 0.30000001
3.819 8.9029999 -1.666 0.36000001
3.7839999 8.8990002 -1.6619999 0.31
3.7460001 8.8889999 -1.658 0.30000001
3.714 8.8900003 -1.656 0.31
3.6849999 8.8999996 -1.655 0.27000001
3.678 8.9619999 -1.666 0.36000001
3.6500001 8.9329996 -1.659 0.30000001
3.6170001 8.934 -1.6569999 0.34999999
3.5840001 8.9329996 -1.654 0.31
3.5450001 8.9160004 -1.649 0.36000001
3.5179999 8.9289999 -1.649 0.28
3.493 8.948 -1.65 0.34
3.4619999 8.9530001 -1.649 0.36000001
3.4300001 8.9530001 -1.647 0.33000001
3.4189999 8.967 -1.649 0.38
3.382 8.9540005 -1.6440001 0.31
3.349 8.9519997 -1.642 0.34999999
3.325 8.9729996 -1.6440001 0.31
3.2939999 8.9759998 -1.642 0.37
3.2550001 8.9569998 -1.637 0.31
3.227 8.967 -1.637 0.36000001
3.21 8.9650002 -1.635 0.30000001
3.187 8.9899998 -1.638 0.33000001
3.158 8.9960003 -1.637 0.37
3.1329999 9.0150003 -1.6390001 0.30000001
3.1010001 9.0159998 -1.637 0.36000001
3.0610001 8.9919996 -1.631 0.34
3.033 9.0019999 -1.631 0.28999999
3.0179999 9.0030003 -1.63 0.31999999
2.9890001 9.0100002 -1.63 0.38999999
2.957 9.0080004 -1.627 0.31
2.9300001 9.0209999 -1.628 0.34999999
2.9059999 9.0450001 -1.631 0.34
2.8729999 9.04 -1.628 0.34999999
2.8369999 9.0240002 -1.623 0.34
2.8310001 9.0550003 -1.6289999 0.34
2.8050001 9.0710001 -1.63 0.31
2.7739999 9.0719995 -1.6289999 0.33000001
2.7520001 9.1020002 -1.633 0.34
2.7219999 9.1090002 -1.632 0.38
2.6800001 9.0719995 -1.623 0.30000001
2.655 9.092 -1.626 0.36000001
2.641 9.0959997 -1.626 0.30000001
2.6110001 9.0979996 -1.625 0.38
2.572 9.0710001 -1.618 0.30000001
2.5380001 9.0600004 -1.614 0.31999999
2.5120001 9.0749998 -1.615 0.37
2.4890001 9.1059999 -1.62 0.34
2.4590001 9.1079998 -1.619 0.34
2.4419999 9.1020002 -1.617 0.33000001
2.4089999 9.0930004 -1.614 0.31999999
2.3959999 9.1590004 -1.625 0.31
2.3710001 9.1820002 -1.628 0.31
2.3399999 9.1820002 -1.626 0.34
2.3080001 9.1759996 -1.624 0.31999999
2.276 9.1680002 -1.6210001 0.31
2.26 9.1669998 -1.62 0.31
2.23 9.1709995 -1.619 0.31999999
2.1960001 9.1529999 -1.615 0.31999999
2.1619999 9.1400003 -1.6109999 0.34
2.132 9.1389999 -1.61 0.31999999
2.1029999 9.1479998 -1.61 0.34
2.079 9.1719999 -1.613 0.33000001
2.0569999 9.1429996 -1.607 0.28999999
2.0380001 9.191 -1.615 0.31
2.006 9.184 -1.613 0.31999999
1.983 9.217 -1.618 0.34
1.951 9.21 -1.615 0.31999999
1.925 9.2309999 -1.618 0.34
1.897 9.2410002 -1.619 0.31999999
1.878 9.2229996 -1.615 0.28999999
1.849 9.2290001 -1.615 0.30000001
1.825 9.2620001 -1.62 0.31
1.818 9.3769999 -1.641 0.33000001
1.79 9.3889999 -1.642 0.28999999
1.762 9.4020004 -1.643 0.30000001
1.7309999 9.3999996 -1.642 0.33000001
1.698 9.3879995 -1.638 0.37
1.669 9.3149996 -1.624 0.28
1.649 9.3710003 -1.6339999 0.23999999
1.6210001 9.3830004 -1.635 0.43000001
1.579 9.3190002 -1.622 0.30000001
1.544 9.2889996 -1.615 0.31
1.5140001 9.29 -1.615 0.34
1.48 9.2629995 -1.609 0.30000001
1.471 9.3009996 -1.615 0.34
1.442 9.3030005 -1.615 0.30000001
1.413 9.3120003 -1.6160001 0.34
1.387 9.3339996 -1.619 0.33000001
1.357 9.3400002 -1.619 0.34999999
1.326 9.3280001 -1.617 0.31999999
1.296 9.3269997 -1.615 0.30000001
1.279 9.3149996 -1.613 0.31
1.248 9.3030005 -1.61 0.30000001
1.219 9.3109999 -1.6109999 0.27000001
1.196 9.3660002 -1.62 0.30000001
1.1670001 9.3710003 -1.6210001 0.33000001
1.137 9.3690004 -1.619 0.31
1.105 9.3470001 -1.615 0.28
1.091 9.3549995 -1.6160001 0.31999999
1.067 9.4049997 -1.625 0.30000001
1.031 9.3559999 -1.615 0.34
1 9.3389997 -1.6109999 0.31999999
0.972 9.3579998 -1.614 0.31999999
0.94599998 9.3940001 -1.62 0.36000001
0.91299999 9.3599997 -1.613 0.30000001
0.89899999 9.3710003 -1.615 0.31999999
0.86699998 9.3509998 -1.6109999 0.34999999
0.838 9.3549995 -1.6109999 0.28999999
0.80900002 9.3620005 -1.612 0.28
0.77999997 9.3660002 -1.612 0.34999999
0.75099999 9.3800001 -1.614 0.34
0.722 9.3889999 -1.615 0.31999999
0.70899999 9.4029999 -1.618 0.31999999
0.67799997 9.3959999 -1.6160001 0.31999999
0.64999998 9.4119997 -1.619 0.37
0.61900002 9.3920002 -1.615 0.30000001
0.58999997 9.4040003 -1.617 0.34
0.55699998 9.3559999 -1.607 0.30000001
0.528 9.3640003 -1.609 0.30000001
0.51200002 9.3389997 -1.604 0.34
0.484 9.3620005 -1.608 0.28999999
0.458 9.4350004 -1.6210001 0.34
0.428 9.4259996 -1.619 0.28999999
0.39700001 9.3979998 -1.614 0.30000001
0.36700001 9.3929996 -1.613 0.30000001
0.338 9.3979998 -1.613 0.31
0.32300001 9.3990002 -1.613 0.34
0.294 9.3999996 -1.613 0.30000001
0.264 9.4049997 -1.614 0.31
0.235 9.427 -1.618 0.31
0.205 9.4160004 -1.6160001 0.31
0.176 9.4420004 -1.6210001 0.33000001
0.147 9.4469995 -1.6210001 0.28999999
0.132 9.4589996 -1.623 0.34999999
0.102 9.4549999 -1.623 0.33000001
0.072999999 9.4689999 -1.625 0.34
0.043000001 9.448 -1.6210001 0.33000001
0.013 9.4519997 -1.622 0.30000001
-0.017000001 9.4460001 -1.6210001 0.31
-0.046 9.4610004 -1.624 0.34
-0.061000001 9.4569998 -1.623 0.31999999
-0.090999998 9.4650002 -1.625 0.28999999
-0.12 9.4569998 -1.623 0.34999999
-0.15000001 9.4499998 -1.622 0.34
-0.18000001 9.4659996 -1.625 0.31999999
-0.20900001 9.4200001 -1.617 0.31
-0.23800001 9.4169998 -1.6160001 0.31999999
-0.25400001 9.4560003 -1.623 0.31999999
-0.28400001 9.4549999 -1.623 0.31
-0.31299999 9.4390001 -1.6210001 0.31999999
-0.34299999 9.4530001 -1.623 0.31
-0.375 9.4989996 -1.632 0.34999999
-0.405 9.5019999 -1.633 0.28999999
-0.43399999 9.4949999 -1.632 0.37
-0.46200001 9.4560003 -1.625 0.31999999
-0.47499999 9.408 -1.6160001 0.31
-0.50300002 9.3789997 -1.6109999 0.31999999
-0.53600001 9.434 -1.622 0.31999999
-0.56300002 9.3970003 -1.615 0.31999999
-0.59299999 9.3979998 -1.615 0.30000001
-0.62900001 9.4960003 -1.6339999 0.31999999
-0.66100001 9.533 -1.641 0.34
-0.67699999 9.5419998 -1.643 0.34999999
-0.70599997 9.5279999 -1.641 0.34
-0.73699999 9.5450001 -1.645 0.28999999
-0.76599997 9.5209999 -1.641 0.36000001
-0.79500002 9.507 -1.638 0.31
-0.82300001 9.4890003 -1.635 0.33000001
-0.85600001 9.5190001 -1.642 0.34999999
-0.87300003 9.54 -1.646 0.34999999
-0.90200001 9.5290003 -1.6440001 0.30000001
-0.93199998 9.5220003 -1.643 0.38
-0.963 9.5349998 -1.646 0.34
-0.98900002 9.493 -1.6390001 0.31
-1.017 9.4759998 -1.637 0.30000001
-1.044 9.4429998 -1.631 0.31999999
-1.0599999 9.4469995 -1.632 0.34
-1.094 9.4870005 -1.64 0.31999999
-1.126 9.5010004 -1.643 0.30000001
-1.154 9.4860001 -1.641 0.38
-1.187 9.5080004 -1.646 0.28
-1.214 9.4770002 -1.641 0.38
-1.225 9.3260002 -1.614 0.30000001
-1.2460001 9.3769999 -1.623 0.31
-1.2869999 9.4549999 -1.6390001 0.27000001
-1.317 9.4549999 -1.6390001 0.36000001
-1.347 9.4530001 -1.64 0.34
-1.377 9.4499998 -1.64 0.31
-1.403 9.4230003 -1.636 0.31999999
-1.431 9.4040003 -1.633 0.31
-1.454 9.4569998 -1.643 0.33000001
-1.49 9.493 -1.651 0.34
-1.52 9.4940004 -1.652 0.31999999
-1.549 9.4849997 -1.651 0.30000001
-1.5829999 9.5019999 -1.655 0.34
-1.614 9.5019999 -1.6569999 0.28999999
-1.649 9.5299997 -1.663 0.34999999
-1.6619999 9.5159998 -1.661 0.31999999
-1.684 9.4659996 -1.652 0.31999999
-1.7180001 9.4840002 -1.6569999 0.31
-1.7539999 9.5120001 -1.663 0.30000001
-1.7869999 9.5270004 -1.6670001 0.31
-1.8150001 9.5080004 -1.664 0.31
-1.848 9.5179996 -1.6670001 0.31
-1.853 9.4630003 -1.6569999 0.33000001
-1.881 9.4510002 -1.656 0.31999999
-1.92 9.4899998 -1.665 0.33000001
-1.962 9.5450001 -1.676 0.34
-1.9859999 9.5100002 -1.671 0.34
-2.013 9.4919996 -1.669 0.31999999
-2.0309999 9.4280005 -1.658 0.28999999
-2.0650001 9.4429998 -1.6619999 0.34999999
-2.0829999 9.4510002 -1.664 0.34999999
-2.1129999 9.448 -1.665 0.28
-2.1400001 9.4300003 -1.6619999 0.37
-2.1670001 9.4099998 -1.66 0.33000001
-2.1930001 9.3879995 -1.6569999 0.33000001
-2.2260001 9.3959999 -1.66 0.34999999
-2.2539999 9.3850002 -1.659 0.34
-2.263 9.3570004 -1.654 0.31999999
-2.2950001 9.3610001 -1.6569999 0.34
-2.332 9.3839998 -1.6619999 0.30000001
-2.3699999 9.4099998 -1.669 0.30000001
-2.4059999 9.427 -1.673 0.34999999
-2.438 9.4289999 -1.675 0.30000001
-2.4630001 9.4060001 -1.6720001 0.31999999
-2.493 9.4589996 -1.683 0.31
-2.527 9.4659996 -1.686 0.33000001
-2.5610001 9.4759998 -1.689 0.34
-2.5899999 9.4639997 -1.689 0.28999999
-2.618 9.4519997 -1.688 0.37
-2.6489999 9.4449997 -1.688 0.31
-2.688 9.4709997 -1.6950001 0.36000001
-2.701 9.4589996 -1.693 0.34999999
-2.73 9.4510002 -1.693 0.30000001
-2.77 9.4779997 -1.7 0.37
-2.8 9.467 -1.7 0.30000001
-2.8269999 9.4510002 -1.698 0.31999999
-2.8570001 9.4420004 -1.698 0.31999999
-2.8900001 9.4440002 -1.701 0.33000001
-2.904 9.4379997 -1.7 0.34
-2.937 9.4379997 -1.702 0.38
-2.964 9.4230003 -1.701 0.31
-3.003 9.4420004 -1.706 0.31999999
-3.0350001 9.4399996 -1.7079999 0.34
-3.066 9.4359999 -1.709 0.34
-3.0880001 9.3999996 -1.704 0.33000001
-3.1070001 9.4099998 -1.707 0.34
-3.131 9.382 -1.7029999 0.33000001
-3.1619999 9.3769999 -1.704 0.38
-3.194 9.3769999 -1.706 0.36000001
-3.2190001 9.3540001 -1.7029999 0.31999999
-3.2420001 9.3249998 -1.7 0.36000001
-3.2690001 9.3070002 -1.698 0.28999999
-3.2780001 9.2849998 -1.6950001 0.34
-3.316 9.3009996 -1.7 0.38
-3.3710001 9.3610001 -1.714 0.28
-3.4159999 9.3950005 -1.723 0.41
-3.4519999 9.4020004 -1.726 0.28999999
-3.4860001 9.4040003 -1.729 0.31999999
-3.5150001 9.3920002 -1.729 0.31999999
-3.5350001 9.3990002 -1.7309999 0.37
-3.5639999 9.3859997 -1.7309999 0.28
-3.5969999 9.3859997 -1.733 0.38
-3.6389999 9.4060001 -1.739 0.36000001
-3.6630001 9.3789997 -1.7359999 0.31999999
-3.697 9.3809996 -1.739 0.38
-3.7279999 9.3730001 -1.739 0.31
-3.77 9.3920002 -1.7460001 0.34
-3.7950001 9.4119997 -1.751 0.34999999
-3.8299999 9.4139996 -1.7539999 0.34
-3.8699999 9.4280005 -1.7589999 0.30000001
-3.891 9.3940001 -1.7539999 0.31
-3.9230001 9.3870001 -1.755 0.27000001
-3.9560001 9.3839998 -1.757 0.16
-3.9909999 9.3839998 -1.76 0.30000001
-3.9979999 9.3590002 -1.756 0.23
-4.0359998 9.3669996 -1.76 0.16
-4.0619998 9.3470001 -1.7589999 0.28999999
-4.0929999 9.3369999 -1.7589999 0.19
-4.1329999 9.3500004 -1.765 0.13
-4.152 9.3129997 -1.76 0.20999999
-4.1890001 9.3179998 -1.763 0.23999999
-4.2129998 9.3310003 -1.767 0.28
-4.2309999 9.2930002 -1.762 0.31999999
-4.2670002 9.2959995 -1.766 0.34
-4.303 9.2969999 -1.7690001 0.28999999
-4.335 9.2880001 -1.77 0.28999999
-4.3740001 9.2959995 -1.774 0.28
-4.4190001 9.316 -1.781 0.25999999
-4.4330001 9.3070002 -1.78 0.28
-4.4710002 9.3129997 -1.784 0.25
-4.506 9.3100004 -1.7869999 0.23
-4.54 9.3059998 -1.789 0.38999999
-4.5739999 9.302 -1.791 0.31999999
-4.6230001 9.3269997 -1.799 0.34999999
-4.6560001 9.3190002 -1.8 0.31
-4.678 9.3280001 -1.804 0.25999999
-4.7199998 9.3369999 -1.809 0.31
-4.7509999 9.3260002 -1.8099999 0.30000001
-4.7810001 9.3129997 -1.8099999 0.34
-4.8280001 9.3330002 -1.817 0.27000001
-4.8639998 9.3299999 -1.8200001 0.23999999
-4.895 9.3179998 -1.8200001 0.28
-4.9229999 9.3360004 -1.826 0.30000001
-4.9590001 9.3330002 -1.8279999 0.38999999
-4.9860001 9.3140001 -1.8279999 0.34
-5.0149999 9.2969999 -1.827 0.28999999
-5.0599999 9.3100004 -1.834 0.18000001
-5.1009998 9.3170004 -1.8380001 0.25999999
-5.132 9.3039999 -1.839 0.23
-5.151 9.2690001 -1.835 0.15000001
-5.1859999 9.2969999 -1.8430001 0.28999999
-5.211 9.2740002 -1.841 0.23
-5.2519999 9.2779999 -1.846 0.11
-5.276 9.2530003 -1.844 0.16
-5.3169999 9.257 -1.848 0.050000001
-5.3169999 9.1899996 -1.8380001 0.16
-5.348 9.2089996 -1.8430001 0.18000001
-5.368 9.177 -1.84 0.18000001
-5.3969998 9.1619997 -1.84 0.18000001
-5.415 9.1260004 -1.836 0.17
-5.4400001 9.1029997 -1.835 0.039999999
-5.46 9.0719995 -1.832 0.07
-5.4970002 9.0679998 -1.835 0.039999999
-5.506 9.0509996 -1.8329999 0.07
-5.5190001 9.0089998 -1.8279999 0.039999999
-5.5510001 8.9980001 -1.829 0.029999999
-5.5760002 8.974 -1.8279999 0.029999999
-5.5949998 8.9429998 -1.825 0.039999999
-5.619 8.9189997 -1.823 0.029999999
-5.652 8.9069996 -1.825 0.029999999
-5.665 8.8660002 -1.8200001 0.039999999
-5.6869998 8.8710003 -1.823 0.039999999
-5.704 8.8360004 -1.819 0.039999999
-5.7309999 8.8170004 -1.819 0.029999999
-5.7610002 8.802 -1.819 0.039999999
-5.789 8.7849998 -1.8200001 0.029999999
-5.8150001 8.7639999 -1.819 0.029999999
-5.835 8.7340002 -1.816 0.029999999
-5.8509998 8.7279997 -1.817 0
-5.8850002 8.7200003 -1.819 0
-5.902 8.6859999 -1.816 0
-5.9369998 8.6789999 -1.819 0
-5.9580002 8.651 -1.816 0
-5.994 8.6450005 -1.819 0
-6.0209999 8.6260004 -1.819 0
-6.0359998 8.618 -1.8200001 0
-6.066 8.6040001 -1.821 0
-6.1009998 8.5959997 -1.823 0
-6.1240001 8.5719995 -1.822 0
-6.177 8.5880003 -1.83 0
-6.1890001 8.5480003 -1.826 0
-6.23 8.5489998 -1.83 0
-6.2309999 8.5220003 -1.826 0
-6.2610002 8.507 -1.827 0
-6.2880001 8.4870005 -1.827 0
-6.3179998 8.4720001 -1.8279999 0
-6.3520002 8.4619999 -1.831 0
-6.3740001 8.4359999 -1.829 0
-6.3940001 8.408 -1.827 0
-6.4109998 8.4020004 -1.8279999 0
-6.4310002 8.3739996 -1.827 0
-6.4520001 8.3459997 -1.825 0
-6.487 8.3380003 -1.8279999 0
-6.5029998 8.3039999 -1.824 0
-6.5289998 8.2840004 -1.824 0
-6.5510001 8.2580004 -1.823 0
-6.5539999 8.2360001 -1.8200001 0
-6.5910001 8.2290001 -1.824 0
-6.6170001 8.2080002 -1.824 0
-6.6389999 8.1829996 -1.823 0
-6.6680002 8.1660004 -1.824 0
-6.6890001 8.1389999 -1.822 0
-6.7069998 8.1090002 -1.8200001 0
-6.7140002 8.0909996 -1.818 0
-6.743 8.0740004 -1.819 0
-6.743 8.0229998 -1.812 0
-6.763 7.9959998 -1.811 0.029999999
-6.7849998 7.9720001 -1.8099999 0.029999999
-6.8000002 7.9380002 -1.807 0.029999999
-6.8280001 7.9200001 -1.808 0.029999999
-6.8509998 7.8969998 -1.807 0.029999999
-6.8649998 7.888 -1.808 0.039999999
-6.8850002 7.8600001 -1.806 0.07
-6.901 7.829 -1.804 0.039999999
-6.9299998 7.8119998 -1.8049999 0.07
-6.9520001 7.7870002 -1.804 0.039999999
-6.98 7.77 -1.806 0.07
-6.9970002 7.7389998 -1.803 0.039999999
-7.0100002 7.73 -1.804 0.07
-7.0289998 7.7020001 -1.802 0.039999999
-7.0510001 7.677 -1.802 0.07
-7.0760002 7.6560001 -1.802 0.039999999
-7.105 7.6399999 -1.803 0.07
-7.125 7.6129999 -1.802 0.039999999
-7.1529999 7.5949998 -1.803 0.07
-7.164 7.5819998 -1.803 0.039999999
-7.1859999 7.5580001 -1.803 0.07
-7.2030001 7.5279999 -1.801 0.039999999
-7.2319999 7.5110002 -1.802 0.07
-7.2389998 7.4720001 -1.798 0.039999999
-7.2740002 7.46 -1.801 0.07
-7.2969999 7.4369998 -1.801 0.039999999
-7.303 7.4200001 -1.799 0.07
-7.3200002 7.3899999 -1.798 0.039999999
-7.3569999 7.381 -1.801 0.039999999
-7.3740001 7.3520002 -1.8 0.07
-7.4039998 7.336 -1.802 0.039999999
-7.4229999 7.309 -1.8 0
-7.4429998 7.283 -1.8 0
-7.4549999 7.2709999 -1.8 0
-7.4889998 7.2579999 -1.803 0
-7.506 7.2290001 -1.801 0
-7.526 7.2030001 -1.8 0
-7.5679998 7.198 -1.806 0
-7.605 7.1880002 -1.809 0
-7.599 7.1370001 -1.802 0
-7.6490002 7.1620002 -1.812 0
-7.6459999 7.1129999 -1.8049999 0
-7.6880002 7.1079998 -1.8099999 0
-7.7160001 7.0890002 -1.812 0
-7.7399998 7.066 -1.812 0
-7.763 7.0430002 -1.812 0
-7.7940001 7.027 -1.8150001 0
-7.8039999 7.013 -1.814 0
-7.8200002 6.9829998 -1.813 0
-7.8509998 6.967 -1.8150001 0
-7.8839998 6.9520001 -1.818 0
-7.9029999 6.9250002 -1.817 0
-7.9159999 6.8920002 -1.8150001 0
-7.9349999 6.8649998 -1.814 0
-7.954 6.8600001 -1.816 0
-7.9770002 6.836 -1.817 0
-7.993 6.8060002 -1.8150001 0
-8.0190001 6.7849998 -1.816 0
-8.04 6.7600002 -1.816 0
-8.0550003 6.7290001 -1.8150001 0
-8.052 6.684 -1.809 0
-8.059 6.6690001 -1.808 0.029999999
-8.085 6.6469998 -1.8099999 0.029999999
-8.0979996 6.6149998 -1.808 0.029999999
-8.1230001 6.5939999 -1.809 0.029999999
-8.1400003 6.5640001 -1.808 0.029999999
-8.1590004 6.5370002 -1.807 0.029999999
-8.1700001 6.5040002 -1.8049999 0.029999999
-8.1789999 6.4899998 -1.8049999 0.029999999
-8.1960001 6.4619999 -1.804 0.029999999
-8.2209997 6.4400001 -1.8049999 0.029999999
-8.2489996 6.4200001 -1.807 0.029999999
-8.2659998 6.3920002 -1.806 0.07
-8.2690001 6.3530002 -1.802 0.039999999
-8.2849998 6.3239999 -1.802 0.039999999
-8.3039999 6.2969999 -1.801 0.07
-8.3070002 6.2789998 -1.8 0.039999999
-8.3269997 6.2529998 -1.8 0.07
-8.3310003 6.2150002 -1.796 0.079999998
-8.349 6.1880002 -1.796 0.079999998
-8.3540001 6.151 -1.7920001 0.039999999
-8.3529997 6.1090002 -1.788 0.15000001
-8.335 6.0770001 -1.7819999 0.22
-8.3369999 6.0380001 -1.778 0.27000001
-8.3719997 6.0229998 -1.781 0.34
-8.3970003 6.0009999 -1.783 0.34
-8.4320002 5.9860001 -1.786 0.36000001
-8.4700003 5.973 -1.791 0.41
-8.4980001 5.9530001 -1.793 0.2
-8.5349998 5.9590001 -1.799 0.059999999
-8.5240002 5.9120002 -1.7920001 0.17
-8.5579996 5.8959999 -1.796 0.050000001
-8.5790005 5.8709998 -1.796 0
-8.6120005 5.8540001 -1.8 0
-8.6239996 5.822 -1.798 0
-8.6210003 5.7810001 -1.794 0
-8.6160002 5.7579999 -1.79 0
-8.5830002 5.697 -1.779 0
-8.5930004 5.664 -1.777 0.029999999
-8.6230001 5.6459999 -1.78 0.029999999
-8.6379995 5.6170001 -1.779 0.039999999
-8.6689997 5.598 -1.7819999 0.07
-8.6800003 5.566 -1.781 0.039999999
-8.6999998 5.5409999 -1.7819999 0.039999999
-8.7119999 5.5300002 -1.7819999 0.07
-8.7329998 5.5040002 -1.783 0.039999999
-8.7419996 5.4720001 -1.781 0.039999999
-8.7589998 5.4439998 -1.781 0.039999999
-8.7790003 5.4190001 -1.7819999 0.039999999
-8.8000002 5.3930001 -1.783 0.039999999
-8.8149996 5.3639998 -1.7819999 0.039999999
-8.8199997 5.349 -1.7819999 0.07
-8.8380003 5.322 -1.7819999 0.039999999
-8.8549995 5.2940001 -1.7819999 0.07
-8.8730001 5.2670002 -1.7819999 0.039999999
-8.8800001 5.2329998 -1.78 0.039999999
-8.8959999 5.2049999 -1.78 0.029999999
-8.9119997 5.177 -1.78 0.039999999
-8.9169998 5.1609998 -1.779 0.039999999
-8.9379997 5.1360002 -1.78 0.07
-8.9440002 5.1020002 -1.778 0.039999999
-8.9639997 5.0760002 -1.779 0.07
-8.9709997 5.0430002 -1.777 0.039999999
-8.9849997 5.0139999 -1.777 0.07
-8.9969997 4.9840002 -1.776 0.039999999
-9.0190001 4.9770002 -1.779 0.07
-9.0240002 4.9429998 -1.777 0.039999999
-9.0360003 4.9130001 -1.776 0.079999998
-9.0360003 4.8759999 -1.773 0.039999999
-9.0459995 4.8449998 -1.772 0.07
-9.0740004 4.823 -1.774 0.039999999
-9.0749998 4.7870002 -1.771 0.07
-9.0839996 4.7740002 -1.772 0.039999999
-9.1009998 4.7459998 -1.772 0.079999998
-9.1090002 4.7140002 -1.771 0.079999998
-9.118 4.6820002 -1.77 0.14
-9.1400003 4.6570001 -1.771 0.039999999
-9.1350002 4.619 -1.767 0.079999998
-9.151 4.6090002 -1.7690001 0.079999998
-9.1850004 4.5900002 -1.773 0.079999998
-9.1759996 4.5500002 -1.768 0.079999998
-9.1870003 4.5190001 -1.767 0.079999998
-9.2030001 4.4910002 -1.768 0.079999998
-9.2150002 4.461 -1.767 0.079999998
-9.2309999 4.4330001 -1.768 0.039999999
-9.2559996 4.4089999 -1.77 0.07
-9.2449999 4.3860002 -1.766 0.079999998
-9.257 4.3559999 -1.766 0.079999998
-9.2810001 4.3319998 -1.768 0.079999998
-9.2709999 4.2919998 -1.763 0.039999999
-9.2939997 4.2670002 -1.765 0.07
-9.3109999 4.2399998 -1.766 0.039999999
-9.3240004 4.21 -1.766 0.079999998
-9.3219995 4.1919999 -1.7640001 0.039999999
-9.349 4.1690001 -1.767 0.07
-9.3509998 4.1350002 -1.765 0.039999999
-9.3660002 4.1059999 -1.765 0.079999998
-9.3839998 4.079 -1.766 0.039999999
-9.3859997 4.0450001 -1.7640001 0.07
-9.3940001 4.013 -1.763 0.039999999
-9.4160004 4.0050001 -1.766 0.07
-9.4119997 3.9679999 -1.763 0.039999999
-9.4230003 3.938 -1.763 0.07
-9.4460001 3.9130001 -1.765 0.039999999
-9.4490004 3.8800001 -1.763 0.07
-9.4630003 3.8510001 -1.763 0.039999999
-9.4750004 3.8210001 -1.763 0.039999999
-9.4790001 3.8050001 -1.763 0.07
-9.4799995 3.7709999 -1.761 0.039999999
-9.5179996 3.7509999 -1.766 0.07
-9.5109997 3.714 -1.762 0.039999999
-9.5270004 3.6860001 -1.763 0.039999999
-9.5220003 3.6500001 -1.76 0.07
-9.5369997 3.6210001 -1.761 0.039999999
-9.5410004 3.605 -1.76 0.07
-9.5550003 3.5769999 -1.761 0.039999999
-9.5570002 3.543 -1.7589999 0.07
-9.5629997 3.5109999 -1.758 0.15000001
-9.5780001 3.4820001 -1.7589999 0.039999999
-9.5719995 3.4460001 -1.755 0.07
-9.5830002 3.4159999 -1.755 0.16
-9.5970001 3.404 -1.757 0.16
-9.5950003 3.3699999 -1.755 0.16
-9.5979996 3.3369999 -1.753 0.17
-9.6160002 3.309 -1.755 0.16
-9.6129999 3.2750001 -1.752 0.16
-9.6199999 3.243 -1.751 0.17
-9.6499996 3.22 -1.755 0.18000001
-9.6330004 3.197 -1.751 0.039999999
-9.6110001 3.1559999 -1.745 0.14
-9.6590004 3.138 -1.752 0.2
-9.6120005 3.0899999 -1.7410001 0.23999999
-9.6280003 3.0610001 -1.742 0.23
-9.6599998 3.0380001 -1.747 0.28999999
-9.6490002 3.0009999 -1.743 0.27000001
-9.6639996 2.973 -1.744 0.28
-9.743 2.9809999 -1.758 0.31999999
-9.7299995 2.9430001 -1.7539999 0.19
-9.7340002 2.911 -1.753 0.050000001
-9.7349997 2.878 -1.751 0.17
-9.7370005 2.845 -1.75 0.050000001
-9.7340002 2.812 -1.748 0.17
-9.7639999 2.7869999 -1.752 0.050000001
-9.7250004 2.7590001 -1.743 0.16
-9.7690001 2.7390001 -1.75 0.050000001
-9.7779999 2.7079999 -1.75 0.18000001
-9.79 2.678 -1.751 0.050000001
-9.7930002 2.6459999 -1.75 0.16
-9.809 2.6170001 -1.751 0.050000001
-9.7749996 2.592 -1.744 0.17
-9.823 2.572 -1.752 0.1
-9.816 2.5369999 -1.749 0.16
-9.835 2.5090001 -1.751 0.050000001
-9.8120003 2.47 -1.745 0.17
-9.8710003 2.4519999 -1.755 0.19
-9.8070002 2.4030001 -1.7410001 0.14
-9.7950001 2.368 -1.738 0.25
-9.8479996 2.3640001 -1.747 0.41
-9.8369999 2.329 -1.743 0.30000001
-9.8549995 2.3010001 -1.7460001 0.38
-9.9029999 2.279 -1.753 0.36000001
-9.9160004 2.2490001 -1.7539999 0.19
-9.9399996 2.2219999 -1.758 0.059999999
-9.9029999 2.181 -1.749 0.17
-9.9160004 2.168 -1.751 0.11
-9.9130001 2.1340001 -1.749 0.15000001
-9.9350004 2.1059999 -1.752 0.23999999
-9.9180002 2.0699999 -1.748 0.19
-9.9460001 2.0439999 -1.752 0.050000001
-9.9540005 2.013 -1.752 0.16
-9.9680004 1.983 -1.7539999 0.18000001
-9.941 1.961 -1.748 0.18000001
-9.9370003 1.928 -1.7460001 0.23
-9.9549999 1.899 -1.748 0.37
-9.9549999 1.867 -1.747 0.30000001
-9.9589996 1.835 -1.747 0.52999997
-10.003 1.811 -1.7539999 0.38999999
-10.024 1.7819999 -1.757 0.11
-9.9980001 1.761 -1.751 0.090000004
-9.9980001 1.729 -1.75 0.090000004
-10.005 1.698 -1.751 0.090000004
-10.012 1.6670001 -1.751 0.079999998
-10.008 1.6339999 -1.749 0.16
-10.017 1.603 -1.75 0.039999999
-10.025 1.572 -1.751 0.07
-10.032 1.557 -1.751 0.079999998
-10.042 1.526 -1.753 0.15000001
-10.059 1.4960001 -1.755 0.039999999
-10.054 1.4630001 -1.753 0.07
-10.062 1.432 -1.7539999 0.039999999
-10.08 1.403 -1.756 0.07
-10.098 1.373 -1.7589999 0.039999999
-10.098 1.357 -1.758 0.039999999
-10.602 1.392 -1.851 0
-10.614 1.359 -1.853 0
-10.612 1.325 -1.852 0
-10.628 1.293 -1.854 0
-10.636 1.26 -1.855 0
-10.675 1.248 -1.862 0
-10.644 1.211 -1.855 0
-10.657 1.178 -1.857 0
-10.682 1.147 -1.8609999 0
-10.672 1.112 -1.858 0
-10.674 1.0779999 -1.858 0
-10.689 1.046 -1.86 0
-10.681 1.028 -1.858 0
-10.684 0.995 -1.858 0
-10.687 0.96100003 -1.858 0
-10.7 0.92799997 -1.86 0
-10.699 0.89399999 -1.859 0
-10.707 0.861 -1.86 0
-10.71 0.82800001 -1.86 0
-10.713 0.81099999 -1.8609999 0
