# .PCD v0.7 - Point Cloud Data file format
VERSION 0.7
FIELDS x y z intensity
SIZE 4 4 4 4
TYPE F F F F
COUNT 1 1 1 1
WIDTH 1490
HEIGHT 1
VIEWPOINT 0 0 0 1 0 0 0
POINTS 1490
DATA ascii
12.304 42.577999 1.2180001 0
12.186 42.669998 1.219 0
11.609 41.639 1.193 0
11.548 41.926998 1.199 0
11.139 40.943001 1.175 0
11.003 40.950001 1.174 0
11.645 43.897999 1.243 0
10.896 41.328999 1.182 0
10.777 41.404999 1.183 0
11.267 43.855999 1.24 0
11.108 43.810001 1.238 0
10.993 44.834 1.26 0
10.845 44.839001 1.2589999 0
11.304 47.391998 1.318 0
11.188 47.569 1.321 0
9.599 44.898998 1.2539999 0
9.474 45.007999 1.256 0
9.3310003 45.028999 1.256 0
8.9399996 43.834 1.227 0
8.7040005 43.014999 1.2079999 0
8.8780003 44.603001 1.244 0
8.3319998 42.550999 1.196 0
8.1689997 42.421001 1.192 0
8.0279999 42.408001 1.191 0
8.0290003 43.16 1.2079999 0
7.927 43.369999 1.212 0
8.2040005 45.699001 1.266 0
8.9890003 50.548 1.378 0
9.4519997 54.146999 1.46 0
7.4429998 43.412998 1.211 0
7.6269999 45.345001 1.256 0
7.0809999 42.914001 1.199 0
6.9359999 42.873001 1.197 0.1
6.789 42.821999 1.196 0
7.0419998 44.881001 1.243 0
6.9819999 45.431 1.255 0
6.8150001 45.292 1.251 0
6.5640001 44.570999 1.234 0
6.7280002 46.712002 1.283 0
7.9050002 56.166 1.5 0
7.823 56.228001 1.501 0
6.5310001 48.016998 1.312 0
6.3140001 47.535999 1.3 0
3.4200001 26.294001 0.81199998 0.1
3.3269999 26.219 0.81 0.12
3.3269999 26.9 0.82599998 0.34999999
3.2390001 26.888 0.82499999 0.23
3.1129999 26.535 0.81699997 0.23999999
3.0209999 26.101 0.80699998 0.31
2.934 26.065001 0.80599999 0.23
2.8570001 26.118999 0.80699998 0.47
2.803 26.395 0.81300002 0.16
2.7290001 26.493 0.815 0.16
2.635 26.393999 0.81199998 0
4.1859999 43.484001 1.2029999 0
4.1290002 43.605999 1.206 0
4.5570002 49.834999 1.348 0
4.2280002 47.890999 1.303 0
4.0869999 48.009998 1.306 0
3.8900001 47.452 1.293 0
3.9130001 49.662998 1.3430001 0
3.7720001 49.881001 1.348 0
3.6429999 49.194 1.332 0
3.4200001 48.237999 1.3099999 0
3.2709999 48.280998 1.3099999 0
3.2449999 50.257999 1.355 0
1.776 28.73 0.86400002 0.1
1.6849999 28.737 0.86400002 0
2.6259999 47.632999 1.295 0
1.339 26.323 0.80900002 0.2
1.268 26.589001 0.815 0
1.175 26.363001 0.80900002 0
2.0190001 49.313999 1.332 0
1.941 51.372002 1.3789999 0
1.669 48.140999 1.3049999 0
1.603 48.445 1.312 0
1.443 48.164001 1.306 0
0.73299998 26.910999 0.82099998 0
1.132 47.835999 1.298 0
0.99199998 48.334999 1.309 0
0.84100002 48.386002 1.3099999 0
0.66399997 46.575001 1.2690001 0
0.58499998 46.098 1.258 0
0.44100001 46.208 1.261 0
0.29499999 46.055 1.257 0
0.161 50.007 1.347 0
0.0049999999 46.740002 1.273 0
-0.134 44.605999 1.224 0
-0.27399999 44.671001 1.226 0
-0.36399999 47.040001 1.28 0
-0.50599998 46.561001 1.2690001 0
-0.61900002 44.240002 1.216 0
-0.80500001 46.917 1.277 0
-0.94499999 46.521999 1.268 0
-1.073 45.761002 1.251 0
-1.222 45.967999 1.256 0
-1.382 49.018002 1.325 0
-1.531 48.862999 1.322 0
-1.558 45.255001 1.24 0
-1.841 48.929001 1.323 0
-2.1919999 49.893002 1.346 0
-2.352 49.950001 1.347 0
-2.438 50.113998 1.351 0
-2.6040001 47.416 1.29 0
-2.8699999 49.400002 1.335 0
-3.0940001 50.5 1.3609999 0
-3.309 51.368 1.381 0
-3.7479999 55.432999 1.474 0
-3.8710001 55.936001 1.485 0
-1.756 23.452 0.74400002 0.13
-1.809 23.187 0.73799998 0
-1.893 23.316999 0.741 0
-4.2290001 49.779999 1.346 0
-4.757 53.969002 1.442 0
-4.4759998 49.904999 1.349 0
-4.6199999 49.750999 1.346 0
-5.0250001 50.647999 1.368 0
-5.1849999 50.646 1.368 0
-5.3410001 50.591999 1.367 0
-5.5300002 50.853001 1.373 0
-5.8569999 53.077999 1.425 0
-2.891 24.892 0.77899998 0.13
-2.9719999 24.899 0.77899998 0.41999999
-3.052 24.910999 0.77999997 0
-6.1290002 48.548 1.323 0
-6.3080001 48.735001 1.3279999 0
-6.4089999 48.321999 1.318 0
-3.273 23.910999 0.75800002 0.25999999
-3.3429999 23.867001 0.75700003 0.34
-3.4159999 23.84 0.75700003 0.25999999
-3.483 23.778 0.75599998 0.44
-3.5450001 23.684 0.75400001 0.27000001
-3.6159999 23.653 0.75300002 0.34
-3.658 23.674999 0.75400001 0.46000001
-3.74 23.711 0.755 0.12
-4.684 29.066999 0.87900001 0.17
-4.743 28.855 0.87400001 0.14
-4.8099999 28.700001 0.87099999 0.23
-4.8590002 28.445999 0.866 0.2
-4.9499998 28.438999 0.866 0.22
-4.974 28.313 0.86299998 0.22
-4.7670002 26.656 0.82499999 0
-5.2329998 28.728001 0.87300003 0
-5.2989998 28.577 0.87 0.090000004
-5.3790002 28.513 0.86900002 0.25999999
-5.4619999 28.461 0.86799997 0.19
-5.5450001 28.412001 0.86799997 0.33000001
-5.5819998 28.364 0.86699998 0.2
-5.664 28.311001 0.866 0.15000001
-5.7579999 28.319 0.866 0
-10.797 52.147999 1.421 0
-10.099 48.028999 1.326 0
-12.006 56.199001 1.517 0
-12.234 56.396999 1.523 0
-12.272 56.146 1.517 0
-11.388 51.34 1.406 0.090000004
-6.263 27.875999 0.85900003 0.2
-6.3060002 27.659 0.85399997 0.25
-6.3920002 27.635 0.85399997 0.19
-6.4720001 27.59 0.85399997 0.33000001
-6.9439998 29.179001 0.89099997 0.2
-6.9770002 29.115999 0.88999999 0.28
-7.1139998 29.282 0.89499998 0.27000001
-7.3099999 29.679001 0.90399998 0.30000001
-7.3099999 29.284 0.89600003 0.20999999
-7.4439998 29.427 0.89999998 0.34
-6.8769999 26.837999 0.83899999 0.18000001
-6.8790002 26.500999 0.83200002 0.25999999
-6.914 26.466999 0.83099997 0.36000001
-6.9879999 26.408001 0.82999998 0.25
-7.079 26.419001 0.83099997 0.38
-7.2350001 26.663 0.83700001 0.28
-7.3449998 26.736 0.83999997 0.17
-7.46 26.825001 0.84200001 0.44999999
-7.3660002 26.17 0.82700002 0.18000001
-7.3150001 25.833 0.81999999 0.34999999
-7.6290002 26.621 0.83899999 0.20999999
-7.7189999 26.618 0.83999997 0
-7.559 25.471001 0.81300002 0.16
-7.5819998 25.257999 0.80900002 0.50999999
-7.7509999 25.530001 0.81599998 0.20999999
-7.8060002 25.566 0.81699997 0.31
-7.921 25.652 0.81999999 0.2
-8.1059999 25.961 0.82800001 0.34999999
-8.1440001 25.798 0.824 0.20999999
-8.1009998 25.384001 0.815 0.18000001
-8.2510004 25.577 0.81999999 0.28999999
-8.2200003 25.211 0.81199998 0.20999999
-8.0290003 24.367001 0.79299998 0.31999999
-8.0430002 24.282 0.79100001 0.28999999
-8.1920004 24.473 0.796 0.37
-8.2720003 24.455999 0.796 0.33000001
-8.4379997 24.688999 0.80299997 0.22
-8.5010004 24.622999 0.80199999 0.18000001
-8.5139999 24.410999 0.79699999 0.51999998
-8.6400003 24.524 0.80000001 0.2
-8.6870003 24.533001 0.801 0.18000001
-8.6560001 24.205999 0.79400003 0.31999999
-8.7869997 24.329 0.79699999 0.23
-9.7440004 26.709 0.85600001 0.27000001
-9.2010002 24.981001 0.815 0.2
-9.2700005 24.927 0.81400001 0.27000001
-9.3809996 24.986 0.81599998 0.2
-9.3710003 24.84 0.81300002 0.46000001
-9.382 24.635 0.80900002 0.22
-9.4069996 24.469 0.80500001 0.28999999
-9.5209999 24.535999 0.80800003 0.30000001
-9.7329998 24.849001 0.81599998 0.14
-9.7860003 24.754999 0.815 0.31999999
-10.686 26.778999 0.86500001 0.20999999
-10.708 26.714001 0.86400002 0.2
-10.798 26.693001 0.86400002 0.16
-10.881 26.657 0.86400002 0.14
-10.989 26.684 0.866 0.16
-11.068 26.636999 0.86500001 0.22
-10.749 25.643 0.84200001 0.27000001
-10.776 25.483999 0.838 0
-12.055 28.377001 0.91100001 0.12
-11.089 25.882999 0.85000002 0.11
-11.196 25.907 0.85100001 0.34
-11.378 26.101999 0.85699999 0.12
-11.726 26.67 0.87199998 0.13
-11.539 26.023001 0.85699999 0.19
-12.002 26.839001 0.87800002 0.46000001
-11.528 25.673 0.84899998 0.2
-11.554 25.514999 0.84600002 0.27000001
-11.569 25.336 0.84299999 0.31
-11.544 25.075001 0.83700001 0.28999999
-11.616 25.024 0.83700001 0.31999999
-11.783 25.176001 0.84100002 0.20999999
-12.008 25.445999 0.84899998 0.38
-12.308 25.974001 0.86299998 0.22
-12.404 25.966 0.86400002 0.31999999
-12.375 25.698 0.85799998 0.20999999
-12.384 25.511999 0.85399997 0.18000001
-12.493 25.532 0.85600001 0.47999999
-12.691 25.731001 0.86199999 0.2
-12.982 26.113001 0.87199998 0.18000001
-12.939 25.924999 0.86799997 0.25999999
-13.299 26.436001 0.88200003 0
-13.402 26.434999 0.88300002 0.13
-13.371 26.167999 0.87800002 0.17
-13.324 25.877001 0.87099999 0.28999999
-13.721 26.441999 0.88700002 0.14
-13.9 26.580999 0.89099997 0.46000001
-13.304 25.252001 0.85799998 0.2
-13.146 24.857 0.84899998 0.34
-13.186 24.745001 0.847 0.16
-13.236 24.652 0.84600002 0.16
-13.758 25.429001 0.86699998 0
-13.816 25.348 0.866 0.07
-13.912 25.334 0.86699998 0.18000001
-13.982 25.271999 0.866 0.25999999
-14.035 25.275 0.86699998 0
-30.447001 53.571999 1.612 0
-16.103001 27.648001 0.93699998 0.050000001
-16.191999 27.6 0.93699998 0.14
-16.125 27.290001 0.93000001 0.20999999
-16.245001 27.296 0.93199998 0.2
-16.235001 27.087 0.92799997 0.25999999
-16.229 26.885 0.92400002 0
-33.268002 54.668999 1.666 0
-32.368999 53.006001 1.623 0
-32.636002 53.067001 1.627 0.029999999
-17.523001 28.316 0.96700001 0.14
-17.648001 28.318001 0.96799999 0
-17.988001 28.464001 0.97500002 0
-18.195999 28.594 0.98000002 0.11
-18.190001 28.485001 0.97799999 0.18000001
-15.066 23.438 0.84299999 0.2
-15.114 23.351999 0.84200001 0.28999999
-15.196 23.318001 0.84200001 0.43000001
-15.292 23.305 0.84299999 0.2
-19.042 28.811001 0.995 0.34999999
-17.937 26.957001 0.94599998 0.18000001
-17.944 26.875999 0.94400001 0
-18.936001 28.167999 0.98100001 0.12
-19.51 28.825001 1.001 0.25999999
-18.156 26.646 0.94300002 0.22
-18.157 26.469 0.93900001 0.23999999
-18.232 26.4 0.93900001 0.25
-18.271999 26.282 0.93699998 0
-18.416 26.223 0.93800002 0.33000001
-18.489 26.152 0.93800002 0.23
-18.650999 26.205999 0.94099998 0
-20.535999 28.660999 1.011 0.11
-18.664 25.879999 0.935 0.17
-18.775999 25.863001 0.93599999 0.25
-18.975 26.051001 0.94199997 0.1
-19.108 26.061001 0.94400001 0.14
-19.195 26.007 0.94400001 0.30000001
-19.166 25.799 0.94 0.20999999
-19.129 25.58 0.93599999 0.23999999
-18.861 25.059 0.92299998 0.17
-18.784 24.794001 0.917 0.23999999
-18.893999 24.858 0.91900003 0.17
-19.319 25.250999 0.93199998 0
-19.311001 25.077999 0.92900002 0.059999999
-20.712 26.719999 0.97799999 0.16
-20.645 26.462 0.97299999 0.30000001
-20.705999 26.368999 0.972 0.17
-20.245001 25.617001 0.95200002 0
-22.229 28.033001 1.023 0.090000004
-20.618 25.837 0.96100003 0.28
-20.51 25.537001 0.954 0.11
-20.809 25.743 0.96200001 0.14
-20.896 25.684999 0.96200001 0.34
-20.993 25.639 0.963 0.14
-20.628 25.033001 0.94700003 0
-20.725 24.99 0.94800001 0.1
-23.49 28.229 1.045 0.090000004
-23.514999 28.079 1.0420001 0.14
-23.781 28.216 1.049 0.12
-23.875999 28.148001 1.049 0.15000001
-24.069 28.195999 1.053 0
-23.674 27.558001 1.036 0.059999999
-24.254 28.054001 1.053 0.11
-24.386 28.117001 1.056 0.14
-24.488001 28.056 1.056 0.16
-24.563999 27.966 1.056 0
-22.261999 25.028999 0.97100002 0.25999999
-22.358 24.979 0.972 0.20999999
-22.625999 25.118999 0.97799999 0
-22.676001 25.094999 0.97899997 0
-24.690001 26.978001 1.041 0
-46.400002 50.348 1.768 0
-23.499001 25.198 0.99299997 0.11
-23.308001 24.837 0.98400003 0.25
-23.441 24.899 0.98699999 0.18000001
-24.816999 26.193001 1.03 0
-24.837999 26.052 1.028 0.1
-23.601 24.601 0.98500001 0.28999999
-23.514999 24.358 0.97899997 0.16
-23.451 24.139999 0.97500002 0
-23.591999 24.132999 0.977 0.14
-23.349001 23.809 0.96799999 0.28
-23.775 24.091 0.97899997 0.2
-24.066 24.233 0.986 0.15000001
-24.368 24.384001 0.99299997 0.23999999
-24.556999 24.417999 0.99699998 0.12
-24.49 24.198999 0.99199998 0.38
-24.527 24.084 0.991 0
-25.302999 24.767 1.015 0
-25.282 24.438 1.0089999 0.14
-25.424 24.421 1.011 0
-24.632 23.513 0.98400003 0.13
-24.707001 23.437 0.98400003 0
-24.768999 23.348 0.98400003 0
-24.309999 22.844 0.96799999 0.090000004
-24.357 22.745001 0.96700001 0.17
-24.437 22.676001 0.96799999 0
-24.535999 22.625 0.96799999 0.059999999
-25.266001 23.150999 0.98900002 0.14
-28.74 26.164 1.0930001 0
-28.833 26.083 1.094 0
-25.552999 23.047001 0.99199998 0.090000004
-29.417 26.360001 1.108 0.15000001
-29.490999 26.259001 1.108 0.13
-29.554001 26.149 1.107 0.15000001
-29.660999 26.079 1.108 0.16
-29.728001 25.972 1.107 0.13
-29.389999 25.514999 1.095 0
-31.584 27.33 1.16 0
-29.450001 25.325001 1.0930001 0
-32.057999 27.389999 1.169 0.050000001
-28.865 24.509001 1.071 0.090000004
-28.989 24.458 1.072 0.14
-29.256001 24.525999 1.0779999 0.16
-27.471001 22.885 1.023 0.19
-27.497999 22.834 1.022 0
-31.681999 26.136 1.1440001 0
-28.959 23.74 1.061 0.11
-28.611 23.306 1.049 0.12
-28.652 23.190001 1.048 0.40000001
-28.643999 23.034 1.045 0.2
-28.620001 22.868 1.043 0.20999999
-28.752001 22.899 1.045 0.11
-28.938 22.899 1.049 0.11
-29.044001 22.834999 1.05 0
-29.344999 22.922001 1.056 0
-29.808001 23.134001 1.068 0.07
-30.843 23.780001 1.095 0.2
-30.143999 23.091999 1.073 0
-31.204 23.825001 1.102 0
-31.030001 23.539 1.095 0
-31.037001 23.391001 1.0930001 0
-35.341 26.455999 1.214 0
-32.443001 24.131001 1.1289999 0
-32.438 23.969999 1.127 0
-32.216999 23.65 1.119 0
-34.096001 24.945 1.17 0
-34.470001 25.052999 1.179 0
-33.827 24.424 1.159 0
-33.832001 24.267 1.1569999 0
-34.332001 24.462 1.168 0
-34.528 24.438 1.1720001 0
-34.450001 24.221001 1.1670001 0
-38.960999 27.297001 1.2920001 0
-38.84 26.85 1.284 0
-34.006001 23.355 1.148 0
-34.102001 23.264 1.148 0
-35.757999 24.228001 1.192 0
-35.874001 24.142 1.193 0
-39.660999 26.597 1.296 0
-39.313 26.184999 1.284 0
-39.374001 26.047001 1.284 0
-38.422001 25.246 1.255 0
-39.756001 25.943001 1.289 0
-34.325001 22.249001 1.14 0
-34.07 21.933001 1.131 0
-34.150002 21.908001 1.132 0
-34.165001 21.767 1.131 0.090000004
-34.528999 21.846001 1.1390001 0.1
-34.620998 21.752001 1.14 0
-38.507999 23.855 1.24 0
-40.666 25.014 1.296 0
-38.541 23.542 1.237 0
-35.087002 21.209 1.142 0.31
-35.221001 21.139 1.1440001 0.11
-35.588001 21.207001 1.152 0
-35.695 21.118999 1.153 0
-35.886002 21.08 1.156 0
-43.742001 25.596001 1.363 0
-47.006001 27.306 1.446 0
-36.675999 21.158001 1.173 0
-36.737 21.039 1.1720001 0
-47.249001 26.855 1.446 0
-45.095001 25.445 1.388 0
-39.568001 22.166 1.2410001 0.12
-39.563 22.082001 1.24 0
-39.685001 21.986 1.242 0
-42.533001 23.388 1.314 0
-42.638 23.271999 1.3150001 0
-42.653 23.106001 1.313 0
-42.623001 22.917 1.3099999 0
-42.660999 22.764999 1.3099999 0
-42.779999 22.656 1.311 0
-43.683998 23.047001 1.3329999 0
-44.605 23.353001 1.355 0
-44.660999 23.204 1.355 0
-46.779999 24.117001 1.4069999 0
-44.763 22.900999 1.353 0
-43.963001 22.145 1.329 0
-42.693001 21.422001 1.296 0
-43.990002 21.899 1.327 0
-44.140999 21.801001 1.33 0
-45.066002 22.082001 1.351 0
-45.231998 21.987 1.354 0
-50.066002 24.139999 1.474 0
-48.778999 23.332001 1.4400001 0
-48.048 22.889999 1.42 0
-54.575001 25.785 1.5829999 0
-54.474998 25.528999 1.5779999 0
-54.578999 25.368999 1.579 0
-59.321999 27.344999 1.696 0
-46.828999 21.414 1.381 0
-46.966999 21.299 1.383 0
-47.166 21.299999 1.387 0
-52.048 23.305 1.507 0
-52.451 23.091 1.5140001 0
-47.550999 20.757999 1.39 0
-47.609001 20.606001 1.39 0
-48.056 20.709 1.4 0
-50.896 21.742001 1.469 0
-50.959 21.58 1.469 0
-60.777 25.507999 1.71 0
-56.389 23.459999 1.599 0
-59.636002 24.371 1.676 0
-56.445 22.965 1.596 0
-56.499001 22.780001 1.596 0
-56.799999 22.694 1.601 0
-56.974998 22.556999 1.604 0
-56.984001 22.354 1.602 0
-57.161999 22.216999 1.605 0
-57.486 21.927999 1.61 0
-57.654999 21.888 1.613 0
-57.609001 21.458 1.608 0
-59.076 21.792999 1.642 0
-58.973 21.544001 1.638 0
-57.669998 20.353001 1.601 0
-57.765999 20.183001 1.602 0
-59.178001 20.466999 1.6339999 0
-58.897999 20.164 1.626 0
-58.611 19.860001 1.618 0
-58.123001 19.492001 1.605 0
-58.375 19.474001 1.61 0
-67.107002 21.450001 1.813 0
-66.125 20.908001 1.788 0
-67.038002 20.965 1.808 0
-68.140999 20.957001 1.832 0
-68.132004 20.721001 1.83 0
-68.036003 20.458 1.826 0
-74.899002 21.624001 1.984 0
-75.478996 20.767 1.9910001 0
-69.392998 -17.243 1.837 0
-66.847 -16.833 1.778 0
-56.182999 -14.991 1.533 0
-56.748001 -15.333 1.5470001 0
-56.077999 -15.341 1.5319999 0
-54.25 -15.023 1.49 0
-54.318001 -15.226 1.493 0
-54.450001 -15.355 1.497 0
-54.534 -15.564 1.5 0
-54.942001 -15.868 1.511 0
-53.896999 -15.749 1.487 0
-53.849998 -15.919 1.487 0
-53.068001 -15.869 1.47 0
-53.049999 -16.045 1.471 0
-53.013 -16.125 1.47 0
-53.521999 -16.464001 1.484 0
-53.478001 -16.635 1.484 0
-53.221001 -16.738001 1.479 0
-53.193001 -16.913 1.48 0
-53.173 -17.275999 1.482 0
-52.967999 -17.301001 1.477 0
-52.653 -17.381001 1.471 0
-52.450001 -17.497 1.4680001 0
-52.681 -17.757999 1.474 0
-52.639999 -17.929001 1.475 0
-53.532001 -18.421 1.498 0
-54.044998 -18.788 1.511 0
-53.666 -18.75 1.503 0
-53.601002 -18.917 1.503 0
-53.876999 -19.205 1.511 0
-54.071999 -19.466 1.517 0
-53.888 -19.591999 1.5140001 0
-53.841 -19.766001 1.515 0
-53.747002 -19.924 1.5140001 0
-55.334 -20.612 1.553 0
-55.187 -20.754 1.551 0
-55.249001 -20.976 1.554 0
-54.916 -21.047001 1.548 0
-40.370998 -17.087999 1.207 0
-40.327999 -17.219 1.207 0
-27.676001 -11.911 0.89499998 0.12
-27.587 -11.976 0.89300001 0.090000004
-27.551001 -12.063 0.89300001 0
-27.509001 -12.148 0.89300001 0
-27.532 -12.21 0.89399999 0
-39.985001 -17.895 1.206 0
-40.054001 -18.077999 1.209 0
-39.903999 -18.160999 1.207 0
-39.756001 -18.245001 1.205 0
-40.514999 -18.747999 1.225 0
-39.604 -18.476999 1.204 0
-40.639999 -19.039 1.23 0.059999999
-39.699001 -18.75 1.2079999 0.079999998
-39.722 -18.913 1.21 0.14
-39.106998 -18.771 1.196 0
-39.195 -18.965 1.2 0
-39.326 -19.181999 1.205 0
-37.526001 -18.448 1.161 0.07
-37.57 -18.542999 1.163 0
-37.426998 -18.620001 1.16 0
-37.813999 -18.959999 1.1720001 0
-37.967999 -19.187 1.177 0
-38.415001 -19.566 1.1900001 0.050000001
-37.701 -19.351 1.173 0.090000004
-37.326 -19.306 1.165 0.14
-37.418999 -19.429001 1.169 0.090000004
-37.491001 -19.617001 1.1720001 0
-37.301998 -19.667 1.169 0
-39.469002 -20.969999 1.226 0
-39.279999 -21.028 1.223 0
-42.849998 -23.115 1.317 0
-41.616001 -22.618 1.2869999 0
-41.060001 -22.399 1.274 0
-38.948002 -21.405001 1.22 0
-38.841999 -21.506001 1.219 0
-39.771 -22.184 1.245 0
-38.452 -21.606001 1.2130001 0
-38.294998 -21.676001 1.211 0
-37.644001 -21.464001 1.1950001 0
-37.625 -21.532 1.196 0
-37.409 -21.563999 1.192 0
-37.215 -21.608 1.188 0
-38.377998 -22.445999 1.221 0
-38.153999 -22.476 1.217 0
-37.778999 -22.415001 1.209 0
-37.199001 -22.229 1.1950001 0
-37.132 -22.268 1.194 0
-17.952 -10.904 0.68699998 0.14
-17.879 -10.936 0.68599999 0.31999999
-17.787001 -10.957 0.68400002 0.34
-17.702999 -10.982 0.68300003 0.31999999
-17.653 -11.028 0.68199998 0.34
-17.676001 -11.081 0.68300003 0.31999999
-17.694 -11.17 0.685 0.31999999
-17.709 -11.258 0.68599999 0.31999999
-17.893999 -11.455 0.69199997 0
-33.408001 -21.561001 1.114 0
-33.376999 -21.690001 1.115 0
-33.242001 -21.750999 1.113 0
-33.179001 -21.784 1.112 0
-33.139 -21.907 1.113 0
-34.488998 -22.957001 1.152 0
-39.661999 -26.584999 1.296 0
-37.479 -25.291 1.238 0
-34.888 -23.701 1.169 0
-34.410999 -23.535 1.158 0
-34.207001 -23.474001 1.153 0
-34.137001 -23.584 1.153 0
-34.699001 -24.134001 1.171 0.13
-31.131001 -21.795 1.074 0.25999999
-31.044001 -21.879999 1.073 0
-30.99 -21.988001 1.074 0.12
-30.825001 -22.016001 1.071 0.090000004
-30.938 -22.171 1.075 0.079999998
-30.344999 -21.889999 1.0599999 0.14
-29.115999 -21.142 1.028 0.20999999
-29.073 -21.25 1.028 0.20999999
-28.993 -21.330999 1.028 0
-29.048 -21.513 1.0319999 0
-28.884001 -21.532 1.029 0
-30.540001 -22.844 1.077 0.050000001
-27.728001 -20.874001 0.99900001 0.17
-27.743999 -21.021999 1.001 0.31
-27.681 -21.112 1.001 0.20999999
-27.679001 -21.249001 1.003 0.23
-27.527 -21.268999 1.001 0.25
-27.298 -21.229 0.99599999 0.19
-27.334 -21.326 0.99800003 0.15000001
-27.277 -21.421 0.99800003 0.13
-27.290001 -21.57 1.001 0.17
-27.240999 -21.67 1.001 0.12
-27.243 -21.812 1.003 0.15000001
-27.037001 -21.787001 0.99900001 0.12
-27.006001 -21.902 1 0
-27.108999 -22.056999 1.0039999 0
-26.731001 -21.888 0.995 0
-26.872 -22.145 1.001 0.1
-20.910999 -17.336 0.82700002 0.23
-20.816999 -17.368999 0.82599998 0.13
-20.775999 -17.445 0.82599998 0.28
-20.5 -17.379 0.81999999 0.31999999
-20.212999 -17.243999 0.81300002 0.18000001
-20.101999 -17.259001 0.81199998 0.33000001
-20.194 -17.450001 0.81599998 0.16
-20.559999 -17.879 0.829 0
-20.136 -17.621 0.81800002 0
-25.917999 -22.836 0.995 0
-19.804001 -17.496 0.81 0
-25.778999 -22.93 0.99400002 0.050000001
-20.146 -18.025 0.824 0.14
-20.066999 -18.069 0.82300001 0.17
-20.091999 -18.205 0.82599998 0.41
-19.924 -18.167 0.82200003 0.12
-20.052999 -18.402 0.82800001 0.17
-20.232 -18.624001 0.83499998 0
-26.643 -24.693001 1.036 0
-26.583 -24.792999 1.036 0.07
-20.424999 -19.162001 0.84600002 0.16
-20.223 -19.091 0.84200001 0.16
-19.672001 -18.687 0.82599998 0.14
-16.472 -15.741 0.727 0.23
-16.400999 -15.723 0.72600001 0.31999999
-16.343 -15.766 0.72500002 0.31999999
-16.292 -15.816 0.72500002 0.41
-16.274 -15.897 0.72600001 0.31
-16.493 -16.214001 0.73500001 0
-27.056999 -26.790001 1.075 0
-20.400999 -20.382 0.86500001 0.36000001
-20.368 -20.478001 0.866 0.16
-20.431 -20.671 0.87 0
-19.186001 -19.655001 0.83399999 0
-19.313999 -19.91 0.83999997 0
-19.114 -19.827999 0.83600003 0.14
-17.52 -18.229 0.78399998 0.25
-17.625 -18.455 0.78899997 0.20999999
-17.589001 -18.533001 0.79000002 0.20999999
-17.531 -18.705999 0.792 0.44999999
-17.431999 -18.716999 0.79100001 0.27000001
-17.443001 -18.848 0.79299998 0.22
-17.461 -18.927 0.79500002 0.28999999
-17.422001 -19.004 0.79500002 0.18000001
-17.389 -19.087999 0.796 0.16
-18.622 -20.575001 0.83999997 0.15000001
-18.42 -20.48 0.83600003 0.23
-18.226 -20.393 0.83099997 0.2
-18.604 -20.948 0.84600002 0.28999999
-18.465 -20.858 0.84299999 0.25999999
-18.336 -20.843 0.84100002 0.2
-17.551001 -20.077 0.81599998 0.44
-18.135 -20.878 0.838 0.25
-17.396 -20.153 0.815 0.12
-17.184999 -20.035 0.80900002 0
-17.684999 -20.816999 0.82999998 0.34999999
-17.618 -20.871 0.82999998 0.2
-15.922 -18.979 0.773 0.23
-17.061001 -20.469 0.815 0.25
-15.427 -18.624001 0.759 0.27000001
-15.361 -18.663 0.759 0.2
-16.662001 -20.443001 0.80900002 0.44
-16.481001 -20.351 0.80500001 0.25
-16.472 -20.471001 0.80699998 0
-16.334999 -20.431999 0.80400002 0.039999999
-15.817 -19.910999 0.787 0.15000001
-15.786 -20 0.78899997 0.2
-15.768 -20.042 0.78899997 0.38
-15.913 -20.358 0.79699999 0.20999999
-15.824 -20.375999 0.796 0.20999999
-16.375999 -21.226 0.81900001 0
-16.382 -21.372999 0.82200003 0.059999999
-15.85 -20.813 0.80400002 0.11
-15.991 -21.135 0.81199998 0.18000001
-15.881 -21.058001 0.80900002 0.44
-15.708 -20.965 0.80500001 0.14
-15.531 -20.865 0.801 0.38999999
-15.551 -21.030001 0.80400002 0.2
-15.351 -20.896 0.79900002 0.33000001
-15.874 -21.753 0.82200003 0.22
-14.318 -19.747 0.764 0.19
-15.875 -22.044001 0.82700002 0.22
-14.089 -19.624001 0.75800002 0.13
-13.98 -19.601 0.75700003 0.25999999
-15.072 -21.278 0.80199999 0.14
-14.977 -21.284 0.801 0.38
-14.847 -21.240999 0.79900002 0.19
-14.796 -21.309999 0.79900002 0.34999999
-15.768 -22.790001 0.83899999 0
-15.725 -22.882 0.84100002 0.13
-14.59 -21.370001 0.79799998 0.16
-15.574 -22.969 0.83999997 0.25999999
-15.528 -23.056999 0.84100002 0.1
-14.241 -21.287001 0.792 0.15000001
-13.328 -20.055 0.75700003 0.15000001
-11.734 -17.712 0.69199997 0.15000001
-11.697 -17.777 0.69300002 0.34
-11.65 -17.827 0.69300002 0.17
-21.247 -32.776001 1.098 0
-20.979 -32.587002 1.091 0
-20.983 -32.819 1.095 0
-11.299 -17.834999 0.68900001 0.27000001
-11.196 -17.796 0.68699998 0.27000001
-11.146 -17.841 0.68699998 0.16
-13.177 -21.249001 0.778 0.17
-10.926 -17.735001 0.68300003 0.19
-10.887 -17.797001 0.68300003 0.23999999
-10.926 -17.988001 0.68800002 0.36000001
-10.911 -18.091 0.68900001 0.23
-10.883 -18.108 0.68900001 0.47
-10.868 -18.212 0.69099998 0.20999999
-9.0780001 -15.315 0.61400002 0.33000001
-10.751 -18.277 0.69099998 0.13
-8.6800003 -14.853 0.60000002 0.41
-9.0059996 -15.524 0.61699998 0.40000001
-8.8030005 -15.228 0.60900003 0.20999999
-8.5819998 -14.954 0.60100001 0.37
-8.4770002 -14.878 0.59799999 0.38999999
-8.323 -14.715 0.59299999 0.38999999
-8.1879997 -14.582 0.58899999 0.20999999
-8.0120001 -14.374 0.583 0.46000001
-8.026 -14.505 0.58600003 0.33000001
-8.0489998 -14.602 0.588 0.27000001
-7.9780002 -14.582 0.58700001 0.36000001
-7.8889999 -14.526 0.58499998 0.36000001
-8.1590004 -15.139 0.60000002 0.36000001
-8.1059999 -15.154 0.60000002 0.41
-8.1260004 -15.308 0.60299999 0.28999999
-7.9640002 -15.116 0.597 0.31999999
-8.2370005 -15.697 0.61199999 0.28999999
-8.0640001 -15.483 0.60600001 0.34
-8.0900002 -15.655 0.61000001 0.43000001
-7.6329999 -14.882 0.58899999 0.23999999
-7.5760002 -14.885 0.58899999 0.33000001
-7.533 -14.917 0.58899999 0.28999999
-7.4720001 -14.912 0.588 0.5
-7.4650002 -14.956 0.58899999 0.27000001
-7.4120002 -14.969 0.58899999 0.23
-7.3540001 -14.969 0.588 0.55000001
-7.3520002 -15.085 0.58999997 0.25999999
-7.2389998 -14.971 0.58700001 0.34999999
-7.1999998 -15.012 0.58700001 0.18000001
-7.1399999 -15.006 0.58700001 0.58999997
-7.1490002 -15.087 0.58899999 0.19
-7.1090002 -15.124 0.58899999 0.46000001
-7.0500002 -15.123 0.588 0.20999999
-6.9679999 -15.071 0.58600003 0.30000001
-7.0300002 -15.333 0.59200001 0.19
-8.3249998 -18.32 0.667 0.14
-8.2629995 -18.334999 0.66600001 0.2
-8.3809996 -18.676001 0.67500001 0.14
-6.7290001 -15.109 0.58499998 0.49000001
-6.8109999 -15.425 0.59200001 0.18000001
-6.677 -15.252 0.58700001 0.44
-8.0170002 -18.483 0.667 0.28999999
-8.0369997 -18.690001 0.67199999 0.25
-7.0019999 -16.347 0.61299998 0.33000001
-6.9619999 -16.393999 0.61400002 0.41
-6.9130001 -16.422001 0.61400002 0.18000001
-6.8660002 -16.454 0.61400002 0.36000001
-6.8039999 -16.452 0.61400002 0.41
-6.77 -16.516001 0.61500001 0.37
-6.8800001 -16.937 0.625 0.23999999
-6.7129998 -16.674999 0.61799997 0.34999999
-6.664 -16.629999 0.616 0.30000001
-6.6820002 -16.827 0.62099999 0.19
-6.6680002 -16.947001 0.62300003 0.14
-7.598 -19.500999 0.685 0.1
-7.5679998 -19.607 0.68699998 0.11
-7.5359998 -19.709 0.68900001 0.28999999
-7.3759999 -19.472 0.68300003 0.30000001
-7.2220001 -19.153999 0.67500001 0.34
-7.098 -19.007 0.67000002 0.27000001
-7.1209998 -19.254 0.676 0.28
-5.0749998 -13.835 0.54400003 0.28999999
-5.02 -13.817 0.54299998 0.25
-4.967 -13.806 0.542 0.44999999
-4.9239998 -13.823 0.542 0.33000001
-4.8979998 -13.818 0.542 0.55000001
-4.8579998 -13.844 0.542 0.33000001
-4.8109999 -13.85 0.542 0.63
-4.7680001 -13.867 0.542 0.27000001
-4.7259998 -13.884 0.542 0.55000001
-4.756 -14.119 0.54799998 0
-5.6149998 -16.951 0.61500001 0.12
-5.6329999 -17.186001 0.62 0
-5.8769999 -18.325001 0.64700001 0
-5.711 -18.299 0.64499998 0.18000001
-5.6420002 -18.487 0.64899999 0.55000001
-4.914 -16.271999 0.59500003 0.23
-4.8470001 -16.235001 0.59399998 0.15000001
-4.875 -16.518999 0.60100001 0
-4.4499998 -15.522 0.57599998 0.56
-5.3270001 -18.826 0.65399998 0.14
-4.4070001 -15.745 0.58099997 0.40000001
-4.8870001 -17.688 0.62599999 0.12
-4.829 -17.691999 0.62599999 0.30000001
-4.8400002 -17.955999 0.63200003 0
-4.7379999 -17.688 0.625 0
-4.914 -18.823999 0.65100002 0.2
-4.5700002 -17.728001 0.625 0.22
-3.7609999 -14.762 0.55500001 0.23999999
-4.7259998 -18.827 0.64999998 0.20999999
-3.6440001 -14.687 0.55299997 0.50999999
-3.612 -14.659 0.55199999 0.30000001
-3.566 -14.669 0.55199999 0.43000001
-3.5380001 -14.758 0.55400002 0.23999999
-3.494 -14.777 0.55400002 0.50999999
-3.339 -14.527 0.54799998 0.50999999
-3.306 -14.592 0.54900002 0.13
-3.2850001 -14.607 0.54900002 0.34999999
-3.2390001 -14.616 0.54900002 0.16
-3.1849999 -14.588 0.54799998 0.54000002
-4.0419998 -18.836 0.64700001 0.37
-3.188 -15.06 0.55900002 0.27000001
-3.141 -15.072 0.55900002 0.23999999
-3.082 -15.023 0.55800003 0.36000001
-3.063 -15.053 0.55800003 0.41999999
-3.017 -15.071 0.55800003 0.2
-2.9419999 -14.935 0.55500001 0.33000001
-2.895 -14.944 0.55500001 0.44999999
-2.849 -14.961 0.55500001 0.38999999
-2.809 -15.005 0.55599999 0.31
-2.756 -14.981 0.55500001 0.27000001
-2.74 -15.028 0.55599999 0.41999999
-2.688 -15.009 0.55599999 0.25
-2.642 -15.024 0.55599999 0.50999999
-2.6099999 -15.12 0.55800003 0.30000001
-2.559 -15.111 0.55699998 0.23
-2.5139999 -15.131 0.55800003 0.50999999
-2.494 -15.314 0.56199998 0.31999999
-2.957 -18.367001 0.63200003 0.18000001
-2.405 -15.215 0.55900002 0.25
-2.362 -15.254 0.56 0.49000001
-2.3039999 -15.196 0.55800003 0.38999999
-2.2750001 -15.33 0.56099999 0.2
-2.247 -15.478 0.56400001 0
-2.618 -18.475 0.63300002 0.13
-2.151 -15.322 0.56099999 0.14
-2.974 -21.757999 0.708 0.19
-1.998 -14.905 0.551 0.28999999
-1.952 -14.919 0.551 0.54000002
-1.913 -14.99 0.55199999 0.36000001
-1.88 -15.105 0.55500001 0.25999999
-1.85 -15.262 0.55800003 0.33000001
-1.8200001 -15.215 0.55699998 0.31
-1.768 -15.181 0.55599999 0.46000001
-1.721 -15.197 0.55699998 0.27000001
-1.7309999 -15.733 0.56900001 0.36000001
-1.678 -15.702 0.56800002 0.30000001
-1.64 -15.819 0.56999999 0.23
-1.6059999 -15.734 0.56800002 0.57999998
-1.553 -15.703 0.56800002 0.25
-1.529 -15.977 0.574 0.23
-1.456 -15.731 0.56800002 0.51999998
-1.429 -15.99 0.574 0.31
-1.364 -15.821 0.56999999 0.27000001
-1.307 -15.736 0.56800002 0.31999999
-1.293 -15.867 0.57099998 0.50999999
-1.198 -15.939 0.57200003 0.5
-1.148 -15.939 0.57200003 0.34999999
-1.098 -15.952 0.57200003 0.28999999
-1.04 -15.83 0.56999999 0.46000001
-0.991 -15.853 0.56999999 0.34
-0.96399999 -15.812 0.56900001 0.28
-0.917 -15.863 0.56999999 0.2
-1.054 -19.382 0.64999998 0.57999998
-0.98299998 -19.188 0.64600003 0.2
-0.92900002 -19.325001 0.64899999 0.17
-0.73000002 -16.157 0.57700002 0.44999999
-0.68599999 -16.339001 0.58099997 0.18000001
-0.65399998 -16.167 0.57700002 0.38999999
-0.60299999 -16.162001 0.57700002 0.33000001
-0.55400002 -16.212 0.57800001 0.47
-0.50400001 -16.254 0.579 0.22
-0.45199999 -16.202999 0.57700002 0.28999999
-0.39899999 -16.108999 0.57499999 0.31999999
-0.34799999 -16.120001 0.57599998 0.47999999
-0.322 -16.083 0.57499999 0.28999999
-0.27200001 -16.087 0.57499999 0.2
-0.22 -16.030001 0.57300001 0.5
-0.17 -16.009001 0.57300001 0.34999999
-0.14 -19.594 0.65499997 0.18000001
-0.068999998 -16.046 0.574 0.28
-0.018999999 -16.059999 0.574 0.50999999
0.0080000004 -17.048 0.597 0.34999999
0.057999998 -16.292 0.579 0.14
0.106 -15.897 0.56999999 0.31999999
0.156 -15.925 0.57099998 0.25
0.206 -15.908 0.57099998 0.31
0.25600001 -15.918 0.57099998 0.57999998
0.30700001 -15.943 0.57099998 0.36000001
0.33199999 -15.95 0.57200003 0.28
0.461 -19.037001 0.64200002 0.23
0.47 -15.563 0.56300002 0.28999999
0.51800001 -15.541 0.56199998 0.34
0.55699998 -15.268 0.55599999 0.34
0.60100001 -15.172 0.55400002 0.44999999
0.62599999 -15.201 0.55500001 0.37
0.67199999 -15.165 0.55400002 0.27000001
0.71899998 -15.149 0.55400002 0.54000002
0.77100003 -15.24 0.55599999 0.20999999
0.81999999 -15.246 0.55599999 0.34999999
0.875 -15.367 0.55900002 0.22
0.921 -15.336 0.55800003 0.23999999
0.94499999 -15.319 0.55800003 0.5
1.211 -18.6 0.63300002 0.22
1.0369999 -15.255 0.55699998 0.2
1.086 -15.265 0.55699998 0.51999998
1.131 -15.222 0.55599999 0.22
1.176 -15.193 0.55500001 0.43000001
1.199 -15.181 0.55500001 0.31
1.256 -15.284 0.55800003 0.47999999
1.304 -15.284 0.55800003 0.30000001
1.624 -18.287001 0.62599999 0.33000001
1.692 -18.396 0.62900001 0.31
1.7460001 -18.348 0.62800002 0.23999999
1.4960001 -15.261 0.55800003 0.38
1.518 -15.237 0.55699998 0.40000001
1.561 -15.192 0.55599999 0.30000001
1.6059999 -15.163 0.55599999 0.34999999
1.65 -15.124 0.55500001 0.46000001
1.811 -16.112 0.57800001 0.19
1.749 -15.147 0.55599999 0.23
1.7869999 -15.062 0.55400002 0.56
1.822 -15.149 0.55599999 0.34999999
1.927 -15.603 0.56599998 0.14
3.118 -24.496 0.77100003 0.079999998
2.0510001 -15.785 0.57099998 0.11
2.0999999 -15.779 0.57099998 0.34
3.359 -24.539 0.77200001 0.16
2.1199999 -15.205 0.55800003 0.33000001
2.141 -15.182 0.55699998 0.36000001
2.178 -15.1 0.55599999 0.43000001
2.2260001 -15.099 0.55599999 0.31999999
2.277 -15.111 0.55599999 0.49000001
2.3169999 -15.057 0.55500001 0.15000001
2.3640001 -15.049 0.55500001 0.25999999
2.3870001 -15.042 0.55500001 0.37
2.4460001 -15.107 0.55699998 0.34999999
2.5120001 -15.208 0.55900002 0.44999999
3.3599999 -19.905001 0.66799998 0.2
3.4549999 -20.08 0.67199999 0.15000001
3.4189999 -19.511 0.65899998 0.41999999
3.48 -19.499001 0.65899998 0.31
3.539 -19.476 0.65899998 0.37
3.6059999 -19.667 0.66399997 0.1
4.6750002 -25.011999 0.78799999 0.12
4.447 -23.396999 0.75099999 0.28
4.8239999 -24.943001 0.787 0.14
3.1400001 -16.014999 0.57999998 0.41
3.1949999 -16.025999 0.57999998 0.27000001
3.2639999 -16.108 0.583 0.55000001
3.349 -16.136 0.58399999 0.49000001
3.388 -16.072001 0.58200002 0.34999999
3.4460001 -16.097 0.583 0.27000001
3.527 -16.223 0.58600003 0.49000001
3.4330001 -15.562 0.57099998 0.2
3.3929999 -15.265 0.56400001 0.44
3.4389999 -15.249 0.56400001 0.27000001
3.4820001 -15.217 0.56400001 0.34999999
3.5039999 -15.096 0.56099999 0.28999999
3.5420001 -15.045 0.56 0.43000001
3.576 -14.979 0.55900002 0.22
3.625 -14.975 0.55900002 0.49000001
3.8169999 -15.653 0.57499999 0.34
3.8659999 -15.641 0.57499999 0.40000001
3.652 -14.588 0.551 0.38999999
3.698 -14.576 0.551 0.38999999
3.789 -14.737 0.55500001 0.23
3.7679999 -14.471 0.54900002 0.31
3.8280001 -14.514 0.55000001 0.51999998
3.888 -14.645 0.55299997 0.36000001
3.9449999 -14.675 0.55400002 0.20999999
3.9560001 -14.535 0.551 0.37
4.0240002 -14.602 0.55299997 0.25
4.072 -14.597 0.55299997 0.28
4.1370001 -14.653 0.55500001 0.57999998
4.1719999 -14.6 0.55400002 0.14
4.125 -14.353 0.54799998 0.28999999
4.118 -14.16 0.54400003 0.28
4.1100001 -13.97 0.54000002 0.34
4.1609998 -13.982 0.54100001 0.5
4.3150001 -14.333 0.54900002 0.23
4.2779999 -14.051 0.54299998 0.34999999
4.3439999 -14.108 0.54400003 0.5
4.3850002 -14.008 0.54299998 0.40000001
4.434 -14.007 0.54299998 0.33000001
4.4809999 -14.003 0.54299998 0.37
4.5149999 -13.958 0.542 0.49000001
4.6199999 -14.13 0.54699999 0.19
4.6760001 -14.227 0.54900002 0.57999998
5.1170001 -15.398 0.57800001 0.2
5.1230001 -15.255 0.57499999 0.28
5.1869998 -15.288 0.57599998 0.25
5.4239998 -15.819 0.58899999 0.23
5.5029998 -15.885 0.59100002 0.40000001
5.461 -15.608 0.58499998 0.12
5.5749998 -15.852 0.59100002 0.46000001
5.6389999 -15.874 0.59200001 0.28
6.158 -17.158001 0.62300003 0.34999999
6.4629998 -17.827999 0.63999999 0.41
6.4640002 -17.659 0.63700002 0.18000001
6.631 -17.938999 0.64399999 0.43000001
5.855 -15.695 0.58999997 0.14
5.9200001 -15.795 0.59200001 0.28
5.9200001 -15.645 0.58899999 0.43000001
6.6890001 -17.502001 0.63499999 0.27000001
6.592 -17.09 0.625 0.28
6.6659999 -17.118999 0.62699997 0.41999999
6.757 -17.193001 0.62900001 0.31
6.8379998 -17.240999 0.63099998 0.41999999
8.2530003 -20.698999 0.71600002 0.25
8.3389997 -20.725 0.71700001 0.18000001
8.3929996 -20.488001 0.713 0.55000001
6.5240002 -15.798 0.59799999 0.19
7.1609998 -17.181999 0.63200003 0.30000001
7.2350001 -17.205999 0.63300002 0.25999999
7.237 -17.136 0.63200003 0.22
7.888 -18.51 0.667 0.25999999
8.0089998 -18.629999 0.67000002 0
7.9910002 -18.429001 0.66600001 0
8.3070002 -18.594999 0.67199999 0.23
8.2209997 -18.249001 0.66399997 0.52999997
8.3629999 -18.41 0.66900003 0.22
8.4449997 -18.436001 0.67000002 0.25
7.5689998 -16.393999 0.62 0.13
7.625 -16.379 0.62 0.5
7.7420001 -16.563 0.625 0
7.6820002 -16.302 0.61900002 0.029999999
7.75 -16.312 0.62 0.12
8.8990002 -18.570999 0.67699999 0.20999999
9.0869999 -18.811001 0.68400002 0.30000001
7.8860002 -16.075001 0.616 0.36000001
7.9369998 -16.049999 0.616 0.23
7.9260001 -15.966 0.61400002 0.44
7.9819999 -15.952 0.61500001 0.37
8.0640001 -15.991 0.616 0.17
8.1160002 -15.969 0.616 0.37
8.1110001 -15.835 0.61299998 0.2
9.401 -18.204 0.67500001 0.52999997
9.4259996 -18.183001 0.67500001 0.17
8.1499996 -15.61 0.60900003 0.28999999
8.2370005 -15.655 0.611 0.40000001
8.2930002 -15.525 0.60900003 0.56
7.316 -13.499 0.55800003 0.25
7.3039999 -13.426 0.55599999 0.46000001
7.3340001 -13.38 0.55599999 0.33000001
7.3639998 -13.336 0.55500001 0.38999999
7.4029999 -13.307 0.55500001 0.41
7.4549999 -13.302 0.55599999 0.43000001
7.5029998 -13.29 0.55599999 0.47999999
7.6529999 -13.456 0.56099999 0
10.523 -18.282 0.68900001 0
10.663 -18.259001 0.69 0.16
10.695 -18.181999 0.68900001 0.20999999
8.9750004 -15.05 0.60699999 0.38999999
8.9989996 -15.036 0.60699999 0.46000001
10.821 -17.941999 0.685 0.18000001
10.923 -17.983 0.68699998 0.47999999
9.1789999 -15.014 0.60900003 0.16
11.067 -17.965 0.68900001 0
11.062 -17.832001 0.68599999 0
11.203 -17.868999 0.68900001 0.28999999
11.305 -17.907 0.69099998 0.28999999
11.364 -17.875999 0.69099998 0.41
11.329 -17.698999 0.68699998 0.25
11.523 -17.875999 0.69300002 0
9.8280001 -14.792 0.61299998 0.14
10.006 -14.957 0.61799997 0
9.9239998 -14.735 0.61299998 0
10.14 -13.805 0.59799999 0.19
10.23 -13.836 0.60000002 0.14
10.283 -13.862 0.60100001 0.11
10.318 -13.818 0.60100001 0.25999999
10.497 -13.966 0.60600001 0
14.84 -16.027 0.70599997 0
14.919 -15.565 0.699 0.28999999
14.883 -15.43 0.69700003 0
15.031 -15.485 0.69999999 0
15.02 -15.378 0.69800001 0
15.633 -15.46 0.70899999 0.38
15.818 -15.545 0.713 0.19
19.469 -19.004999 0.82800001 0.13
15.992 -15.568 0.71700001 0.31999999
19.41 -18.77 0.82300001 0.11
19.642 -18.875 0.829 0
19.613001 -18.379 0.81999999 0.34999999
19.686001 -18.275 0.81999999 0.16
19.826 -18.288 0.82300001 0.11
17.172001 -15.745 0.73900002 0.36000001
17.233 -15.702 0.73900002 0.2
17.306 -15.669 0.74000001 0.23999999
17.452999 -15.703 0.74299997 0
15.137 -13.581 0.671 0
15.204 -13.555 0.67199999 0
16.811001 -14.795 0.71799999 0.16
17.52 -15.321 0.73799998 0
17.82 -15.484 0.74599999 0
16.487 -14.193 0.704 0
16.486 -14.012 0.70099998 0.25
16.296 -13.763 0.69400001 0.31999999
16.290001 -13.671 0.69300002 0.16
16.231001 -13.536 0.69 0.23999999
16.489 -13.663 0.69599998 0.19
18.236 -15.058 0.74699998 0.17
18.355 -15.059 0.74900001 0
18.461 -15.049 0.75099999 0
30.725 -24.865 1.109 0.090000004
30.84 -24.798 1.11 0.090000004
30.355 -24.252001 1.0930001 0.14
30.368999 -24.107 1.091 0.12
30.731001 -24.316 1.101 0
31.113001 -24.459 1.11 0.07
30.893999 -24.131001 1.101 0
21.597 -16.77 0.83099997 0
32.066002 -24.722 1.13 0
32.021 -24.528 1.127 0.059999999
21.860001 -16.700001 0.83499998 0
28.783001 -21.694 1.029 0.31999999
28.849001 -21.601999 1.029 0
28.782 -21.410999 1.025 0.12
28.759001 -21.254 1.023 0
29.038 -21.32 1.029 0
29.311001 -21.448999 1.036 0
33.167999 -24.108 1.142 0
29.502001 -21.305 1.0369999 0.14
29.281 -21.006001 1.029 0.11
29.07 -20.716999 1.021 0
24.209999 -17.145 0.884 0
23.573 -16.584 0.86500001 0.12
23.614 -16.556999 0.86500001 0
29.375999 -20.452 1.024 0.12
29.469999 -20.379999 1.024 0
29.583 -20.322001 1.026 0.12
24.676001 -16.841999 0.889 0
19.257 -12.974 0.73699999 0.13
19.228001 -12.91 0.736 0.37
19.245001 -12.834 0.73500001 0.33000001
19.277 -12.768 0.73500001 0.34
19.332001 -12.718 0.73500001 0.38
19.611 -12.813 0.74199998 0
32.124001 -20.681999 1.0779999 0.15000001
30.537001 -19.594 1.035 0.19
30.598 -19.497999 1.035 0
30.313999 -19.049999 1.024 0.38
30.384001 -18.961 1.024 0.27000001
30.225 -18.731001 1.018 0.2
30.235001 -18.605 1.017 0.13
33.155998 -20.327999 1.094 0
33.222 -20.225 1.094 0.11
30.604 -18.503 1.023 0.19
30.691 -18.424 1.024 0.18000001
30.773001 -18.341999 1.024 0
30.497999 -18.049 1.015 0.12
30.458 -17.896 1.013 0.12
30.896999 -18.087999 1.024 0.12
30.492001 -17.723 1.012 0
30.639 -17.68 1.0140001 0
31.577 -18.087999 1.0369999 0
34.268002 -19.485001 1.1059999 0
34.215 -19.313 1.103 0.059999999
30.238001 -16.945999 0.99800003 0.16
30.007999 -16.756001 0.991 0
30.219999 -16.75 0.995 0.1
30.211 -16.621 0.99400002 0
30.215 -16.5 0.99199998 0.13
32.138 -17.417 1.041 0.17
31.937 -17.179001 1.034 0.17
30.208 -16.190001 0.98900002 0.17
30.337 -16.136 0.991 0.31999999
30.49 -16.094 0.99400002 0.19
32.137001 -16.833 1.035 0.090000004
30.656 -15.937 0.995 0.15000001
32.276001 -16.649 1.035 0
32.321999 -16.544001 1.035 0.050000001
32.625999 -16.635 1.0420001 0.14
31.422001 -15.898 1.01 0
41.936001 -21.042999 1.277 0
24.528 -12.128 0.83099997 0.27000001
24.531 -12.033 0.83099997 0.25
24.565001 -11.954 0.82999998 0.27000001
24.603001 -11.925 0.83099997 0.18000001
24.686001 -11.869 0.83200002 0.1
32.785999 -15.628 1.036 0
32.993999 -15.6 1.04 0
34.375999 -16.120001 1.073 0
33.861 -15.75 1.059 0
33.348999 -15.322 1.044 0
36.363998 -16.566 1.118 0.1
34.09 -15.403 1.0599999 0
34.089001 -15.273 1.059 0.14
34.062 -15.133 1.057 0.12
34.564999 -15.226 1.069 0.17
34.393002 -15.022 1.063 0.11
34.479 -14.995 1.0650001 0
34.605999 -14.921 1.067 0
40.728001 -17.403999 1.217 0
39.556 -16.757 1.187 0
39.744999 -16.690001 1.1900001 0
43.605999 -18.148001 1.284 0
35.332001 -14.58 1.079 0
38.174 -15.68 1.148 0
38.970001 -15.864 1.1670001 0
39.030998 -15.746 1.1670001 0.050000001
36.018002 -14.401 1.092 0.16
36.206001 -14.344 1.095 0.12
36.495998 -14.327 1.101 0
41.327999 -16.07 1.2180001 0
40.775002 -15.782 1.204 0.12
31.816 -12.206 0.98400003 0.16
31.860001 -12.108 0.98500001 0.28999999
31.954 -12.029 0.986 0.20999999
38.241001 -14.253 1.138 0.11
38.247002 -14.118 1.137 0
38.348999 -14.02 1.138 0
38.653 -14.062 1.145 0
38.964001 -14.036 1.152 0.14
37.686001 -13.443 1.12 0.11
37.733002 -13.327 1.12 0.13
37.780998 -13.21 1.12 0.20999999
37.743 -13.064 1.118 0
37.896 -13.05 1.1210001 0
57.32 -19.524 1.587 0
63.626999 -21.445999 1.738 0
58.028 -19.156 1.6 0
57.755001 -18.865 1.592 0
57.685001 -18.642 1.589 0
58.032001 -18.653 1.597 0
58.154999 -18.492001 1.598 0
59.838001 -18.819 1.637 0
57.895 -17.809999 1.5880001 0
58.165001 -17.693001 1.5930001 0
58.373001 -17.556 1.597 0
58.647999 -17.538 1.602 0
42.853001 -12.676 1.226 0
41.797001 -12.221 1.2 0
42.431999 -12.262 1.214 0
42.43 -12.117 1.2130001 0
42.051998 -11.867 1.2029999 0
42.326 -11.801 1.209 0
59.619999 -16.51 1.617 0
42.414001 -11.61 1.21 0
42.160999 -11.399 1.2029999 0
41.972 -11.206 1.198 0
42.356998 -11.167 1.206 0.039999999
45.271 -11.553 1.272 0.99000001
45.303001 -11.41 1.272 0.99000001
45.310001 -11.261 1.272 0.99000001
45.485001 -11.152 1.275 0.74000001
45.395 -10.979 1.272 0
45.335999 -10.815 1.27 0
53.506001 -11.346 1.454 0
53.569 -11.183 1.455 0
53.806999 -11.057 1.459 0
64.789001 -11.724 1.7079999 0
64.646004 -11.489 1.704 0
64.878998 -11.32 1.7079999 0
77.594002 -13.408 2.0020001 0
78.540001 -12.557 2.02 0
75.320999 -11.195 1.943 0
77.234001 -8.8870001 1.979 0.34
76.977997 -8.6129999 1.972 0.54000002
77.032997 -8.4960003 1.973 0
76.733002 -8.2189999 1.966 0
71.198997 -2.3440001 1.831 0
71.169998 -2.119 1.83 0
71.140999 -2.007 1.829 0
71.112999 -1.7819999 1.8279999 0
71.113998 -1.559 1.8279999 0
71.100998 -1.335 1.8279999 0
71.102997 -1.112 1.8279999 0
71.080002 -0.88800001 1.827 0
71.078003 -0.66500002 1.827 0
71.088997 -0.55299997 1.827 0
71.109001 -0.33000001 1.8279999 0
71.097 -0.106 1.8279999 0
75.217003 0.082999997 1.352 0
45.27 4.4109998 0.89999998 0
43.220001 12.766 0.89300001 0
43.192001 12.906 0.89300001 0
43.130001 13.035 0.89300001 0
43.151001 13.115 0.89399999 0
28.693001 12.151 0.68199998 0
28.667999 12.246 0.68199998 0
68.653 33.860001 1.372 0
67.491997 33.550999 1.354 0
67.476997 33.808998 1.3559999 0
66.972 33.82 1.349 0
66.950996 34.073002 1.351 0
66.815002 34.269001 1.35 0
42.584 22.106001 0.93800002 0
42.527 22.246 0.93800002 0
42.567001 22.437 0.94 0
65.674004 34.865002 1.339 0
65.477997 35.025002 1.337 0
65.232002 35.158001 1.335 0
64.827003 35.070999 1.329 0
65.208 35.542 1.337 0
65.893997 36.185001 1.351 0
65.625999 36.306 1.349 0
59.787998 33.943001 1.2539999 0
59.627998 34.099998 1.253 0
59.596001 34.331001 1.2539999 0
62.382999 36.195999 1.3049999 0
59.402 34.717999 1.2539999 0
59.194 34.847 1.253 0
59.012001 34.990002 1.251 0
59.138 35.189999 1.255 0
59.25 35.508999 1.2589999 0
59.384998 35.844002 1.263 0
60.574001 36.820999 1.286 0
60.136002 36.813999 1.28 0
59.942001 36.955002 1.279 0
60.123001 37.327 1.284 0
60.400002 37.631001 1.29 0
61.407001 38.794998 1.313 0
61.245998 38.963001 1.312 0
57.768002 37.264 1.253 0
57.612 37.419998 1.253 0
35.717999 23.452 0.85799998 0.11
35.594002 23.531 0.85699999 0.22
35.516998 23.639999 0.85699999 0.25
35.258999 23.629 0.85299999 0.12
35.054001 23.652 0.85100001 0.25999999
35.004002 23.778 0.85100001 0
34.757 23.85 0.84899998 0
55.938 39.804001 1.252 0
56.789001 40.679001 1.27 0
27.048 20.978001 0.72799999 0
27.007 21.083 0.72899997 0
40.799 33.193001 1.008 0
40.653999 33.287998 1.007 0
40.488998 33.366001 1.006 0
40.228001 33.363998 1.003 0
48.216999 41.673 1.177 0
20.82 18.186001 0.62800002 0.16
20.700001 18.195999 0.62699997 0.34
20.568001 18.195 0.625 0.34999999
20.440001 18.197001 0.62400001 0.37
20.322001 18.207001 0.62300003 0.36000001
20.186001 18.198999 0.62099999 0.37
20.065001 18.205 0.62 0.36000001
19.938 18.205 0.61799997 0.38
19.841 18.174 0.61699998 0.37
19.728001 18.184999 0.616 0.36000001
19.608999 18.188999 0.61500001 0.37
19.48 18.184 0.61299998 0.37
19.358999 18.184999 0.61199999 0.38
19.245001 18.191999 0.611 0.34999999
19.155001 18.165001 0.60900003 0.34999999
19.037001 18.167 0.60799998 0.36000001
18.912001 18.162001 0.60699999 0.36000001
18.801001 18.167999 0.60500002 0.37
18.681999 18.167 0.60399997 0.36000001
18.573999 18.177 0.60299999 0.36000001
18.452 18.171 0.602 0.36000001
18.378 18.155001 0.60100001 0.37
18.252001 18.145 0.59899998 0.36000001
18.148001 18.155001 0.59799999 0.38
18.059999 18.181 0.59799999 0.38999999
18.052 18.288 0.59899998 0.38
18.048 18.398001 0.60000002 0.36000001
18.046 18.511999 0.60100001 0.38
18.037001 18.618999 0.602 0.37
18.059 18.701 0.60299999 0.31999999
18.049999 18.809 0.60399997 0.43000001
17.969 18.843 0.60399997 0.37
17.833 18.819 0.602 0.31
17.752001 18.851999 0.602 0.49000001
17.719 18.934999 0.602 0.38999999
17.705999 19.041 0.60299999 0.37
17.737 19.134001 0.60500002 0.34
17.745001 19.263 0.60600001 0.5
18.052999 19.721001 0.61400002 0.16
18.054001 19.847 0.616 0
23.038 25.476 0.73000002 0
23.034 25.632999 0.73199999 0
23.063 25.746 0.73400003 0
32.547001 36.547001 0.95200002 0
32.504002 36.730999 0.954 0.07
32.313999 36.747002 0.95200002 0.079999998
31.948 36.563 0.94599998 0
32.064999 36.93 0.95200002 0.1
31.958 37.041 0.95200002 0
31.511 36.639999 0.94300002 0.1
31.156 36.459 0.93699998 0.14
31.583 37.194 0.94999999 0
32.709999 38.764999 0.97899997 0
32.410999 38.657001 0.97500002 0
33.022999 39.638 0.99299997 0.039999999
30.756001 37.155998 0.94099998 0
30.169001 36.564999 0.92900002 0.050000001
29.945 36.527 0.926 0
30.386999 37.543999 0.94199997 0
31.610001 39.304001 0.97500002 0
31.766001 39.752998 0.98199999 0
29.271 36.869999 0.92400002 0.090000004
29.198999 36.898998 0.92400002 0
29.103001 37.015999 0.92400002 0
29.143 37.306999 0.92799997 0
29.509001 38.02 0.94 0
29.448999 38.191002 0.94099998 0
29.045 37.912998 0.93400002 0.1
28.775999 37.806999 0.93000001 0
28.757 38.029999 0.93300003 0.050000001
28.65 38.012001 0.93199998 0
28.438 37.979 0.92900002 0
28.223 37.939999 0.92699999 0
28.007999 37.897999 0.92500001 0.07
27.997 38.133999 0.92699999 0.14
29.089001 39.881001 0.95899999 0.090000004
28.997999 40.02 0.95999998 0
28.973 40.118 0.96100003 0
30.395 42.363998 1.001 0
29.077999 40.799999 0.97000003 0
28.905001 40.827999 0.96899998 0
28.882 41.069 0.97100002 0.07
28.275 40.476002 0.95899999 0.19
27.961 40.160999 0.95200002 0
27.625999 39.948002 0.94700003 0.11
26.955999 39.242001 0.93199998 0
27.153 39.794998 0.94099998 0.07
27.268 40.235001 0.94700003 0.22
26.683001 39.639999 0.935 0.19
26.597 39.782001 0.93599999 0.2
26.472 39.865002 0.93599999 0.12
26.556999 40.129002 0.94 0.15000001
26.364 40.112 0.93800002 0.16
26.136 40.039001 0.935 0.22
25.858 39.886002 0.93099999 0.2
25.832001 40.120998 0.93400002 0.18000001
25.745001 40.263 0.935 0.2
25.49 40.140999 0.93099999 0
23.997999 37.925999 0.88999999 0.07
25.389999 40.403 0.93400002 0.12
25.240999 40.449001 0.93300003 0.34
25.166 40.611 0.935 0
23.513 38.214001 0.88999999 0
23.544001 38.535 0.89499998 0.07
23.330999 38.457001 0.89200002 0.19
22.950001 37.965 0.88300002 0.11
23.51 39.166 0.903 0.090000004
23.389999 39.244999 0.903 0.16
22.51 38.042 0.88 0
22.523001 38.338001 0.884 0.12
22.610001 38.764 0.88999999 0.12
22.301001 38.512001 0.88499999 0.14
22.120001 38.339001 0.88099998 0.1
22.093 38.570999 0.884 0.079999998
23.077999 40.583 0.91799998 0.079999998
21.841999 38.695 0.884 0.1
21.628 38.598 0.88099998 0
21.535 38.716999 0.88200003 0.12
21.386 38.735001 0.88099998 0.12
21.521999 39.125999 0.88700002 0.15000001
21.483 39.348 0.88999999 0
21.400999 39.492001 0.89099997 0
25.663 47.702 1.0319999 0.090000004
