# .PCD v0.7 - Point Cloud Data file format
VERSION 0.7
FIELDS x y z intensity
SIZE 4 4 4 4
TYPE F F F F
COUNT 1 1 1 1
WIDTH 1418
HEIGHT 1
VIEWPOINT 0 0 0 1 0 0 0
POINTS 1418
DATA ascii
-8.665 -5.178 -0.60900003 0.31999999
-8.6070004 -5.1810002 -0.60500002 0.31
-8.5380001 -5.1760001 -0.60000002 0.30000001
-8.4820004 -5.1599998 -0.59500003 0.28999999
-8.4200001 -5.1589999 -0.59100002 0.28
-8.3540001 -5.1550002 -0.58600003 0.25
-8.1820002 -5.085 -0.57200003 0
-8.0880003 -5.1329999 -0.56699997 0.16
-8.0279999 -5.1129999 -0.56199998 0.44999999
-7.9720001 -5.112 -0.55900002 0.23
-7.9239998 -5.1170001 -0.55500001 0.18000001
-7.8559999 -5.1079998 -0.551 0.40000001
-7.8150001 -5.1170001 -0.54799998 0.18000001
-7.7379999 -5.1020002 -0.542 0.38
-7.7010002 -5.112 -0.54000002 0.18000001
-7.6329999 -5.0840001 -0.53500003 0.38
-7.599 -5.0960002 -0.53299999 0.19
-7.473 -5.0469999 -0.52200001 0
-7.461 -5.072 -0.523 0.050000001
-7.3740001 -5.0819998 -0.51700002 0.38999999
-7.349 -5.098 -0.51599997 0.16
-7.3080001 -5.0869999 -0.51300001 0.38999999
-7.283 -5.1040001 -0.51200002 0.16
-7.2540002 -5.118 -0.51099998 0.41
-7.23 -5.1350002 -0.50999999 0.18000001
-7.164 -5.1220002 -0.505 0.38
-7.1539998 -5.1490002 -0.50599998 0.16
-7.0970001 -5.1420002 -0.50199997 0.34999999
-7.0939999 -5.1570001 -0.50199997 0.16
-7.0409999 -5.152 -0.49900001 0.36000001
-7.026 -5.1760001 -0.49900001 0.16
-6.9710002 -5.1690001 -0.495 0.36000001
-6.9489999 -5.1859999 -0.49399999 0.16
-6.8920002 -5.178 -0.49000001 0.15000001
-6.8790002 -5.2020001 -0.491 0.18000001
-6.8410001 -5.1900001 -0.48800001 0.23
-6.823 -5.211 -0.48699999 0.17
-6.7909999 -5.2199998 -0.486 0.34
-6.7140002 -5.2280002 -0.48100001 0.47
-6.7319999 -5.276 -0.48500001 0.17
-6.6900001 -5.2779999 -0.48199999 0.38
-6.7129998 -5.3130002 -0.486 0.14
-6.6919999 -5.3299999 -0.48500001 0.38999999
-6.6950002 -5.3670001 -0.48699999 0.17
-6.6700001 -5.382 -0.486 0.38
-6.6719999 -5.4180002 -0.48800001 0.16
-6.6459999 -5.4320002 -0.48699999 0.38999999
-6.6609998 -5.4790001 -0.491 0.16
-6.6490002 -5.487 -0.49000001 0.38999999
-6.6539998 -5.5250001 -0.493 0.16
-6.619 -5.5320001 -0.491 0.38999999
-6.6370001 -5.5819998 -0.495 0.18000001
-6.5999999 -5.5869999 -0.49200001 0.38
-6.605 -5.6269999 -0.495 0.16
-6.5890002 -5.6490002 -0.495 0.38999999
-6.6040001 -5.6799998 -0.498 0.16
-6.5799999 -5.6950002 -0.49700001 0.41
-6.5999999 -5.7480001 -0.50099999 0.18000001
-6.5770001 -5.7649999 -0.5 0.27000001
-6.5640001 -5.79 -0.50099999 0.20999999
-6.566 -5.829 -0.50300002 0.17
-6.5450001 -5.8470001 -0.50300002 0.40000001
-6.566 -5.8839998 -0.50599998 0.19
-6.546 -5.9029999 -0.50599998 0.28
-6.5489998 -5.9429998 -0.50800002 0.20999999
-6.5469999 -5.9790001 -0.50999999 0.17
-6.5250001 -5.9970002 -0.50999999 0.41
-6.5219998 -6.0320001 -0.51099998 0.22
-6.5240002 -6.0710001 -0.514 0.14
-6.5079999 -6.0760002 -0.51300001 0.41999999
-6.5159998 -6.1209998 -0.51599997 0.22
-6.5079999 -6.152 -0.51700002 0.15000001
-6.5019999 -6.1849999 -0.51899999 0.44999999
-6.5040002 -6.2259998 -0.52100003 0.23999999
-6.5040002 -6.2659998 -0.523 0.25
-6.4899998 -6.2919998 -0.52399999 0.17
-6.4949999 -6.316 -0.52600002 0.44
-6.4819999 -6.3429999 -0.52600002 0.25
-6.5009999 -6.401 -0.53100002 0.23999999
-6.4850001 -6.4260001 -0.53100002 0.15000001
-6.4689999 -6.4499998 -0.53200001 0.46000001
-6.4710002 -6.493 -0.53399998 0.25
-6.4679999 -6.5300002 -0.53600001 0.27000001
-6.4679999 -6.552 -0.537 0.27000001
-6.4689999 -6.5929999 -0.54000002 0.27000001
-6.4679999 -6.6339998 -0.542 0.25999999
-6.4650002 -6.6729999 -0.54400003 0.27000001
-6.4650002 -6.7140002 -0.54699999 0.27000001
-6.4710002 -6.763 -0.55000001 0.23999999
-6.3769999 -6.7069998 -0.54100001 0
-6.4829998 -6.8400002 -0.55500001 0
-6.5479999 -6.9510002 -0.565 0
-6.5999999 -7.0500002 -0.574 0
-6.5760002 -7.1139998 -0.57599998 0.25999999
-6.5349998 -7.1139998 -0.574 0.23
-16.636999 -18.223 -1.779 0.18000001
-6.4850001 -7.105 -0.57099998 0.31999999
-16.552999 -18.246 -1.776 0.25999999
-16.466 -18.264999 -1.772 0.27000001
-16.371 -18.275 -1.768 0.27000001
-16.274 -18.282 -1.763 0.28999999
-16.194 -18.308001 -1.76 0.27000001
-16.107 -18.326 -1.756 0.27000001
-16.046 -18.313 -1.752 0.27000001
-15.966 -18.337999 -1.75 0.27000001
-15.884 -18.361 -1.747 0.27000001
-15.792 -18.370001 -1.743 0.27000001
-15.722 -18.406 -1.7410001 0.25
-15.644 -18.431 -1.739 0.27000001
-15.561 -18.451 -1.7359999 0.28999999
-15.492 -18.427999 -1.7309999 0.27000001
-15.398 -18.434 -1.726 0.31999999
-15.31 -18.445999 -1.722 0.31999999
-15.219 -18.454 -1.7180001 0.28999999
-15.143 -18.48 -1.716 0.28999999
-15.058 -18.495001 -1.712 0.30000001
-14.985 -18.524 -1.711 0.28
-14.949 -18.538 -1.71 0.27000001
-14.863 -18.549999 -1.706 0.31
-14.798 -18.589001 -1.705 0.27000001
-14.722 -18.614 -1.7029999 0.27000001
-14.638 -18.627001 -1.7 0.28
-14.543 -18.625999 -1.6950001 0.30000001
-14.468 -18.650999 -1.693 0.28999999
-14.409 -18.636 -1.689 0.28
-14.326 -18.649 -1.686 0.28
-14.25 -18.671 -1.683 0.28
-14.151 -18.663 -1.678 0.22
-14.072 -18.68 -1.675 0.34
-13.994 -18.698999 -1.673 0.33000001
-13.888 -18.679001 -1.666 0.28999999
-13.852 -18.691999 -1.666 0.28
-13.773 -18.709 -1.663 0.27000001
-13.716 -18.753 -1.663 0.44999999
-13.65 -18.787001 -1.6619999 0.30000001
-13.54 -18.76 -1.655 0.30000001
-13.448 -18.756001 -1.651 0.28
-13.357 -18.754 -1.646 0.23
-13.309 -18.749001 -1.6440001 0.31
-13.257 -18.799999 -1.645 0.38999999
-13.203 -18.848 -1.645 0.28999999
-13.131 -18.872 -1.6440001 0.30000001
-13.067 -18.906 -1.643 0.28999999
-12.99 -18.921 -1.64 0.30000001
-12.914 -18.938999 -1.638 0.31
-12.863 -18.927999 -1.635 0.27000001
-12.781 -18.934999 -1.632 0.30000001
-12.73 -18.987 -1.633 0.33000001
-12.659 -19.01 -1.631 0.28
-12.595 -19.042999 -1.631 0.28
-12.526 -19.069 -1.6289999 0.31
-12.456 -19.093 -1.628 0.28
-12.432 -19.121 -1.6289999 0.25999999
-12.367 -19.153999 -1.628 0.27000001
-12.289 -19.164 -1.625 0.30000001
-12.23 -19.205999 -1.626 0.34
-12.175 -19.252001 -1.627 0.28999999
-12.11 -19.282 -1.626 0.30000001
-12.04 -19.306999 -1.624 0.31
-11.997 -19.305 -1.623 0.28999999
-11.931 -19.334 -1.622 0.28
-11.858 -19.351 -1.62 0.22
-11.769 -19.343 -1.6160001 0.30000001
-11.682 -19.334999 -1.6109999 0.23
-11.63 -19.386999 -1.613 0.44999999
-11.538 -19.372 -1.608 0.25
-11.505 -19.385 -1.608 0.25
-11.43 -19.396999 -1.605 0.18000001
-11.36 -19.417 -1.604 0.47
-11.292 -19.441 -1.603 0.23
-11.217 -19.454 -1.601 0.33000001
-11.14 -19.461 -1.598 0.2
-11.079 -19.496 -1.598 0.40000001
-11.011 -19.518999 -1.597 0.23999999
-10.972 -19.521 -1.596 0.19
-10.915 -19.563999 -1.596 0.40000001
-10.841 -19.575001 -1.594 0.23
-10.769 -19.59 -1.592 0.19
-10.71 -19.629 -1.5930001 0.38999999
-10.648 -19.662001 -1.5930001 0.23
-10.572 -19.669001 -1.591 0.17
-10.546 -19.695 -1.591 0.44999999
-10.48 -19.719 -1.591 0.23
-10.403 -19.724001 -1.5880001 0.19
-10.346 -19.767 -1.589 0.41999999
-10.274 -19.780001 -1.587 0.23
-10.208 -19.805 -1.587 0.27000001
-10.161 -19.791 -1.584 0.22
-10.112 -19.847 -1.586 0.44999999
-10.032 -19.844999 -1.5829999 0.25
-9.9639997 -19.864 -1.582 0.27000001
-9.8950005 -19.882999 -1.581 0.23
-9.8179998 -19.885 -1.5779999 0.17
-9.75 -19.903999 -1.577 0.47
-9.7119999 -19.906 -1.576 0.23
-9.6400003 -19.917 -1.574 0.19
-9.5740004 -19.940001 -1.574 0.38999999
-9.5030003 -19.952 -1.572 0.22
-9.4259996 -19.952999 -1.569 0.16
-9.3649998 -19.986 -1.5700001 0.43000001
-9.2930002 -19.996 -1.568 0.2
-9.2659998 -20.018999 -1.569 0.38
-9.191 -20.023001 -1.567 0.23
-9.1280003 -20.052 -1.567 0.25999999
-9.0509996 -20.049 -1.564 0.18000001
-8.9729996 -20.042999 -1.561 0.25
-8.9230003 -20.1 -1.563 0.47
-8.8549995 -20.117001 -1.562 0.22
-8.8149996 -20.113001 -1.561 0.19
-8.7510004 -20.139 -1.561 0.38999999
-8.6800003 -20.148001 -1.559 0.23
-8.6120005 -20.164 -1.558 0.19
-8.5480003 -20.191 -1.558 0.40000001
-8.4790001 -20.202999 -1.557 0.23
-8.4110003 -20.219 -1.556 0.18000001
-8.3800001 -20.233999 -1.556 0.41
-8.309 -20.243 -1.5549999 0.22
-8.2370005 -20.247 -1.553 0.18000001
-8.1560001 -20.232 -1.549 0.47
-8.0970001 -20.268999 -1.55 0.23999999
-8.0310001 -20.289 -1.55 0.23
-7.9569998 -20.288 -1.5470001 0.17
-7.9239998 -20.297001 -1.5470001 0.44
-7.8559999 -20.309999 -1.546 0.23999999
-7.783 -20.311001 -1.544 0.20999999
-7.717 -20.329 -1.544 0.31999999
-7.6469998 -20.339001 -1.5420001 0.25
-7.5689998 -20.323 -1.539 0.36000001
-7.5110002 -20.364 -1.54 0.27000001
-7.4580002 -20.319 -1.536 0.27000001
-7.3460002 -20.209999 -1.524 0.28999999
-7.3390002 -20.389999 -1.538 0.25999999
-7.2379999 -20.308001 -1.529 0.33000001
-7.1220002 -20.184 -1.516 0.2
-7.1269999 -20.402 -1.533 0.25999999
-7.0250001 -20.315001 -1.524 0.2
-7.0180001 -20.4 -1.53 0.23
-6.947 -20.399 -1.528 0.28999999
-6.8449998 -20.311001 -1.5190001 0.22
-6.7319999 -20.183001 -1.506 0.34999999
-6.6300001 -20.089001 -1.4960001 0.28999999
-6.4790001 -19.841 -1.473 0.2
-6.473 -20.037001 -1.488 0.43000001
-6.4460001 -20.061001 -1.489 0.31999999
-6.2690001 -19.724001 -1.459 0.28
-6.1830001 -19.667 -1.4529999 0.44999999
-6.1560001 -19.799 -1.462 0.23
-6.1589999 -20.028 -1.48 0.30000001
-6.0869999 -20.016001 -1.477 0.36000001
-6.0209999 -20.028 -1.477 0.44
-5.9809999 -20.007 -1.474 0.30000001
-5.9219999 -20.039 -1.475 0.27000001
-5.8039999 -19.870001 -1.46 0.44
-5.7119999 -19.785999 -1.451 0.27000001
-4.9520001 -17.368 -1.248 0.38
-5.631 -19.975 -1.464 0.34999999
-5.526 -19.843 -1.452 0.37
-5.4419999 -19.662001 -1.436 0.23999999
-5.4699998 -20.004 -1.4630001 0.34
-5.414 -20.046 -1.465 0.38
-5.3239999 -19.962 -1.457 0.28999999
-5.2540002 -19.952 -1.454 0.36000001
-5.1880002 -19.955 -1.4529999 0.37
-5.1370001 -20.018 -1.457 0.31999999
-5.0939999 -19.981001 -1.4529999 0.28999999
-5.0180001 -19.945 -1.449 0.37
-4.9559999 -19.964001 -1.449 0.27000001
-4.8740001 -19.899 -1.443 0.34
-4.8060002 -19.893999 -1.441 0.34999999
-4.7199998 -19.811001 -1.433 0.31999999
-4.6789999 -19.913 -1.4400001 0.47999999
-4.6300001 -19.846001 -1.434 0.28
-4.586 -19.938 -1.4400001 0.36000001
-4.5190001 -19.934999 -1.439 0.40000001
-4.4530001 -19.936001 -1.438 0.30000001
-4.3499999 -19.764999 -1.423 0.23
-4.277 -19.729 -1.419 0.51999998
-4.223 -19.782 -1.4220001 0.28999999
-4.2210002 -19.923 -1.433 0.25
-4.1890001 -20.084 -1.4450001 0.44
-4.0910001 -19.926001 -1.431 0.27000001
-4.0019999 -19.811001 -1.421 0.28999999
-3.9790001 -20.017 -1.436 0.27000001
-3.902 -19.959 -1.431 0.33000001
-3.849 -20.02 -1.4349999 0.36000001
-3.7969999 -19.919001 -1.426 0.30000001
-3.7279999 -19.896999 -1.423 0.36000001
-3.6789999 -19.981001 -1.429 0.31
-3.618 -20.003 -1.4299999 0.38
-3.4960001 -19.686001 -1.403 0.28
-3.477 -19.938999 -1.423 0.40000001
-3.4170001 -19.969 -1.424 0.36000001
-3.378 -19.924999 -1.42 0.28
-3.2709999 -19.672001 -1.399 0.31999999
-3.2650001 -20.023001 -1.427 0.40000001
-3.145 -19.681 -1.398 0.28
-3.066 -19.58 -1.3890001 0.34
-3.0020001 -19.572001 -1.388 0.33000001
-2.983 -19.861 -1.41 0.44999999
-2.9230001 -19.674999 -1.395 0.28
-2.8840001 -19.844 -1.408 0.25
-2.777 -19.541 -1.382 0.36000001
-2.734 -19.676001 -1.393 0.33000001
-2.6730001 -19.690001 -1.393 0.41999999
-2.5940001 -19.573999 -1.383 0.31999999
-2.5409999 -19.649 -1.3890001 0.40000001
-2.543 -19.903999 -1.409 0.31999999
-2.4760001 -19.875 -1.406 0.27000001
-2.4119999 -19.868 -1.405 0.33000001
-2.349 -19.875999 -1.405 0.41
-2.286 -19.875 -1.404 0.30000001
-2.2360001 -19.997 -1.413 0.33000001
-2.1730001 -20.002001 -1.413 0.36000001
-2.132 -19.912001 -1.406 0.36000001
-2.052 -19.752001 -1.392 0.34999999
-1.9960001 -19.818001 -1.397 0.31999999
-1.916 -19.648001 -1.383 0.31999999
-1.867 -19.787001 -1.393 0.43000001
-1.807 -19.82 -1.396 0.31
-1.7410001 -19.782 -1.392 0.23999999
-1.699 -19.658001 -1.382 0.38
-1.658 -19.907 -1.402 0.44999999
-1.582 -19.756001 -1.3890001 0.25999999
-1.507 -19.593 -1.376 0.34
-1.459 -19.781 -1.39 0.38999999
-1.4 -19.820999 -1.393 0.34
-1.326 -19.657 -1.38 0.31999999
-1.3 -19.724001 -1.385 0.25
-1.222 -19.488001 -1.365 0.38
-1.169 -19.622999 -1.376 0.31999999
-1.095 -19.409 -1.359 0.34999999
-1.0140001 -19.046 -1.329 0.28
-0.95999998 -19.177 -1.339 0.31
-0.91000003 -19.372999 -1.355 0.41
-0.87199998 -19.229 -1.3430001 0.31999999
-0.80900002 -19.16 -1.337 0.31999999
-0.75599998 -19.348 -1.352 0.23
-0.69300002 -19.290001 -1.348 0.50999999
-0.61900002 -18.912001 -1.317 0.31
-0.57300001 -19.327999 -1.35 0.19
-0.51899999 -19.556999 -1.369 0.33000001
-0.48500001 -19.468 -1.3609999 0.25
-0.426 -19.528999 -1.3660001 0.36000001
-0.36399999 -19.532 -1.3660001 0.41999999
-0.30199999 -19.483999 -1.362 0.38
-0.242 -19.535999 -1.3660001 0.25
-0.17299999 -18.815001 -1.309 0.25999999
-0.113 -18.788 -1.306 0.5
-0.086999997 -19.341999 -1.351 0.23
-0.025 -18.860001 -1.312 0.41
0.034000002 -18.481001 -1.2819999 0.28
0.093999997 -19.041 -1.327 0.23999999
0.152 -18.728001 -1.301 0.44999999
0.211 -18.712999 -1.3 0.31999999
0.271 -18.799999 -1.307 0.27000001
0.301 -18.886999 -1.314 0.34999999
0.35800001 -18.733 -1.302 0.41999999
0.421 -18.938999 -1.319 0.28999999
0.479 -18.854 -1.312 0.43000001
0.53899997 -18.892 -1.3150001 0.31
0.59399998 -18.740999 -1.303 0.31
0.65799999 -18.914 -1.317 0.46000001
0.67500001 -18.531 -1.2869999 0.25
0.74699998 -18.907 -1.317 0.36000001
0.80299997 -18.801001 -1.309 0.40000001
0.86699998 -18.926001 -1.319 0.38999999
0.92699999 -18.938999 -1.3200001 0.27000001
0.986 -18.924 -1.319 0.38999999
1.04 -18.811001 -1.3099999 0.38999999
1.063 -18.684 -1.3 0.31
1.124 -18.731001 -1.304 0.28999999
1.181 -18.695 -1.302 0.43000001
1.242 -18.723 -1.304 0.25
1.3099999 -18.856001 -1.3150001 0.33000001
1.364 -18.778999 -1.309 0.41
1.411 -18.618999 -1.2970001 0.25
1.45 -18.742001 -1.307 0.38
1.502 -18.648001 -1.3 0.30000001
1.551 -18.532 -1.291 0.31999999
1.617 -18.615999 -1.298 0.31999999
1.658 -18.417 -1.2819999 0.34999999
1.727 -18.532 -1.2920001 0.31
1.752 -18.482 -1.288 0.33000001
1.807 -18.441 -1.285 0.37
1.859 -18.381001 -1.281 0.30000001
1.915 -18.351999 -1.279 0.30000001
1.972 -18.344 -1.279 0.23999999
2.0320001 -18.358999 -1.281 0.41999999
2.0869999 -18.325001 -1.279 0.31999999
2.1199999 -18.358999 -1.2819999 0.31999999
2.174 -18.327 -1.28 0.28999999
2.2349999 -18.349001 -1.2819999 0.31
2.2939999 -18.348 -1.2819999 0.28999999
2.349 -18.323 -1.281 0.37
2.4070001 -18.32 -1.281 0.33000001
2.4590001 -18.267 -1.278 0.28
2.4920001 -18.298 -1.281 0.34999999
2.556 -18.334 -1.284 0.30000001
2.5710001 -18.024 -1.26 0.30000001
2.6619999 -18.257999 -1.279 0.38
2.7249999 -18.289 -1.2819999 0.31
2.7869999 -18.306 -1.285 0.33000001
2.8469999 -18.313 -1.286 0.31999999
2.8789999 -18.332001 -1.288 0.31999999
2.938 -18.329 -1.288 0.25999999
2.9949999 -18.32 -1.288 0.33000001
3.052 -18.304001 -1.288 0.31999999
3.112 -18.309999 -1.289 0.27000001
3.1559999 -18.219999 -1.2819999 0.33000001
3.221 -18.257 -1.286 0.31999999
3.2579999 -18.297001 -1.29 0.23999999
3.28 -18.093 -1.274 0.31999999
3.3540001 -18.176001 -1.2819999 0.41
3.4319999 -18.275 -1.291 0.28999999
3.4849999 -18.245001 -1.289 0.31999999
3.523 -18.129999 -1.281 0.34
3.6129999 -18.289 -1.295 0.30000001
3.642 -18.283001 -1.295 0.28
3.684 -18.194 -1.288 0.36000001
3.74 -18.177999 -1.288 0.25
3.786 -18.114 -1.284 0.36000001
3.8629999 -18.198999 -1.2920001 0.27000001
3.9360001 -18.261 -1.298 0.28
3.9679999 -18.132 -1.288 0.33000001
4.0229998 -18.243999 -1.298 0.31999999
4.086 -18.259001 -1.3 0.31
4.1409998 -18.236 -1.299 0.27000001
4.1960001 -18.212999 -1.298 0.36000001
4.2649999 -18.250999 -1.303 0.25
4.2969999 -18.125999 -1.293 0.34999999
4.3639998 -18.157 -1.2970001 0.38999999
4.3889999 -18.135 -1.296 0.25
4.441 -18.101999 -1.294 0.38
4.4990001 -18.09 -1.294 0.28999999
4.5770001 -18.160999 -1.301 0.34999999
4.6560001 -18.233 -1.309 0.23999999
4.665 -18.033001 -1.293 0.41
4.7610002 -18.169001 -1.306 0.27000001
4.776 -18.108999 -1.301 0.34999999
4.8639998 -18.209999 -1.311 0.27000001
4.8610001 -17.973 -1.293 0.36000001
4.9250002 -17.983 -1.295 0.34
5.0029998 -18.048 -1.301 0.31999999
5.0949998 -18.157 -1.312 0.28
4.9489999 -17.421 -1.252 0.23999999
5.0739999 -17.759001 -1.281 0.2
5.1880002 -17.945999 -1.298 0.50999999
5.2069998 -17.799 -1.2869999 0.23
5.3720002 -18.153999 -1.318 0.36000001
5.415 -18.091 -1.314 0.31999999
5.401 -17.839001 -1.294 0.38999999
5.4650002 -17.847 -1.296 0.41
5.507 -17.886 -1.3 0.23
5.5689998 -17.886999 -1.302 0.30000001
5.6279998 -17.877001 -1.303 0.34999999
5.6760001 -17.834999 -1.301 0.25
5.7459998 -17.861 -1.304 0.47999999
5.8049998 -17.85 -1.3049999 0.23999999
5.9180002 -18.006001 -1.3200001 0.2
5.8449998 -17.690001 -1.294 0.38
5.8979998 -17.662001 -1.293 0.36000001
5.9749999 -17.708 -1.298 0.33000001
6.0219998 -17.664 -1.296 0.5
6.1069999 -17.732 -1.304 0.23
6.1900001 -17.790001 -1.3099999 0.38
6.309 -17.952999 -1.326 0.31999999
6.2849998 -17.792999 -1.313 0.23
6.381 -17.885 -1.322 0.47
6.4380002 -17.868999 -1.323 0.38999999
6.5310001 -17.950001 -1.331 0.28999999
6.5630002 -17.862 -1.326 0.38999999
6.6100001 -17.819 -1.324 0.28
6.677 -17.913 -1.3329999 0.38
6.7290001 -17.881001 -1.332 0.33000001
6.744 -17.750999 -1.322 0.33000001
6.7800002 -17.676001 -1.318 0.36000001
6.8660002 -17.735001 -1.325 0.34
6.8930001 -17.639 -1.318 0.36000001
6.9060001 -17.509001 -1.309 0.23
6.9949999 -17.656 -1.323 0.36000001
7.1220002 -17.812 -1.3380001 0.30000001
7.1630001 -17.754 -1.335 0.41
7.223 -17.740999 -1.336 0.31
7.375 -17.954 -1.3559999 0.31999999
7.3800001 -17.806 -1.345 0.34
7.25 -17.337 -1.307 0.36000001
7.4679999 -17.702 -1.34 0.31999999
7.454 -17.593 -1.332 0.27000001
7.553 -17.672001 -1.341 0.31999999
7.618 -17.669001 -1.3430001 0.33000001
7.6550002 -17.601999 -1.339 0.31999999
7.678 -17.504999 -1.3329999 0.36000001
7.7350001 -17.485001 -1.3329999 0.34
7.7529998 -17.452 -1.331 0.38999999
7.8330002 -17.483999 -1.336 0.34999999
7.8909998 -17.466999 -1.337 0.38
7.9219999 -17.389999 -1.332 0.34
7.875 -17.142 -1.312 0.38999999
7.9679999 -17.202 -1.3200001 0.34
8.1210003 -17.389999 -1.339 0.30000001
8.1590004 -17.399 -1.341 0.44
8.25 -17.451 -1.348 0.27000001
8.2860003 -17.385 -1.344 0.38
8.3339996 -17.346001 -1.3430001 0.36000001
8.3470001 -17.233999 -1.335 0.38
8.3430004 -17.087999 -1.325 0.31999999
8.4759998 -17.224001 -1.339 0.28999999
8.5609999 -17.327 -1.349 0.36000001
8.474 -17.016001 -1.324 0.34
8.6350002 -17.202999 -1.3430001 0.31999999
8.7089996 -17.216999 -1.347 0.34
8.7349997 -17.135 -1.342 0.37
8.7580004 -17.047001 -1.337 0.33000001
8.8079996 -17.011999 -1.336 0.31999999
8.8190002 -16.968 -1.3329999 0.36000001
8.9440002 -17.077999 -1.346 0.33000001
8.9530001 -16.965 -1.3380001 0.30000001
8.974 -16.875 -1.332 0.43000001
9.0220003 -16.837999 -1.332 0.38
9.1269999 -16.906 -1.34 0.36000001
9.2010002 -16.916 -1.344 0.30000001
9.2110004 -16.872 -1.341 0.43000001
9.2670002 -16.848 -1.342 0.36000001
9.3900003 -16.945 -1.353 0.47
9.5089998 -17.034 -1.364 0.25
9.5270004 -16.941 -1.358 0.30000001
9.5609999 -16.875999 -1.355 0.41
9.6289997 -16.874001 -1.358 0.30000001
9.6599998 -16.865999 -1.358 0.38
9.7119999 -16.834 -1.358 0.36000001
9.7639999 -16.801001 -1.358 0.40000001
9.8249998 -16.785999 -1.359 0.36000001
9.9119997 -16.813 -1.365 0.41
9.9820004 -16.811001 -1.368 0.38999999
10.037 -16.783001 -1.368 0.34
10.076 -16.788 -1.37 0.34
10.131 -16.76 -1.37 0.28
10.189 -16.738001 -1.3710001 0.33000001
10.245 -16.711 -1.372 0.31999999
10.307 -16.694 -1.373 0.31
10.358 -16.66 -1.373 0.30000001
10.424 -16.649 -1.375 0.31999999
10.461 -16.65 -1.377 0.30000001
10.522 -16.629999 -1.378 0.31
10.578 -16.604 -1.378 0.31999999
10.64 -16.586 -1.38 0.31
10.688 -16.546 -1.3789999 0.30000001
10.748 -16.525 -1.381 0.31
10.805 -16.497999 -1.381 0.30000001
10.836 -16.489 -1.382 0.30000001
10.894 -16.465 -1.383 0.30000001
10.96 -16.452999 -1.385 0.30000001
11.016 -16.424999 -1.386 0.30000001
11.068 -16.389999 -1.386 0.30000001
11.129 -16.370001 -1.387 0.30000001
11.19 -16.348 -1.388 0.30000001
11.223 -16.341999 -1.3890001 0.31
11.289 -16.327999 -1.392 0.31
11.35 -16.306 -1.393 0.34
11.396 -16.263 -1.392 0.27000001
11.464 -16.252001 -1.395 0.30000001
11.525 -16.229 -1.396 0.31
11.559 -16.224001 -1.397 0.30000001
11.624 -16.207001 -1.399 0.30000001
11.679 -16.174999 -1.4 0.31
11.743 -16.158001 -1.401 0.31999999
11.809 -16.142 -1.404 0.28999999
11.867 -16.114 -1.405 0.31
11.935 -16.101 -1.4069999 0.30000001
11.97 -16.094999 -1.408 0.31
12.023 -16.059999 -1.409 0.30000001
12.089 -16.042999 -1.411 0.30000001
12.157 -16.028999 -1.413 0.28999999
12.215 -16 -1.414 0.31
12.277 -15.978 -1.416 0.28999999
12.344 -15.961 -1.418 0.30000001
12.385 -15.962 -1.42 0.31999999
12.445 -15.936 -1.421 0.28
12.513 -15.918 -1.423 0.30000001
12.579 -15.899 -1.425 0.30000001
12.64 -15.874 -1.427 0.31999999
12.702 -15.85 -1.429 0.31
12.762 -15.822 -1.4299999 0.31
12.817 -15.79 -1.431 0.30000001
12.861 -15.793 -1.433 0.31
12.908 -15.749 -1.433 0.28999999
12.964 -15.716 -1.433 0.28999999
12.985 -15.642 -1.4299999 0.31
13.088 -15.665 -1.437 0.30000001
13.149 -15.638 -1.438 0.31
13.218 -15.621 -1.441 0.31
13.258 -15.618 -1.443 0.31
13.324 -15.596 -1.4450001 0.30000001
13.381 -15.563 -1.446 0.30000001
13.427 -15.518 -1.4450001 0.28
13.486 -15.488 -1.447 0.28999999
13.556 -15.469 -1.449 0.30000001
13.598 -15.469 -1.451 0.30000001
13.672 -15.455 -1.454 0.27000001
13.726 -15.418 -1.455 0.34
13.785 -15.386 -1.456 0.33000001
13.862 -15.376 -1.46 0.37
13.937 -15.362 -1.4630001 0.28999999
13.987 -15.319 -1.4630001 0.28
14.054 -15.344 -1.4680001 0.28999999
14.133 -15.334 -1.472 0.30000001
14.204 -15.314 -1.475 0.30000001
14.302 -15.323 -1.4809999 0.28999999
14.39 -15.321 -1.485 0.31999999
14.482 -15.322 -1.49 0.30000001
14.568 -15.317 -1.495 0.30000001
14.638 -15.341 -1.5 0.30000001
14.723 -15.334 -1.505 0.28999999
14.813 -15.331 -1.5089999 0.28999999
14.889 -15.313 -1.513 0.28
14.988 -15.319 -1.518 0.28
15.061 -15.297 -1.521 0.28999999
15.175 -15.317 -1.529 0.28
15.209 -15.303 -1.53 0.2
15.281 -15.279 -1.533 0.28999999
15.363 -15.265 -1.5369999 0.44
15.499 -15.303 -1.546 0.28999999
15.552 -15.26 -1.5470001 0.28
15.61 -15.221 -1.548 0.31
15.665 -15.179 -1.549 0.23
15.675 -15.14 -1.5470001 0.34999999
15.785 -15.152 -1.554 0.33000001
15.854 -15.123 -1.557 0.28
15.876 -15.048 -1.554 0.17
15.939 -15.013 -1.556 0.47
15.958 -14.937 -1.553 0.23
15.969 -14.853 -1.549 0.17
15.999 -14.835 -1.549 0.38999999
16.033001 -14.772 -1.548 0.2
16.066999 -14.711 -1.5470001 0.25
16.096001 -14.644 -1.545 0.20999999
16.129999 -14.583 -1.544 0.18000001
16.17 -14.527 -1.543 0.38999999
16.193001 -14.456 -1.541 0.23
16.193001 -14.411 -1.538 0.19
16.24 -14.361 -1.538 0.41
16.282 -14.307 -1.538 0.23
16.302999 -14.235 -1.535 0.18000001
16.375 -14.207 -1.538 0.38999999
16.407 -14.145 -1.5369999 0.22
16.444 -14.087 -1.536 0.18000001
16.459999 -14.056 -1.536 0.38999999
16.492001 -13.994 -1.534 0.23
16.527 -13.934 -1.533 0.2
16.572001 -13.884 -1.533 0.41
16.606001 -13.824 -1.533 0.23999999
16.632999 -13.758 -1.531 0.19
16.679001 -13.708 -1.531 0.41
16.688 -13.672 -1.53 0.19
16.732 -13.62 -1.53 0.38
16.771999 -13.565 -1.53 0.2
16.813 -13.511 -1.529 0.23
16.849001 -13.453 -1.529 0.2
16.885 -13.395 -1.528 0.17
16.943001 -13.355 -1.53 0.38999999
16.943001 -13.312 -1.528 0.23
16.990999 -13.264 -1.528 0.19
17.042 -13.217 -1.529 0.41999999
17.068001 -13.152 -1.528 0.23999999
17.103001 -13.093 -1.527 0.17
17.16 -13.051 -1.529 0.43000001
17.194 -12.993 -1.528 0.25
17.197001 -12.952 -1.526 0.17
17.254 -12.91 -1.528 0.41999999
17.290001 -12.852 -1.527 0.23
17.319 -12.79 -1.526 0.19
17.368 -12.742 -1.527 0.41999999
17.391001 -12.675 -1.525 0.23999999
17.410999 -12.606 -1.524 0.16
17.452999 -12.595 -1.526 0.43000001
17.485001 -12.534 -1.525 0.25
17.506001 -12.467 -1.523 0.2
17.558001 -12.421 -1.525 0.41
17.599001 -12.367 -1.525 0.20999999
17.607 -12.29 -1.522 0.17
17.666 -12.249 -1.524 0.43000001
17.666 -12.208 -1.522 0.25
17.712 -12.158 -1.523 0.23999999
17.733999 -12.091 -1.521 0.17
17.785 -12.044 -1.522 0.41999999
17.820999 -11.987 -1.522 0.23999999
17.844 -11.921 -1.521 0.19
17.868 -11.896 -1.521 0.41999999
17.886999 -11.828 -1.5190001 0.25
17.903999 -11.758 -1.517 0.18000001
17.957001 -11.713 -1.5190001 0.41999999
17.989 -11.653 -1.5190001 0.23
18.014999 -11.59 -1.518 0.19
18.049999 -11.533 -1.517 0.16
18.113001 -11.493 -1.52 0.16
16.848 -10.651 -1.398 0.30000001
16.903 -10.612 -1.4 0.23
16.982 -10.587 -1.405 0.27000001
17.073 -10.57 -1.41 0.28999999
17.183001 -10.563 -1.4170001 0.27000001
17.311001 -10.567 -1.426 0.25
17.429001 -10.565 -1.434 0.28
17.534 -10.591 -1.442 0.28999999
17.663 -10.593 -1.451 0.28999999
17.780001 -10.588 -1.459 0.28999999
17.899 -10.583 -1.467 0.30000001
18.01 -10.572 -1.474 0.28999999
18.098 -10.548 -1.48 0.30000001
18.177999 -10.556 -1.485 0.30000001
18.229 -10.509 -1.487 0.28999999
18.339001 -10.496 -1.494 0.19
18.466999 -10.493 -1.503 0.43000001
18.582001 -10.481 -1.511 0.2
17.226 -9.6429996 -1.383 0.16
17.341 -9.6359997 -1.391 0.17
17.445 -9.658 -1.399 0.13
17.563 -9.651 -1.4069999 0.16
17.712 -9.6610003 -1.418 0.12
17.860001 -9.6689997 -1.428 0.16
17.995001 -9.6700001 -1.438 0.12
18.125999 -9.6669998 -1.447 0.17
18.264999 -9.6680002 -1.457 0.12
18.375999 -9.6899996 -1.466 0.17
18.514999 -9.6890001 -1.476 0.28999999
18.65 -9.6850004 -1.485 0.19
18.688999 -9.6309996 -1.4859999 0.17
18.76 -9.5939999 -1.489 0.18000001
19.028 -9.6560001 -1.511 0.15000001
19.226 -9.6800003 -1.526 0.23
19.285999 -9.6730003 -1.53 0.20999999
19.309999 -9.6090002 -1.529 0.30000001
19.316 -9.5360003 -1.527 0.2
19.334999 -9.4700003 -1.526 0.18000001
19.388 -9.4209995 -1.528 0.28
19.462 -9.3809996 -1.5319999 0.25
19.59 -9.368 -1.541 0.25
19.74 -9.401 -1.553 0.11
19.82 -9.3629999 -1.558 0.14
19.732 -9.2460003 -1.5470001 0.20999999
19.799 -9.2010002 -1.551 0.18000001
19.809 -9.1309996 -1.549 0.28
19.92 -9.1059999 -1.556 0
20.037001 -9.0839996 -1.564 0.050000001
18.093 -8.1660004 -1.392 0.14
18.226 -8.1569996 -1.401 0.18000001
18.388 -8.1599998 -1.413 0.12
18.563999 -8.1689997 -1.426 0.16
18.739 -8.1759996 -1.439 0.12
18.889 -8.1709995 -1.45 0.15000001
19.055 -8.1719999 -1.462 0.28
19.205999 -8.2010002 -1.474 0.27000001
19.358 -8.1949997 -1.485 0.27000001
19.424 -8.151 -1.489 0.25
19.472 -8.099 -1.4910001 0.25999999
19.802999 -8.1639996 -1.517 0.25
20.028999 -8.184 -1.535 0.19
20.049 -8.1190004 -1.534 0.13
20.031 -8.0749998 -1.5319999 0.16
20.059999 -8.0139999 -1.5319999 0.12
20.059 -7.9400001 -1.53 0.17
20.061001 -7.868 -1.528 0.28
20.063999 -7.7969999 -1.526 0.18000001
20.159 -7.7610002 -1.5319999 0.14
20.386 -7.7750001 -1.549 0.16
20.329 -7.717 -1.544 0.12
20.34 -7.6479998 -1.5420001 0.14
20.364 -7.5840001 -1.5420001 0.31999999
20.365999 -7.5120001 -1.541 0.19
20.415001 -7.4569998 -1.543 0.25999999
20.489 -7.4120002 -1.5470001 0.18000001
20.576 -7.3699999 -1.553 0.30000001
20.608 -7.3449998 -1.554 0.18000001
20.681999 -7.2979999 -1.559 0
20.743999 -7.2470002 -1.562 0.059999999
19.271999 -6.6630001 -1.4349999 0.18000001
19.452999 -6.6570001 -1.449 0.28
19.677999 -6.665 -1.466 0.11
19.923 -6.6789999 -1.485 0.16
20.122999 -6.711 -1.501 0.27000001
20.339001 -6.7129998 -1.517 0.27000001
20.521 -6.7020001 -1.531 0.27000001
20.524 -6.632 -1.529 0.19
20.874001 -6.6719999 -1.557 0.17
21.056 -6.658 -1.571 0.2
21.084 -6.5939999 -1.571 0.15000001
21.093 -6.5609999 -1.571 0.43000001
21.17 -6.5120001 -1.576 0.2
21.322001 -6.4860001 -1.587 0.18000001
21.587 -6.4920001 -1.608 0.18000001
21.537001 -6.4029999 -1.602 0.31999999
21.593 -6.3460002 -1.605 0.18000001
21.527 -6.2529998 -1.597 0.37
21.613001 -6.2420001 -1.604 0.20999999
21.705 -6.1950002 -1.61 0.18000001
21.736 -6.1300001 -1.6109999 0.41999999
21.712999 -6.0500002 -1.607 0.2
21.655001 -5.96 -1.601 0.18000001
21.677999 -5.8930001 -1.601 0.31999999
21.76 -5.842 -1.607 0.2
14.276 -3.8 -0.98400003 0.30000001
13.858 -3.641 -0.94800001 0.27000001
19.368999 -5.0339999 -1.405 0.23999999
19.448 -4.9899998 -1.41 0.23999999
19.622 -4.9039998 -1.4220001 0.19
19.57 -4.8249998 -1.416 0.15000001
15.913 -3.839 -1.112 0.19
21.228001 -5.0599999 -1.55 0.12
20.802999 -4.8200002 -1.512 0.38999999
20.723 -4.7329998 -1.5039999 0.16
21.502001 -4.8410001 -1.567 0.19
18.152 -4.052 -1.291 0.22
18.205 -4.0040002 -1.294 0.25999999
17.983999 -3.8959999 -1.275 0.17
18.177999 -3.8789999 -1.29 0.57999998
19.159 -4.027 -1.37 0.15000001
18.922001 -3.914 -1.349 0.36000001
18.856001 -3.839 -1.3430001 0.27000001
20.032 -4.0469999 -1.439 0.33000001
19.823999 -3.9400001 -1.421 0.27000001
19.754 -3.862 -1.414 0.38
19.979 -3.8410001 -1.431 0.38999999
20.004999 -3.7809999 -1.432 0.31
20.046 -3.723 -1.4349999 0.31999999
20.025999 -3.654 -1.432 0.34999999
20.103001 -3.6359999 -1.438 0.28
20.936001 -3.72 -1.505 0.23
21.134001 -3.687 -1.52 0.41
21.396999 -3.664 -1.541 0.28
21.636999 -3.635 -1.559 0.36000001
21.611 -3.5610001 -1.556 0.30000001
21.555 -3.4820001 -1.551 0.2
21.531 -3.4430001 -1.548 0.40000001
21.518 -3.372 -1.546 0.2
21.513 -3.302 -1.545 0.23
21.511 -3.233 -1.544 0.20999999
21.539 -3.168 -1.546 0.22
21.542999 -3.099 -1.545 0.2
21.561001 -3.0669999 -1.546 0.20999999
21.570999 -3 -1.546 0.19
21.606001 -2.9349999 -1.548 0.22
21.597 -2.865 -1.5470001 0.19
21.624001 -2.799 -1.548 0.22
21.621 -2.73 -1.5470001 0.18000001
21.629 -2.6619999 -1.5470001 0.20999999
21.612 -2.625 -1.546 0.19
21.604 -2.556 -1.544 0.22
21.594 -2.4860001 -1.543 0.18000001
21.591999 -2.4170001 -1.5420001 0.23
21.582001 -2.3469999 -1.541 0.19
21.566999 -2.277 -1.539 0.12
21.559999 -2.2079999 -1.538 0.2
21.587 -2.142 -1.539 0.55000001
21.591999 -2.108 -1.54 0.38999999
21.573 -2.0380001 -1.5369999 0.55000001
21.802 -1.9910001 -1.5549999 0.38999999
21.579 -1.902 -1.5369999 0.18000001
21.591 -1.834 -1.5369999 0.13
21.599001 -1.767 -1.538 0.18000001
21.629 -1.735 -1.54 0.28999999
21.664 -1.669 -1.5420001 0.18000001
21.697001 -1.603 -1.545 0.17
21.728001 -1.5369999 -1.5470001 0.16
21.731001 -1.469 -1.546 0.16
21.743 -1.401 -1.5470001 0.1
21.756001 -1.3329999 -1.548 0.15000001
21.75 -1.298 -1.5470001 0.1
21.756001 -1.23 -1.5470001 0.15000001
21.76 -1.1619999 -1.5470001 0.1
21.763 -1.094 -1.5470001 0.15000001
21.756001 -1.025 -1.546 0.1
21.764 -0.95599997 -1.5470001 0.16
21.752001 -0.88800001 -1.546 0.16
21.743999 -0.85299999 -1.545 0.16
21.746 -0.78500003 -1.545 0.16
21.778999 -0.71700001 -1.5470001 0.23
21.797001 -0.64899999 -1.549 0.25
21.781 -0.57999998 -1.5470001 0.25
21.750999 -0.51099998 -1.545 0.11
21.74 -0.44299999 -1.544 0.15000001
21.757 -0.40900001 -1.545 0.28
21.774 -0.34099999 -1.546 0.25999999
21.768999 -0.27200001 -1.546 0.11
21.77 -0.204 -1.546 0.16
21.764 -0.13500001 -1.545 0.28999999
21.771999 -0.067000002 -1.546 0.25
20.407 0.0070000002 -1.553 0.23999999
20.393999 0.071000002 -1.552 0.18000001
20.384001 0.103 -1.551 0.34
20.362 0.167 -1.55 0.18000001
20.357 0.23100001 -1.549 0.36000001
20.339001 0.294 -1.548 0.17
20.323999 0.35800001 -1.546 0.34999999
20.316999 0.42199999 -1.546 0.17
20.305 0.48500001 -1.545 0.36000001
20.298 0.51700002 -1.545 0.18000001
20.292999 0.58099997 -1.544 0.37
20.295 0.64499998 -1.545 0.19
20.291 0.708 -1.544 0.23
20.271999 0.77100003 -1.543 0.20999999
20.264 0.83499998 -1.5420001 0.23
20.257 0.898 -1.5420001 0.20999999
20.254 0.93000001 -1.5420001 0.18000001
20.271 0.995 -1.544 0.38999999
20.254999 1.058 -1.543 0.22
20.266001 1.122 -1.544 0.18000001
20.26 1.186 -1.544 0.38999999
20.257 1.249 -1.544 0.23999999
20.233 1.312 -1.5420001 0.18000001
20.226999 1.3430001 -1.5420001 0.38999999
20.202 1.405 -1.54 0.25
20.194 1.4680001 -1.54 0.25999999
20.173 1.531 -1.538 0.25
20.129 1.591 -1.535 0.17
20.129 1.654 -1.535 0.44
20.1 1.716 -1.533 0.25
20.091999 1.747 -1.533 0.27000001
20.08 1.809 -1.5319999 0.23
20.052999 1.87 -1.53 0.15000001
20.07 1.936 -1.5319999 0.23
20.044001 1.997 -1.531 0.61000001
20.056 2.0610001 -1.5319999 0.40000001
20.039 2.1229999 -1.531 0.18000001
20.054001 2.1570001 -1.533 0.17
20.070999 2.2219999 -1.535 0.15000001
20.066 2.286 -1.535 0.30000001
20.056 2.348 -1.535 0.22
20.066999 2.414 -1.536 0.17
20.051001 2.4760001 -1.536 0.38999999
20.049 2.539 -1.536 0.18000001
20.055 2.572 -1.5369999 0.36000001
20.065001 2.638 -1.539 0.18000001
20.052 2.7 -1.538 0.36000001
20.034 2.7620001 -1.538 0.19
20.039 2.8269999 -1.539 0.38
20.018 2.888 -1.538 0.20999999
20.004999 2.95 -1.5369999 0.18000001
19.996 2.9809999 -1.5369999 0.41
19.979 3.0420001 -1.536 0.23999999
19.959 3.1040001 -1.535 0.16
19.954 3.1670001 -1.536 0.44
19.934 3.2279999 -1.535 0.25
19.92 3.29 -1.535 0.27000001
19.905001 3.352 -1.534 0.27000001
19.914 3.385 -1.535 0.23999999
19.891001 3.4460001 -1.534 0.18000001
19.9 3.5120001 -1.536 0.43000001
19.875 3.572 -1.535 0.22
19.865999 3.635 -1.535 0.16
19.872 3.7 -1.5369999 0.43000001
19.864 3.7639999 -1.5369999 0.23
19.865999 3.796 -1.538 0.18000001
19.858 3.859 -1.538 0.38999999
19.83 3.9189999 -1.5369999 0.18000001
19.825001 3.983 -1.5369999 0.36000001
19.823999 4.0469999 -1.538 0.19
19.794001 4.1059999 -1.5369999 0.34
19.789 4.1700001 -1.538 0.17
19.785999 4.2020001 -1.538 0.38
19.757 4.2600002 -1.536 0.18000001
19.753 4.3249998 -1.5369999 0.37
19.722 4.3829999 -1.536 0.19
19.716 4.4460001 -1.536 0.38
19.684999 4.5040002 -1.535 0.22
19.659 4.5630002 -1.534 0.18000001
19.652 4.5939999 -1.534 0.41
19.621 4.652 -1.533 0.23
19.611 4.7150002 -1.533 0.2
19.6 4.777 -1.533 0.25999999
19.577 4.8369999 -1.533 0.2
19.589001 4.9050002 -1.535 0.22
19.604 4.9749999 -1.538 0.2
19.613001 5.0100002 -1.539 0.22
19.613001 5.0749998 -1.541 0.2
19.610001 5.1409998 -1.5420001 0.20999999
19.580999 5.1989999 -1.541 0.18000001
19.572001 5.2620001 -1.541 0.28999999
19.552999 5.323 -1.541 0.19
19.537001 5.3850002 -1.541 0.16
19.532 5.4159999 -1.541 0.31999999
19.503 5.474 -1.54 0.2
19.486 5.5359998 -1.54 0.18000001
19.457001 5.5929999 -1.539 0.34
19.434 5.6529999 -1.539 0.18000001
19.408001 5.7119999 -1.538 0.36000001
19.367001 5.7659998 -1.536 0.2
19.351999 5.7940001 -1.536 0.25999999
19.33 5.8540001 -1.535 0.20999999
19.287001 5.9070001 -1.533 0.18000001
19.285999 5.973 -1.535 0.41
19.259001 6.0310001 -1.534 0.23
19.223 6.086 -1.5319999 0.16
19.225 6.1529999 -1.534 0.43000001
19.211 6.1820002 -1.534 0.23999999
19.191999 6.243 -1.534 0.19
19.174 6.303 -1.534 0.41
19.16 6.3660002 -1.535 0.2
19.134001 6.4239998 -1.534 0.38
19.121 6.4860001 -1.535 0.18000001
19.106001 6.5479999 -1.535 0.15000001
19.111 6.5840001 -1.5369999 0.17
19.101999 6.6479998 -1.538 0.12
19.091999 6.7119999 -1.539 0.17
19.091 6.7789998 -1.541 0.12
19.056999 6.8340001 -1.539 0.16
19.058001 6.902 -1.541 0.28
19.059999 6.9369998 -1.543 0.2
19.047001 7 -1.544 0.18000001
19.023001 7.059 -1.543 0.33000001
18.992001 7.1149998 -1.5420001 0.16
18.962 7.1719999 -1.5420001 0.34999999
18.941 7.2329998 -1.5420001 0.22
18.915001 7.2909999 -1.5420001 0.18000001
18.895 7.3509998 -1.5420001 0.41
18.862 7.3720002 -1.54 0.23
18.846001 7.434 -1.541 0.16
18.834999 7.4990001 -1.5420001 0.44999999
18.823 7.5619998 -1.543 0.25
18.886999 7.658 -1.551 0.25
18.872 7.7210002 -1.552 0.27000001
18.861 7.7849998 -1.553 0.31
18.742001 7.77 -1.543 0.23
18.622 7.789 -1.534 0.44
18.517 7.8130002 -1.527 0.33000001
18.362 7.816 -1.515 0.25999999
18.233 7.829 -1.505 0.28999999
18.122 7.849 -1.497 0.31
17.997 7.862 -1.487 0.31999999
17.861 7.835 -1.476 0.20999999
17.756001 7.8559999 -1.4680001 0.43000001
17.698999 7.8969998 -1.465 0.23999999
17.684999 7.9569998 -1.466 0.25
17.645 8.0059996 -1.465 0.28999999
17.555 8.0319996 -1.459 0.34999999
17.542 8.059 -1.459 0.30000001
17.521999 8.1169996 -1.459 0.27000001
17.511 8.1789999 -1.46 0.31
17.436001 8.2110004 -1.456 0.28
17.351 8.2370005 -1.45 0.27000001
17.445999 8.349 -1.462 0.30000001
17.423 8.4060001 -1.462 0.28999999
17.419001 8.4370003 -1.4630001 0.30000001
17.406 8.4989996 -1.464 0.28999999
17.386999 8.5570002 -1.465 0.28999999
17.367001 8.6149998 -1.466 0.30000001
17.349001 8.6739998 -1.466 0.30000001
17.327 8.7320004 -1.467 0.31999999
17.315001 8.7939997 -1.4680001 0.31
17.296 8.8190002 -1.4680001 0.31
17.271999 8.875 -1.4680001 0.31
17.26 8.9370003 -1.47 0.30000001
17.233 8.9919996 -1.47 0.30000001
17.201 9.0450001 -1.47 0.30000001
17.184999 9.1049995 -1.471 0.30000001
17.163 9.1630001 -1.472 0.28999999
17.165001 9.198 -1.473 0.31999999
17.148001 9.2589998 -1.474 0.30000001
17.118999 9.3129997 -1.474 0.28
17.101999 9.3730001 -1.476 0.28999999
17.077 9.4300003 -1.476 0.30000001
17.059999 9.4899998 -1.477 0.31999999
17.034 9.5450001 -1.478 0.28999999
17.017 9.5710001 -1.477 0.28999999
16.997 9.6309996 -1.478 0.28999999
16.979 9.691 -1.48 0.28999999
16.959999 9.7510004 -1.4809999 0.31999999
16.940001 9.8100004 -1.482 0.28
16.906 9.8620005 -1.4809999 0.30000001
16.892 9.9250002 -1.483 0.30000001
16.871 9.948 -1.483 0.28999999
16.846001 10.005 -1.483 0.28999999
16.827 10.065 -1.485 0.28999999
16.806999 10.125 -1.4859999 0.25999999
16.785 10.184 -1.487 0.28999999
16.738001 10.228 -1.485 0.38
16.711 10.283 -1.4859999 0.37
16.708 10.318 -1.487 0.30000001
16.694 10.382 -1.489 0.31999999
16.667 10.437 -1.49 0.28999999
16.643999 10.496 -1.4910001 0.28999999
16.615999 10.552 -1.4910001 0.30000001
16.580999 10.603 -1.4910001 0.28999999
16.549 10.656 -1.4910001 0.28999999
16.541 10.687 -1.492 0.30000001
16.518999 10.747 -1.493 0.28999999
16.485001 10.799 -1.493 0.31999999
16.461 10.857 -1.494 0.28999999
16.424 10.906 -1.494 0.31
16.409 10.971 -1.4960001 0.28999999
16.398001 11.038 -1.498 0.25
16.417 11.089 -1.502 0.28999999
16.382999 11.141 -1.502 0.30000001
16.344999 11.19 -1.502 0.27000001
16.318001 11.247 -1.503 0.34
16.285999 11.301 -1.503 0.30000001
16.257 11.357 -1.5039999 0.31999999
16.205999 11.397 -1.502 0.28
16.198 11.43 -1.503 0.31
16.174 11.489 -1.5039999 0.31
16.139 11.54 -1.505 0.30000001
16.096001 11.586 -1.5039999 0.30000001
16.068001 11.643 -1.505 0.31
16.039 11.699 -1.506 0.31
16.002001 11.749 -1.506 0.31
15.995 11.783 -1.507 0.31999999
15.955 11.831 -1.507 0.31
15.918 11.881 -1.507 0.31
15.895 11.941 -1.508 0.31
15.846 11.983 -1.507 0.30000001
15.802 12.028 -1.506 0.31
15.758 12.073 -1.505 0.33000001
15.731 12.091 -1.505 0.28999999
15.702 12.148 -1.506 0.31
15.676 12.207 -1.507 0.28999999
15.646 12.262 -1.508 0.36000001
15.584 12.293 -1.505 0.28999999
15.494 12.301 -1.5 0.44
15.411 12.315 -1.495 0.43000001
15.355 12.309 -1.4910001 0.34999999
15.274 12.323 -1.4859999 0.28999999
15.167 12.316 -1.479 0.40000001
15.084 12.327 -1.474 0.28
15.001 12.337 -1.469 0.28999999
14.9 12.333 -1.462 0.34
14.805 12.333 -1.455 0.34
14.763 12.337 -1.4529999 0.31
14.669 12.337 -1.447 0.40000001
14.589 12.348 -1.442 0.34
14.505 12.355 -1.437 0.44999999
14.402 12.346 -1.4299999 0.43000001
14.312 12.347 -1.424 0.33000001
14.249 12.332 -1.419 0.31999999
14.164 12.336 -1.414 0.41
14.073 12.334 -1.408 0.30000001
14 12.348 -1.404 0.31999999
13.913 12.349 -1.398 0.31
13.836 12.358 -1.3940001 0.36000001
13.757 12.366 -1.3890001 0.34
13.672 12.367 -1.3839999 0.34
13.613 12.353 -1.3789999 0.34
13.536 12.36 -1.375 0.44999999
13.446 12.356 -1.369 0.33000001
13.363 12.357 -1.364 0.34
13.283 12.361 -1.359 0.34
13.204 12.364 -1.354 0.38
13.131 12.374 -1.35 0.34999999
13.073 12.358 -1.345 0.34999999
12.994 12.36 -1.341 0.36000001
12.913 12.361 -1.336 0.41
12.844 12.373 -1.332 0.33000001
12.764 12.373 -1.327 0.38
12.685 12.374 -1.322 0.38
12.623 12.391 -1.3200001 0.34
12.557 12.365 -1.314 0.38999999
12.471 12.358 -1.308 0.40000001
12.4 12.364 -1.304 0.36000001
12.323 12.365 -1.3 0.41999999
12.255 12.374 -1.296 0.36000001
12.181 12.377 -1.2920001 0.40000001
12.112 12.384 -1.288 0.36000001
12.06 12.37 -1.284 0.41999999
11.994 12.379 -1.281 0.37
11.923 12.384 -1.277 0.37
11.852 12.388 -1.273 0.41
11.756 12.364 -1.266 0.34
11.686 12.368 -1.262 0.37
11.618 12.374 -1.258 0.33000001
11.577 12.369 -1.255 0.31
11.501 12.366 -1.251 0.43000001
11.421 12.356 -1.245 0.33000001
11.357 12.366 -1.242 0.36000001
11.3 12.381 -1.24 0.38
11.227 12.379 -1.2359999 0.37
11.167 12.391 -1.233 0.25
11.126 12.384 -1.23 0.47999999
11.052 12.379 -1.226 0.37
10.981 12.378 -1.221 0.31999999
10.912 12.378 -1.2180001 0.37
10.853 12.39 -1.215 0.34999999
10.799 12.406 -1.2130001 0.33000001
10.722 12.396 -1.2079999 0.5
10.684 12.391 -1.206 0.27000001
10.608 12.381 -1.201 0.51999998
10.543 12.384 -1.197 0.40000001
10.477 12.385 -1.194 0.34999999
10.415 12.39 -1.1900001 0.38999999
10.361 12.405 -1.188 0.38
10.294 12.403 -1.1849999 0.37
10.244 12.383 -1.181 0.43000001
10.194 12.401 -1.179 0.30000001
10.123 12.394 -1.175 0.47999999
10.062 12.398 -1.1720001 0.38999999
9.9910002 12.391 -1.1670001 0.40000001
9.9289999 12.392 -1.164 0.30000001
9.8669996 12.395 -1.161 0.31999999
9.8360004 12.395 -1.159 0.41
9.7720003 12.395 -1.156 0.38999999
9.7080002 12.394 -1.152 0.40000001
9.6619997 12.415 -1.151 0.23999999
9.5959997 12.411 -1.148 0.51999998
9.533 12.409 -1.1440001 0.36000001
9.4689999 12.406 -1.141 0.31999999
9.4289999 12.393 -1.138 0.41
9.3649998 12.39 -1.1339999 0.38
9.3179998 12.409 -1.133 0.27000001
9.2510004 12.4 -1.1289999 0.51999998
9.2010002 12.415 -1.127 0.30000001
9.1350002 12.407 -1.123 0.44
9.0760002 12.408 -1.1210001 0.34999999
9.0369997 12.395 -1.118 0.43000001
8.9879999 12.41 -1.1160001 0.34999999
8.927 12.408 -1.113 0.44
8.8710003 12.411 -1.11 0.41
8.8050003 12.402 -1.1059999 0.43000001
8.75 12.406 -1.104 0.37
8.6999998 12.418 -1.102 0.31999999
8.658 12.398 -1.099 0.40000001
8.6009998 12.399 -1.096 0.44999999
8.5489998 12.408 -1.094 0.36000001
8.4969997 12.415 -1.092 0.38999999
8.4440002 12.422 -1.09 0.38
8.3830004 12.416 -1.087 0.41
8.335 12.429 -1.085 0.34
8.2959995 12.412 -1.082 0.41
8.2419996 12.416 -1.08 0.41
8.184 12.412 -1.077 0.34999999
8.1339998 12.421 -1.075 0.38999999
8.0839996 12.43 -1.074 0.36000001
8.026 12.427 -1.071 0.38999999
7.9679999 12.421 -1.068 0.41
7.9320002 12.409 -1.0650001 0.38
7.8779998 12.41 -1.063 0.41
7.8249998 12.411 -1.0599999 0.31
7.7690001 12.409 -1.057 0.49000001
7.7259998 12.428 -1.057 0.23
7.6620002 12.411 -1.053 0.51999998
7.6139998 12.42 -1.051 0.34
7.5599999 12.42 -1.049 0.41
7.5279999 12.41 -1.0470001 0.34
7.4759998 12.413 -1.045 0.37
7.421 12.409 -1.0420001 0.38999999
7.3709998 12.413 -1.04 0.44999999
7.3179998 12.412 -1.038 0.31
7.2670002 12.416 -1.036 0.41
7.2179999 12.422 -1.034 0.36000001
7.1810002 12.402 -1.031 0.36000001
7.1329999 12.409 -1.029 0.41
7.0840001 12.414 -1.028 0.41
7.033 12.415 -1.026 0.41999999
6.9809999 12.413 -1.023 0.38
6.9380002 12.428 -1.023 0.34999999
6.8850002 12.425 -1.02 0.41
6.855 12.417 -1.018 0.41
6.8119998 12.431 -1.018 0.34
6.7610002 12.43 -1.015 0.44999999
6.711 12.43 -1.013 0.41999999
6.6609998 12.432 -1.011 0.34
6.6059999 12.423 -1.0089999 0.51999998
6.5570002 12.424 -1.007 0.34
6.5250001 12.409 -1.0039999 0.38999999
6.4819999 12.423 -1.0039999 0.36000001
6.4310002 12.42 -1.001 0.33000001
6.3839998 12.424 -1 0.38
6.3369999 12.43 -0.99800003 0.31999999
6.2820001 12.418 -0.995 0.37
6.2350001 12.422 -0.99400002 0.23999999
6.21 12.421 -0.99299997 0.38999999
6.1620002 12.422 -0.991 0.44
6.1149998 12.424 -0.98900002 0.31999999
6.0650001 12.421 -0.98699999 0.37
6.02 12.428 -0.986 0.37
5.974 12.432 -0.98500001 0.44999999
5.9359999 12.453 -0.98500001 0.31999999
5.9029999 12.433 -0.98199999 0.46000001
5.8579998 12.439 -0.98100001 0.30000001
5.8099999 12.439 -0.97899997 0.44999999
5.7680001 12.45 -0.97899997 0.38
5.7179999 12.445 -0.97600001 0.43000001
5.677 12.459 -0.97600001 0.36000001
5.6240001 12.446 -0.97299999 0.44999999
5.5999999 12.446 -0.972 0.34
5.5580001 12.456 -0.97100002 0.43000001
5.5120001 12.457 -0.97000003 0.34999999
5.461 12.448 -0.96799999 0.43000001
5.421 12.464 -0.96700001 0.36000001
5.3639998 12.439 -0.963 0.47999999
5.3179998 12.439 -0.96200001 0.31999999
5.2979999 12.447 -0.96200001 0.43000001
5.2480001 12.436 -0.95899999 0.37
5.204 12.442 -0.958 0.5
5.1700001 12.471 -0.95999998 0.27000001
5.1110001 12.439 -0.95499998 0.55000001
5.059 12.422 -0.95200002 0.38
5.0180001 12.432 -0.95099998 0.31
4.9970002 12.438 -0.95099998 0.40000001
4.9510002 12.435 -0.94999999 0.31999999
4.9099998 12.447 -0.949 0.34
4.8600001 12.433 -0.94599998 0.33000001
4.823 12.453 -0.94700003 0.37
4.7740002 12.442 -0.94499999 0.30000001
4.7290001 12.442 -0.94300002 0.28999999
4.6989999 12.481 -0.94499999 0.16
4.6669998 12.457 -0.94300002 0.58999997
4.6149998 12.436 -0.93900001 0.33000001
4.566 12.424 -0.93699998 0.40000001
4.5250001 12.433 -0.93599999 0.36000001
4.48 12.428 -0.935 0.40000001
4.4359999 12.431 -0.93400002 0.34
4.3930001 12.434 -0.93300003 0.37
4.3709998 12.431 -0.93199998 0.40000001
4.3280001 12.434 -0.93099999 0.40000001
4.289 12.449 -0.93099999 0.36000001
4.2410002 12.436 -0.92799997 0.44999999
4.1939998 12.427 -0.926 0.37
4.152 12.428 -0.92500001 0.41999999
4.1100001 12.434 -0.92500001 0.28999999
4.0949998 12.455 -0.926 0.38999999
4.0510001 12.453 -0.92500001 0.41999999
4.0050001 12.443 -0.92299998 0.38999999
3.9619999 12.444 -0.92199999 0.40000001
3.921 12.451 -0.921 0.34
3.8740001 12.436 -0.91900003 0.41
3.8340001 12.447 -0.91900003 0.28999999
3.812 12.445 -0.91799998 0.5
3.776 12.465 -0.91900003 0.20999999
3.73 12.455 -0.917 0.47999999
3.684 12.442 -0.91399997 0.44999999
3.6370001 12.427 -0.912 0.38999999
3.595 12.429 -0.91100001 0.34
3.556 12.44 -0.91100001 0.38
3.5350001 12.44 -0.91100001 0.37
3.493 12.441 -0.91000003 0.46000001
3.4489999 12.435 -0.90799999 0.34
3.4089999 12.44 -0.90799999 0.36000001
3.3670001 12.441 -0.90700001 0.37
3.325 12.442 -0.90600002 0.38999999
3.2839999 12.442 -0.90499997 0.36000001
3.2620001 12.438 -0.90399998 0.41999999
3.217 12.427 -0.90200001 0.33000001
3.1830001 12.456 -0.90399998 0.22
3.1389999 12.447 -0.90200001 0.63999999
3.095 12.437 -0.90100002 0.31999999
3.0539999 12.439 -0.89999998 0.38999999
3.013 12.439 -0.89899999 0.37
2.9920001 12.44 -0.89899999 0.33000001
2.9519999 12.443 -0.898 0.34999999
2.908 12.433 -0.89700001 0.41
2.8699999 12.448 -0.89700001 0.20999999
2.8299999 12.451 -0.89700001 0.50999999
2.786 12.437 -0.89499998 0.38999999
2.7449999 12.438 -0.89399999 0.44999999
2.724 12.436 -0.89300001 0.36000001
2.6830001 12.437 -0.89300001 0.41
2.6470001 12.457 -0.89399999 0.28999999
2.602 12.44 -0.89099997 0.51999998
2.5599999 12.434 -0.88999999 0.36000001
2.5209999 12.44 -0.88999999 0.40000001
2.48 12.44 -0.889 0.36000001
2.4400001 12.444 -0.889 0.41999999
2.4219999 12.452 -0.889 0.36000001
2.3789999 12.442 -0.88800001 0.43000001
2.3399999 12.449 -0.88800001 0.34999999
2.2980001 12.443 -0.88700002 0.41
2.26 12.452 -0.88700002 0.31999999
2.2190001 12.451 -0.88599998 0.41999999
2.177 12.44 -0.88499999 0.41999999
2.1570001 12.44 -0.884 0.40000001
2.1170001 12.442 -0.884 0.41999999
2.0799999 12.465 -0.88499999 0.34
2.04 12.463 -0.88499999 0.50999999
1.998 12.452 -0.88300002 0.44999999
1.959 12.458 -0.88300002 0.37
1.916 12.437 -0.88099998 0.47
1.895 12.432 -0.88 0.34999999
1.855 12.43 -0.87900001 0.43000001
1.816 12.44 -0.88 0.41
1.776 12.441 -0.87900001 0.33000001
1.735 12.431 -0.87800002 0.40000001
1.697 12.44 -0.87800002 0.38
1.656 12.432 -0.87699997 0.31999999
1.636 12.436 -0.87699997 0.43000001
1.598 12.443 -0.87699997 0.30000001
1.557 12.438 -0.87699997 0.41
1.518 12.437 -0.87599999 0.36000001
1.477 12.432 -0.875 0.33000001
1.439 12.447 -0.87599999 0.33000001
1.399 12.439 -0.875 0.52999997
1.3789999 12.437 -0.875 0.40000001
1.3380001 12.426 -0.87300003 0.31999999
1.299 12.424 -0.87300003 0.36000001
1.26 12.436 -0.87400001 0.34
1.222 12.448 -0.87400001 0.33000001
1.182 12.44 -0.87300003 0.41
1.143 12.447 -0.87400001 0.33000001
1.124 12.451 -0.87400001 0.38
1.084 12.445 -0.87300003 0.41
1.044 12.446 -0.87300003 0.33000001
1.006 12.453 -0.87300003 0.37
0.96600002 12.452 -0.87300003 0.41
0.92699999 12.459 -0.87300003 0.34
0.88700002 12.446 -0.87199998 0.44999999
0.86799997 12.456 -0.87199998 0.36000001
0.82800001 12.436 -0.87 0.47
0.78799999 12.433 -0.87 0.38
0.75099999 12.463 -0.87199998 0.23999999
0.70999998 12.444 -0.87 0.58999997
0.671 12.444 -0.87 0.31
0.63200003 12.436 -0.86900002 0.44
0.59200001 12.434 -0.86900002 0.40000001
0.57300001 12.429 -0.86900002 0.38
0.53399998 12.433 -0.86900002 0.38999999
0.495 12.44 -0.86900002 0.40000001
0.456 12.446 -0.87 0.34999999
0.417 12.445 -0.86900002 0.47
0.37799999 12.47 -0.87099999 0.28999999
0.338 12.443 -0.86900002 0.61000001
0.31900001 12.436 -0.86799997 0.34
0.27900001 12.423 -0.86699998 0.41
0.23999999 12.432 -0.86799997 0.31
