# .PCD v0.7 - Point Cloud Data file format
VERSION 0.7
FIELDS x y z intensity
SIZE 4 4 4 4
TYPE F F F F
COUNT 1 1 1 1
WIDTH 1492
HEIGHT 1
VIEWPOINT 0 0 0 1 0 0 0
POINTS 1492
DATA ascii
-27.715 15.406 -1.59 0.17
-27.580999 15.218 -1.5779999 0.37
-27.58 15.104 -1.575 0.23
-28.683001 15.593 -1.643 0.20999999
-29.024 15.66 -1.6619999 0.15000001
-28.884001 15.468 -1.65 0.36000001
-28.832001 15.323 -1.643 0.16
-29.677999 15.714 -1.696 0.40000001
-29.879999 15.701 -1.705 0.20999999
-29.610001 15.441 -1.6849999 0
-30.197001 15.627 -1.719 0
-29.749001 15.276 -1.688 0
-31.375999 15.989 -1.788 0.12
-31.385 15.869 -1.786 0.15000001
-31.122 15.674 -1.767 0.34
-31.283001 15.633 -1.774 0.19
-31.139 15.439 -1.762 0.18000001
-30.927999 15.213 -1.7460001 0.23999999
-31.162001 15.207 -1.758 0.14
-31.552999 15.275 -1.779 0.11
-31.608999 15.18 -1.78 0.13
-31.93 15.273 -1.798 0
-32.022999 15.194 -1.801 0.079999998
-33.415001 15.727 -1.885 0.20999999
-31.993 14.934 -1.793 0.11
-32.042 14.834 -1.793 0.15000001
-32.854 15.086 -1.841 0.1
-32.820999 14.946 -1.836 0.11
-32.963001 14.948 -1.8430001 0
-33.192001 14.927 -1.855 0
-35.633999 15.893 -2.003 0
-34.521999 15.266 -1.931 0.1
-21.777 9.5380001 -1.141 0.14
-21.561001 9.3620005 -1.126 0.28999999
-21.490999 9.2519999 -1.12 0.37
-21.475 9.2049999 -1.118 0.38999999
-21.504999 9.1379995 -1.118 0.31
-21.528 9.0679998 -1.118 0.34
-21.607 9.0209999 -1.1210001 0.41
-21.697001 8.9790001 -1.125 0.31999999
-21.836 8.9569998 -1.132 0.34
-21.837 8.8769999 -1.13 0.18000001
-40.132 16.264 -2.2449999 0.14
-40.640999 16.322001 -2.273 0
-40.945999 16.295 -2.289 0
-41.224998 16.257 -2.303 0
-41.558998 16.238001 -2.3199999 0
-45.005001 17.424 -2.526 0
-45.286999 17.370001 -2.539 0
-45.061001 17.202 -2.5239999 0
-45.318001 17.136999 -2.536 0
-45.397999 17.004 -2.5380001 0
-45.787998 16.987 -2.5580001 0
-45.959 16.886 -2.5650001 0
-47.16 17.16 -2.6340001 0
-47.375 17.07 -2.6440001 0.13
-47.338001 16.973 -2.6400001 0.16
-47.390999 16.823999 -2.6400001 0.1
-47.687 16.761 -2.655 0.079999998
-47.845001 16.648001 -2.661 0.14
-47.908001 16.500999 -2.6619999 0.1
-47.888 16.326 -2.658 0.14
-47.808998 16.132 -2.6500001 0.090000004
-47.758999 15.948 -2.6440001 0.090000004
-47.995998 15.943 -2.6570001 0
-48.314999 15.881 -2.6730001 0
-49.431999 16.077 -2.7360001 0
-50.030998 16.098 -2.7690001 0
-51.046001 16.249001 -2.826 0
-51.730999 16.288 -2.8629999 0
-52.541 16.362 -2.908 0
-52.778 16.346001 -2.921 0
-52.726002 16.148001 -2.915 0
-52.605 15.93 -2.905 0
-36.219002 10.403 -1.928 0.20999999
-36.223 10.281 -1.926 0.34
-36.238998 10.163 -1.925 0
-51.179001 13.844 -2.7950001 0
-51.251999 13.691 -2.796 0
-51.41 13.475 -2.802 0
-44.133999 11.416 -2.375 0
-45.453999 11.606 -2.4489999 0
-45.609001 11.493 -2.4560001 0
-45.908001 11.415 -2.4719999 0
-46.389999 11.38 -2.4979999 0
-46.362999 11.297 -2.4949999 0
-46.769001 11.24 -2.517 0
-47.193001 11.186 -2.539 0
-47.376999 11.072 -2.5480001 0
-45.91 10.577 -2.461 0
-47.007999 10.675 -2.523 0
-47.242001 10.572 -2.5339999 0
-47.332001 10.514 -2.5380001 0
-45.859001 10.035 -2.451 0
-47.792 10.302 -2.5610001 0
-48.652 10.328 -2.609 0
-48.229 10.08 -2.5829999 0
-49.436001 10.17 -2.651 0
-49.921001 10.107 -2.677 0
-50.514999 10.063 -2.7090001 0
-51.962002 10.267 -2.7920001 0
-52.639 10.229 -2.829 0
-53.176998 10.161 -2.858 0
-48.851002 6.2620001 -2.582 0
-49.039001 6.1300001 -2.5910001 0
-47.511002 4.8039999 -2.497 0
-47.342999 4.6370001 -2.487 0
-47.202 4.473 -2.4779999 0
-14.288 1.268 -0.60799998 0
-14.378 1.253 -0.61299998 0
-14.37 1.207 -0.61199999 0
-14.354 1.16 -0.611 0
-14.345 1.114 -0.611 0
-14.331 1.068 -0.61000001 0
-14.316 1.021 -0.60900003 0
-14.326 1 -0.60900003 0
-14.32 0.773 -0.60799998 0
-14.312 0.435 -0.60699999 0
-14.305 0.412 -0.60600001 0
-14.314 0.368 -0.60699999 0
-14.317 0.32300001 -0.60699999 0
-14.336 0.278 -0.60799998 0
-14.323 0.233 -0.60699999 0
-14.327 0.18799999 -0.60699999 0
-14.318 0.14300001 -0.60699999 0
-14.348 0.12 -0.60799998 0
-14.344 0.075000003 -0.60799998 0
-14.349 0.029999999 -0.60799998 0
-14.474 -0.015 -0.616 0
-42.543999 -1.7309999 -2.204 0
-42.178001 -2.2479999 -2.1849999 0.36000001
-41.977001 -2.303 -2.174 0
-41.995998 -2.437 -2.175 0
-42.042 -2.572 -2.1789999 0
-42 -2.7019999 -2.177 0
-41.945 -2.8310001 -2.174 0
-41.902 -2.96 -2.1719999 0
-41.853001 -3.089 -2.1700001 0
-41.793999 -3.1500001 -2.1670001 0
-41.731998 -3.2780001 -2.164 0
-41.641998 -3.402 -2.1589999 0
-41.583 -3.529 -2.1570001 0
-41.521999 -3.655 -2.154 0
-41.460999 -3.7809999 -2.151 0
-41.507 -3.8510001 -2.154 0
-40.98 -3.9319999 -2.125 0
-39.646999 -3.931 -2.05 0.11
-39.535999 -4.046 -2.0439999 0.27000001
-38.771999 -4.0910001 -2.0009999 0.25
-38.105999 -4.1420002 -1.964 0.18000001
-37.542999 -4.2010002 -1.933 0.18000001
-37.247002 -4.2270002 -1.916 0.13
-37.09 -4.3280001 -1.908 0.15000001
-36.791 -4.4099998 -1.892 0.1
-36.875999 -4.5380001 -1.898 0.16
-36.835999 -4.6500001 -1.896 0.18000001
-36.985001 -4.7870002 -1.906 0
-37.091 -4.9190001 -1.913 0
-37.397999 -5.079 -1.931 0.07
-37.352001 -5.1329999 -1.929 0.090000004
-37.891998 -5.3280001 -1.961 0.079999998
-37.834999 -5.441 -1.9579999 0.079999998
-38.041 -5.5929999 -1.971 0.090000004
-38.373001 -5.7649999 -1.9910001 0.14
-30.41 -4.6719999 -1.5369999 0.17
-30.318001 -4.7550001 -1.5319999 0.27000001
-30.304001 -4.802 -1.5319999 0.27000001
-30.212 -4.8850002 -1.527 0
-40.451 -6.6609998 -2.115 0.050000001
-40.618999 -6.8200002 -2.1259999 0.079999998
-40.729 -6.9699998 -2.1329999 0
-40.973 -7.1440001 -2.1489999 0
-41.707001 -7.4070001 -2.1919999 0
-43.293999 -7.7579999 -2.2839999 0
-43.118 -7.8660002 -2.2750001 0
-42.648998 -7.9200001 -2.25 0
-42.105999 -7.9559999 -2.22 0
-34.464001 -6.6290002 -1.781 0.11
-34.386002 -6.7259998 -1.778 0
-34.424999 -6.8460002 -1.7819999 0
-22.728001 -4.6399999 -1.109 0.22
-22.635 -4.6950002 -1.104 0.30000001
-22.622 -4.7670002 -1.104 0.34
-22.634001 -4.8439999 -1.1059999 0.41999999
-22.666 -4.9250002 -1.109 0.28
-20.452999 -4.5479999 -0.98199999 0.56999999
-19.91 -4.494 -0.95099998 0.16
-20.132 -4.6100001 -0.96499997 0.19
-20.18 -4.8210001 -0.97000003 0.58999997
-20.051001 -4.8569999 -0.96399999 0
-38.866001 -9.4549999 -2.059 0
-41.141998 -10.144 -2.1930001 0
-40.986 -10.242 -2.1860001 0.07
-20.181 -5.1919999 -0.97500002 0.38
-20.451 -5.329 -0.99199998 0
-40.707001 -10.718 -2.177 0
-40.515999 -10.736 -2.1670001 0
-40.334 -10.823 -2.158 0
-40.154999 -10.911 -2.1500001 0
-39.800999 -10.949 -2.131 0
-39.508999 -11.002 -2.1159999 0
-39.018002 -10.998 -2.089 0
-38.744999 -11.053 -2.075 0
-38.298 -11.056 -2.0510001 0
-37.855 -10.993 -2.026 0
-37.403999 -10.99 -2.0009999 0
-36.988998 -10.994 -1.979 0
-39.98 -12.018 -2.1570001 0
-39.744999 -12.084 -2.1459999 0
-39.594002 -12.174 -2.1389999 0
-39.504002 -12.214 -2.135 0
-39.43 -12.327 -2.1329999 0
-39.248001 -12.406 -2.1240001 0
-38.811001 -12.402 -2.1010001 0
-38.686001 -12.497 -2.096 0
-38.18 -12.466 -2.0680001 0
-37.991001 -12.537 -2.059 0
-37.594002 -12.471 -2.036 0
-37.283001 -12.499 -2.02 0
-36.907001 -12.502 -2 0
-36.526001 -12.501 -1.98 0
-36.134998 -12.495 -1.959 0
-35.790001 -12.502 -1.941 0
-37.192001 -13.187 -2.0280001 0
-36.856998 -13.199 -2.0109999 0
-36.799999 -13.309 -2.01 0
-36.764 -13.427 -2.01 0
-36.606998 -13.5 -2.003 0
-36.419998 -13.562 -1.994 0.13
-36.206001 -13.611 -1.984 0.28999999
-35.942001 -13.642 -1.971 0.19
-35.688 -13.609 -1.957 0.23999999
-35.436001 -13.641 -1.944 0.20999999
-35.161999 -13.663 -1.9299999 0.18000001
-35 -13.727 -1.923 0.16
-34.591 -13.692 -1.9 0.18000001
-34.271 -13.691 -1.8839999 0.17
-34.261002 -13.812 -1.886 0.38999999
-34.073002 -13.798 -1.876 0.19
-33.925999 -13.863 -1.869 0.37
-33.558998 -13.836 -1.849 0.18000001
-33.056 -13.751 -1.821 0.36000001
-32.720001 -13.732 -1.803 0.19
-33.042999 -13.99 -1.826 0.37
-32.956001 -14.075 -1.823 0.19
-32.534 -13.956 -1.799 0.17
-32.248001 -13.953 -1.784 0.31999999
-31.349001 -13.682 -1.7309999 0.17
-31.288 -13.773 -1.73 0.37
-31.252001 -13.874 -1.73 0.22
-10.024 -4.5450001 -0.419 0.38999999
-9.9840002 -4.546 -0.417 0.31999999
-9.9589996 -4.572 -0.417 0.43000001
-9.941 -4.6020002 -0.41600001 0.40000001
-9.9259996 -4.6329999 -0.41600001 0.41
-9.9219999 -4.6690001 -0.417 0.38999999
-9.9219999 -4.7069998 -0.41800001 0.52999997
-10.179 -4.868 -0.435 0
-28.728001 -13.851 -1.6 0.25999999
-28.475 -13.841 -1.587 0.27000001
-28.371 -13.9 -1.5829999 0.28999999
-28.454 -14.052 -1.591 0.2
-28.329 -14.101 -1.586 0.30000001
-27.306999 -13.7 -1.524 0.18000001
-27.150999 -13.676 -1.516 0.23999999
-27.422001 -13.92 -1.536 0.28999999
-27.548 -14.093 -1.5470001 0.20999999
-27.434999 -14.144 -1.5420001 0.14
-28.211 -14.656 -1.595 0
-35.036999 -18.334999 -2.033 0
-34.955002 -18.431999 -2.0309999 0
-34.889999 -18.468 -2.029 0
-34.787998 -18.554001 -2.026 0.079999998
-11.714 -6.362 -0.551 0.2
-11.685 -6.3940001 -0.55000001 0.50999999
-11.674 -6.4359999 -0.551 0.34
-24.701 -13.685 -1.3940001 0.12
-24.662001 -13.714 -1.393 0
-34.222 -19.16 -2.0150001 0
-34.125 -19.247 -2.0120001 0.11
-24.34 -13.838 -1.38 0
-33.738998 -19.309 -1.995 0.12
-23.628 -13.631 -1.339 0.22
-23.912001 -13.894 -1.3609999 0.1
-23.607 -13.767 -1.342 0.18000001
-23.834 -14 -1.36 0.30000001
-23.629999 -13.98 -1.349 0.14
-23.385 -13.935 -1.336 0.41
-23.204 -13.926 -1.327 0.11
-23.205999 -14.027 -1.33 0.11
-23.35 -14.214 -1.3430001 0.31
-23.166 -14.151 -1.332 0
-22.961 -14.126 -1.321 0
-31.232 -19.339001 -1.874 0.07
-21.796 -13.6 -1.25 0.11
-22.129999 -13.905 -1.275 0.31
-22.046 -13.949 -1.272 0
-30.681999 -19.535999 -1.854 0.12
-30.572001 -19.534 -1.848 0.22
-21.483 -13.831 -1.242 0.12
-21.452999 -13.907 -1.243 0.28999999
-21.388 -13.96 -1.2410001 0.2
-22.184 -14.578 -1.298 0.20999999
-30.135 -19.927999 -1.84 0.20999999
-30.072001 -20.021999 -1.84 0.11
-29.982 -20.031 -1.836 0.090000004
-29.860001 -20.084999 -1.832 0.14
-29.780001 -20.167 -1.831 0.1
-29.667999 -20.228001 -1.827 0.14
-29.537001 -20.275 -1.823 0.090000004
-29.403 -20.319 -1.818 0.14
-29.275 -20.367001 -1.813 0.1
-29.195 -20.379999 -1.8099999 0.14
-29.061001 -20.422001 -1.8049999 0.23
-28.954 -20.483 -1.802 0.11
-28.85 -20.546 -1.8 0.16
-28.726999 -20.594999 -1.796 0.16
-28.625 -20.658001 -1.793 0.16
-28.493999 -20.700001 -1.788 0.18000001
-28.427 -20.719999 -1.786 0.15000001
-28.287001 -20.754 -1.781 0.33000001
-28.143999 -20.785999 -1.775 0.19
-27.962 -20.787001 -1.767 0.18000001
-27.802 -20.804001 -1.76 0.13
-27.636 -20.816 -1.753 0.17
-27.448999 -20.811001 -1.745 0.27000001
-27.323 -20.783001 -1.738 0.25
-27.152 -20.789 -1.7309999 0.25
-26.981001 -20.792 -1.723 0.25999999
-26.857 -20.832001 -1.719 0.18000001
-26.802999 -20.924999 -1.72 0.20999999
-26.646 -20.937 -1.7130001 0.23
-26.518999 -20.973 -1.709 0.31
-26.42 -20.962 -1.704 0.27000001
-26.284 -20.989 -1.699 0.25999999
-26.150999 -21.018 -1.694 0.25
-25.983 -21.018 -1.687 0.18000001
-25.82 -21.02 -1.6799999 0.41999999
-25.726 -21.079 -1.677 0.23
-25.625 -21.131001 -1.675 0.30000001
-25.541 -21.129999 -1.671 0.27000001
-25.455999 -21.195 -1.67 0.31
-25.489 -21.358 -1.677 0.23
-25.452999 -21.462999 -1.6799999 0.28
-25.254 -21.431999 -1.67 0.2
-24.877001 -21.247 -1.647 0.27000001
-24.711 -21.240999 -1.6390001 0.23
-24.594999 -21.208 -1.633 0.18000001
-24.554001 -21.306999 -1.635 0.43000001
-24.464001 -21.365 -1.633 0.25
-24.150999 -21.225 -1.615 0.25
-24.037001 -21.26 -1.6109999 0.28
-23.934999 -21.304001 -1.609 0.28
-23.812 -21.33 -1.605 0.30000001
-23.739 -21.330999 -1.602 0.28
-23.629999 -21.368 -1.598 0.28
-23.488001 -21.374001 -1.5930001 0.27000001
-23.344 -21.377001 -1.587 0.28999999
-23.201 -21.381001 -1.581 0.25999999
-23.052 -21.378 -1.575 0.28999999
-22.926001 -21.396 -1.5700001 0.30000001
-22.844999 -21.386999 -1.566 0.30000001
-22.715 -21.4 -1.562 0.28
-22.659 -21.482 -1.562 0.31
-22.459999 -21.427999 -1.552 0.27000001
-22.263 -21.374001 -1.5420001 0.19
-14.068 -13.605 -0.90399998 0.41
-22.035 -21.423 -1.535 0.27000001
-21.957001 -21.415001 -1.531 0.30000001
-21.927999 -21.521 -1.534 0.30000001
-21.836 -21.566 -1.5319999 0.27000001
-21.719999 -21.587 -1.528 0.27000001
-21.691999 -21.694 -1.5319999 0.25
-21.663 -21.802 -1.535 0.28999999
-21.575001 -21.85 -1.533 0.20999999
-21.493 -21.836 -1.529 0.44999999
-21.348 -21.826 -1.523 0.23999999
-21.256001 -21.868999 -1.521 0.25
-21.091 -21.836 -1.5140001 0.28999999
-20.923 -21.799 -1.505 0.25
-20.791 -21.798 -1.5 0.31
-20.665001 -21.802 -1.4960001 0.31999999
-20.580999 -21.783001 -1.4910001 0.30000001
-20.504 -21.837999 -1.4910001 0.23999999
-20.228001 -21.681 -1.474 0.36000001
-20.194 -21.781 -1.476 0.18000001
-19.898001 -21.598 -1.457 0.37
-19.768999 -21.594 -1.452 0.16
-19.826 -21.792999 -1.4630001 0.37
-19.570999 -21.580999 -1.444 0.19
-19.346001 -21.469 -1.431 0.25
-19.273001 -21.523001 -1.431 0.20999999
-19.212 -21.591 -1.431 0.25
-19.171 -21.681 -1.433 0.22
-19.025 -21.653 -1.427 0.40000001
-18.882 -21.627001 -1.42 0.23999999
-18.921 -21.740999 -1.427 0.23999999
-18.747 -21.677999 -1.418 0.34999999
-19.027 -22.141001 -1.448 0.22
-18.889 -22.122 -1.442 0.34
-18.785 -22.139999 -1.439 0.19
-18.625 -22.091999 -1.431 0.38
-18.606001 -22.209999 -1.4349999 0.20999999
-18.575001 -22.243999 -1.436 0.31999999
-18.400999 -22.177999 -1.426 0.2
-18.511999 -22.454 -1.442 0.2
-18.003 -21.978001 -1.403 0.12
-17.615999 -21.643999 -1.375 0.14
-17.323 -21.422001 -1.355 0.31
-17.044001 -21.212999 -1.336 0.18000001
-17.174 -21.444 -1.35 0.16
-17.205999 -21.622999 -1.359 0.19
-17.354 -21.948999 -1.3789999 0.16
-17.406 -22.157 -1.39 0.23
-17.309 -22.177 -1.388 0.20999999
-17.493999 -22.559999 -1.411 0.14
-17.358999 -22.531 -1.405 0.43000001
-17.209 -22.409 -1.395 0.22
-17.129 -22.450001 -1.3940001 0.19
-17.070999 -22.521999 -1.395 0.41
-16.955999 -22.516001 -1.391 0.20999999
-16.783001 -22.433001 -1.381 0.34
-16.693001 -22.459 -1.3789999 0.18000001
-16.563999 -22.431999 -1.374 0.14
-16.277 -22.118 -1.35 0.19
-16.014999 -21.906 -1.331 0.13
-16.361 -22.525999 -1.3710001 0.31999999
-16.403 -22.733 -1.382 0.23999999
-16.285 -22.719999 -1.378 0.20999999
-16.117001 -22.636 -1.368 0.23999999
-16.063999 -22.712 -1.37 0.2
-16.033001 -22.743999 -1.37 0.20999999
-16.031 -22.893999 -1.377 0.19
-15.761 -22.659 -1.358 0.13
-15.836 -22.92 -1.372 0.33000001
-15.711 -22.893 -1.367 0.23
-15.852 -23.254 -1.388 0.2
-15.869 -23.437 -1.397 0.14
-15.768 -23.365999 -1.391 0.17
-15.752 -23.502001 -1.397 0.30000001
-15.459 -23.379999 -1.382 0
-15.369 -23.403999 -1.38 0.12
-15.261 -23.4 -1.377 0.14
-15.116 -23.337 -1.369 0.36000001
-15.076 -23.356001 -1.369 0.23
-14.931 -23.292999 -1.3609999 0.2
-14.883 -23.378 -1.364 0.40000001
-14.863 -23.509001 -1.37 0.23
-14.796 -23.566999 -1.37 0.28
-14.7 -23.577999 -1.368 0.27000001
-14.578 -23.548 -1.363 0.28
-14.619 -23.695999 -1.3710001 0.40000001
-14.491 -23.656 -1.3660001 0.2
-14.315 -23.534 -1.355 0.28
-14.225 -23.552999 -1.353 0.31999999
-14.124 -23.551001 -1.35 0.19
-13.985 -23.488001 -1.3430001 0.20999999
-12.875 -21.783001 -1.228 0.55000001
-12.888 -21.884001 -1.233 0.20999999
-13.871 -23.716999 -1.351 0.31999999
-13.794 -23.757 -1.35 0.25999999
-13.735 -23.827999 -1.352 0.27000001
-13.604 -23.773001 -1.346 0.22
-13.464 -23.701 -1.3380001 0.38
-13.399 -23.673 -1.335 0.34
-13.34 -23.743 -1.337 0.25
-13.284 -23.818001 -1.339 0.30000001
-13.192 -23.827999 -1.337 0.31999999
-13.067 -23.778 -1.331 0.31999999
-13.051 -23.927999 -1.3380001 0.19
-13.035 -24.077999 -1.345 0.44999999
-12.988 -24.080999 -1.344 0.25
-12.902 -24.101999 -1.3430001 0.2
-12.848 -24.183001 -1.345 0.41999999
-12.693 -24.075001 -1.336 0.16
-12.638 -24.153 -1.3380001 0.41
-12.546 -24.163 -1.336 0.22
-12.437 -24.138 -1.332 0.34
-12.399 -24.158001 -1.332 0.25
-12.288 -24.127001 -1.3279999 0.27000001
-12.309 -24.356001 -1.34 0.22
-12.236 -24.402 -1.341 0.25999999
-12.168 -24.458 -1.342 0.20999999
-12.09 -24.495001 -1.342 0.22
-11.965 -24.434 -1.335 0.38
-11.929 -24.458 -1.336 0.23
-11.851 -24.493999 -1.336 0.2
-11.797 -24.577 -1.3380001 0.41
-11.694 -24.559999 -1.335 0.23
-11.625 -24.615 -1.336 0.23
-11.541 -24.636999 -1.335 0.18000001
-11.439 -24.621 -1.332 0.44999999
-11.466 -24.780001 -1.341 0.23
-11.376 -24.790001 -1.339 0.28
-11.331 -24.899 -1.344 0.27000001
-11.196 -24.806999 -1.336 0.2
-11.129 -24.867001 -1.337 0.27000001
-11.011 -24.813 -1.332 0.18000001
-10.827 -24.606001 -1.317 0.23999999
-10.762 -24.565001 -1.313 0.17
-10.659 -24.538 -1.3099999 0.31999999
-10.547 -24.49 -1.3049999 0.20999999
-10.486 -24.562 -1.307 0.2
-10.393 -24.556 -1.3049999 0.15000001
-10.429 -24.858 -1.321 0.43000001
-10.368 -24.933001 -1.324 0.2
-10.232 -24.715 -1.309 0.13
-10.073 -24.549 -1.2970001 0.15000001
-10.134 -24.921 -1.318 0.25999999
-9.9750004 -24.753 -1.306 0.25
-9.9549999 -24.927999 -1.3150001 0.28
-9.8389997 -24.863001 -1.309 0.30000001
-9.7040005 -24.750999 -1.3 0.28999999
-9.5900002 -24.573999 -1.289 0.23999999
-9.4919996 -24.549999 -1.285 0.25
-9.3999996 -24.541 -1.283 0.33000001
-9.2810001 -24.459999 -1.276 0.20999999
-9.2220001 -24.535999 -1.279 0.33000001
-9.1680002 -24.628 -1.283 0.44999999
-9.3149996 -25.264 -1.3200001 0.27000001
-9.2460003 -25.198 -1.3150001 0.27000001
-9.1669998 -25.229 -1.3150001 0.33000001
-9.0749998 -25.222 -1.313 0.25999999
-8.9840002 -25.218 -1.311 0.36000001
-8.8710003 -25.15 -1.3049999 0.31999999
-8.7550001 -25.072001 -1.299 0.25999999
-8.6599998 -25.052999 -1.296 0.25999999
-8.5799999 -24.947001 -1.289 0.28999999
-8.5 -24.969999 -1.288 0.25999999
-8.4440002 -25.065001 -1.293 0.27000001
-8.3590002 -25.070999 -1.291 0.27000001
-8.2519999 -25.013 -1.286 0.25
-8.1079998 -24.84 -1.274 0.15000001
-8.0860004 -25.038 -1.285 0.46000001
-8.0170002 -24.958 -1.279 0.23
-7.9749999 -25.099001 -1.286 0.27000001
-7.915 -25.181 -1.289 0.2
-7.8189998 -25.152 -1.286 0.38999999
-7.7620001 -25.249001 -1.291 0.22
-7.7420001 -25.468 -1.302 0.28999999
-7.651 -25.455999 -1.3 0.27000001
-7.5970001 -25.42 -1.2970001 0.28
-7.506 -25.406 -1.295 0.30000001
-7.4380002 -25.469 -1.2970001 0.25999999
-7.3559999 -25.487 -1.2970001 0.31
-7.2309999 -25.354 -1.288 0.28999999
-7.1459999 -25.358 -1.2869999 0.28999999
-7.0430002 -25.297001 -1.2819999 0.28
-6.9510002 -25.118 -1.271 0.25
-6.8909998 -25.211 -1.275 0.41999999
-6.7340002 -24.943001 -1.258 0.19
-6.651 -24.947001 -1.257 0.28
-6.5570002 -24.91 -1.253 0.31999999
-6.474 -24.910999 -1.252 0.23
-6.4619999 -25.191999 -1.268 0.27000001
-6.355 -24.934999 -1.252 0.34
-6.2750001 -24.951 -1.252 0.31
-6.1950002 -24.965 -1.251 0.31999999
-6.1360002 -25.063999 -1.256 0.20999999
-5.066 -20.996 -1.018 0.18000001
-5.9860001 -25.131001 -1.258 0.28
-5.9070001 -25.15 -1.258 0.28999999
-5.868 -25.160999 -1.258 0.20999999
-5.75 -25.011999 -1.248 0.47999999
-5.586 -24.656 -1.226 0.23999999
-5.073 -22.731001 -1.114 0.25
-5.4780002 -24.903 -1.239 0.23999999
-5.2389998 -24.552999 -1.217 0.19
-5.2220001 -24.66 -1.222 0.17
-5.277 -25.312 -1.2589999 0.27000001
-5.1620002 -25.153999 -1.249 0.23
-5.0799999 -25.155001 -1.248 0.28999999
-5.007 -25.202 -1.25 0.30000001
-4.8990002 -25.070999 -1.2410001 0.23
-4.7909999 -24.934999 -1.233 0.41
-4.756 -24.962 -1.234 0.22
-4.0229998 -21.879 -1.0549999 0.63
-4.4809999 -24.792 -1.222 0.28
-4.3899999 -24.733 -1.217 0.33000001
-4.3000002 -24.674 -1.2130001 0.31999999
-4.2350001 -24.528999 -1.204 0.23
-4.1129999 -24.280001 -1.189 0.38999999
-4.0370002 -24.295 -1.1900001 0.23
-3.9749999 -24.392 -1.194 0.25
-3.9189999 -24.535 -1.202 0.31
-3.8510001 -24.608 -1.205 0.28999999
-3.7309999 -24.341999 -1.189 0.27000001
-3.7049999 -24.424999 -1.194 0.31999999
-3.5910001 -24.191 -1.1799999 0.28
-3.5829999 -24.669001 -1.207 0.33000001
-3.5139999 -24.739 -1.21 0.28
-3.438 -24.756001 -1.21 0.25
-3.3710001 -24.846001 -1.215 0.34999999
-3.3010001 -24.924 -1.219 0.31999999
-3.3499999 -25.596001 -1.257 0.25999999
-3.3050001 -25.878 -1.272 0.23
-3.27 -26.256001 -1.293 0.20999999
-3.2119999 -26.469 -1.3049999 0.46000001
-3.1900001 -26.99 -1.334 0.22
-3.1070001 -27.018 -1.335 0.34
-3.026 -27.061001 -1.337 0.2
-2.983 -27.059999 -1.336 0.18000001
-2.8970001 -27.063 -1.336 0.31
-2.812 -27.068001 -1.336 0.19
-2.7249999 -27.056999 -1.335 0.33000001
-2.6400001 -27.066 -1.335 0
-0.39199999 -4.3850002 -0.046 0
-0.375 -4.3540001 -0.044 0
-0.368 -4.349 -0.044 0
-0.352 -4.3299999 -0.043000001 0
-0.33899999 -4.335 -0.043000001 0
-0.324 -4.3200002 -0.041999999 0
-0.31099999 -4.323 -0.041999999 0
-0.29699999 -4.3260002 -0.041999999 0
-0.28400001 -4.3249998 -0.041999999 0
-0.27599999 -4.3080001 -0.041000001 0
-0.26199999 -4.303 -0.041000001 0
-0.249 -4.3109999 -0.041000001 0
-0.235 -4.316 -0.041999999 0
-0.222 -4.329 -0.041999999 0
-0.20900001 -4.3340001 -0.041999999 0
-0.19599999 -4.3439999 -0.043000001 0
-0.19 -4.3559999 -0.044 0
-0.176 -4.3670001 -0.044 0
-0.164 -4.3969998 -0.046 0
-0.15000001 -4.4039998 -0.046 0
-0.81599998 -24.926001 -1.207 0.30000001
-0.72100002 -24.388 -1.177 0.17
-0.67500001 -24.106001 -1.161 0.36000001
-0.60399997 -24.295 -1.171 0.20999999
-0.523 -24.117001 -1.161 0.34
-0.45899999 -24.694 -1.194 0.15000001
-0.37599999 -24.368 -1.175 0.41
-0.30199999 -24.57 -1.186 0.20999999
-0.226 -24.711 -1.194 0.18000001
-0.18700001 -24.673 -1.192 0.31999999
-0.106 -24.056999 -1.1569999 0.20999999
-0.032000002 -24.614 -1.189 0.22
0.045000002 -24.573999 -1.187 0.15000001
0.124 -24.846001 -1.202 0.13
0.199 -24.398001 -1.177 0.19
0.27900001 -24.774 -1.198 0.15000001
0.31999999 -24.992001 -1.21 0.25
0.40000001 -25.052 -1.214 0.23
0.472 -24.666 -1.192 0.20999999
0.55500001 -24.92 -1.206 0.28999999
0.63300002 -24.922001 -1.207 0.23
0.71100003 -24.926001 -1.207 0.28999999
0.75 -24.903999 -1.206 0.20999999
0.83099997 -24.98 -1.21 0.28999999
0.90399998 -24.819 -1.201 0.18000001
0.99000001 -25.021999 -1.2130001 0.23
1.069 -25.042999 -1.214 0.30000001
1.141 -24.889999 -1.206 0.27000001
1.2130001 -24.752001 -1.198 0.2
1.251 -24.736 -1.197 0.28999999
1.341 -24.964001 -1.211 0.19
1.42 -24.971001 -1.211 0.25999999
1.5039999 -25.058001 -1.216 0.25
1.5700001 -24.854 -1.205 0.28999999
1.648 -24.841 -1.205 0.30000001
1.723 -24.794001 -1.202 0.30000001
1.793 -24.674999 -1.196 0.25
1.834 -24.709999 -1.198 0.30000001
1.919 -24.794001 -1.2029999 0.2
1.999 -24.819 -1.205 0.28999999
2.062 -24.632 -1.1950001 0.23999999
2.1340001 -24.558001 -1.191 0.23
2.1730001 -24.127001 -1.1670001 0.36000001
2.2460001 -24.09 -1.165 0.28999999
2.2880001 -24.131001 -1.168 0.22
2.3640001 -24.122999 -1.168 0.14
2.428 -24 -1.161 0.57999998
2.5009999 -23.969 -1.16 0.16
2.589 -24.082001 -1.1670001 0.28999999
2.664 -24.07 -1.166 0.28
2.701 -24.052 -1.166 0.36000001
2.783 -24.103001 -1.169 0.28
2.855 -24.062 -1.1670001 0.25
2.9460001 -24.177999 -1.174 0.34999999
3.029 -24.228001 -1.178 0.22
3.108 -24.243999 -1.179 0.33000001
3.201 -24.358999 -1.186 0.23
3.2850001 -24.700001 -1.206 0.31
3.3299999 -24.448 -1.192 0.17
3.4170001 -24.513 -1.196 0.34999999
3.4990001 -24.538 -1.198 0.36000001
3.5999999 -24.691 -1.2079999 0.31
3.6730001 -24.653999 -1.206 0.30000001
3.7639999 -24.726999 -1.211 0.34
3.8050001 -24.735001 -1.212 0.25
3.8870001 -24.754 -1.214 0.25999999
3.98 -24.834 -1.219 0.28999999
4.0570002 -24.818001 -1.219 0.34
4.1550002 -24.927 -1.226 0.34
4.2069998 -24.756001 -1.217 0.23999999
4.3189998 -24.941999 -1.228 0.25
4.3850002 -25.091999 -1.237 0.41999999
4.4419999 -24.951 -1.23 0.30000001
4.4899998 -24.768 -1.22 0.20999999
4.6230001 -25.058001 -1.238 0.30000001
4.6999998 -25.031 -1.237 0.28999999
4.7979999 -25.118999 -1.243 0.31
4.895 -25.198 -1.248 0.30000001
4.2810001 -21.837999 -1.0549999 0.17
4.3639998 -21.896999 -1.0599999 0.56
5.0570002 -24.982 -1.238 0.28
5.1209998 -24.893999 -1.234 0.23
5.2309999 -25.030001 -1.243 0.31999999
5.2870002 -24.908001 -1.237 0.30000001
5.3579998 -24.860001 -1.235 0.27000001
5.434 -25.021 -1.245 0.25
5.4489999 -24.715 -1.228 0.25
5.619 -25.111 -1.252 0.18000001
5.6859999 -25.039 -1.249 0.19
5.8579998 -25.427999 -1.272 0.079999998
6.4120002 -27.450001 -1.391 0.14
6.5040002 -27.455 -1.392 0.090000004
6.5489998 -27.450001 -1.393 0.15000001
6.6399999 -27.452999 -1.3940001 0.090000004
6.7290001 -27.438999 -1.3940001 0.14
6.8200002 -27.438 -1.396 0.17
6.9109998 -27.437 -1.397 0.17
7.0040002 -27.443001 -1.398 0.17
7.0960002 -27.444 -1.4 0.17
7.1479998 -27.466999 -1.402 0.16
7.2449999 -27.483 -1.404 0.16
7.3379998 -27.487 -1.406 0.18000001
7.428 -27.478001 -1.406 0.17
7.5250001 -27.493 -1.409 0.16
7.6199999 -27.502001 -1.411 0.17
7.7140002 -27.503 -1.4119999 0.17
7.7659998 -27.521 -1.414 0.16
7.8600001 -27.524 -1.415 0.16
7.9530001 -27.521999 -1.4170001 0.17
8.0500002 -27.533001 -1.419 0.17
8.1440001 -27.533001 -1.42 0.18000001
8.2360001 -27.528 -1.4220001 0.17
8.2919998 -27.556999 -1.424 0.18000001
8.3830004 -27.544001 -1.425 0.12
4.27 -13.83 -0.616 0.25
4.3000002 -13.775 -0.61299998 0.36000001
4.3340001 -13.729 -0.611 0.36000001
4.3740001 -13.708 -0.611 0.33000001
4.4159999 -13.69 -0.61000001 0.37
4.4380002 -13.685 -0.611 0.36000001
4.4879999 -13.692 -0.61199999 0.34999999
4.5419998 -13.71 -0.61400002 0.36000001
4.6069999 -13.762 -0.61799997 0.38999999
9.2700005 -27.488001 -1.437 0.23999999
9.3660002 -27.487 -1.439 0.11
9.4560003 -27.466999 -1.4400001 0.16
9.5050001 -27.469 -1.441 0.17
9.6000004 -27.466 -1.442 0.16
9.6929998 -27.454 -1.443 0.23
9.7910004 -27.457001 -1.4450001 0.25999999
9.882 -27.440001 -1.446 0.23999999
9.9809999 -27.444 -1.448 0.23999999
10.074 -27.431 -1.449 0.11
10.127 -27.441999 -1.451 0.15000001
10.221 -27.43 -1.452 0.22
10.313 -27.413 -1.4529999 0.25
10.403 -27.392 -1.454 0.23999999
10.494 -27.372 -1.455 0.25
10.575 -27.326 -1.454 0.11
10.661 -27.292999 -1.454 0.15000001
10.703 -27.274 -1.454 0.16
10.797 -27.261 -1.455 0.16
10.882 -27.226999 -1.455 0.23
10.968 -27.191999 -1.455 0.11
11.054 -27.159 -1.455 0.15000001
11.147 -27.143 -1.456 0.1
11.232 -27.108 -1.456 0.15000001
11.28 -27.105 -1.457 0.23
11.37 -27.08 -1.4579999 0.1
11.459 -27.054001 -1.4579999 0.15000001
11.553 -27.038 -1.459 0.23
11.649 -27.028999 -1.461 0.1
11.739 -27.003 -1.462 0.16
11.826 -26.972 -1.462 0.22
11.875 -26.968 -1.4630001 0.11
11.961 -26.934 -1.4630001 0.15000001
12.058 -26.924 -1.465 0.1
12.144 -26.889 -1.465 0.15000001
12.236 -26.867001 -1.466 0.16
12.314 -26.816 -1.465 0.16
12.399 -26.777 -1.465 0.23
12.434 -26.743 -1.465 0.23999999
12.519 -26.705999 -1.465 0.11
12.593 -26.646 -1.4630001 0.16
12.676 -26.605 -1.4630001 0.23
12.769 -26.584999 -1.465 0.23999999
12.85 -26.539 -1.464 0.25
12.934 -26.5 -1.464 0.25
12.977 -26.483999 -1.465 0.25
13.053 -26.427 -1.464 0.23999999
13.137 -26.386999 -1.464 0.25
13.215 -26.337 -1.4630001 0.23999999
13.296 -26.292 -1.4630001 0.25
13.38 -26.253 -1.4630001 0.25
13.425 -26.24 -1.464 0.23999999
13.505 -26.194 -1.4630001 0.23999999
13.58 -26.136999 -1.462 0.25
13.663 -26.096001 -1.4630001 0.25
13.746 -26.055 -1.4630001 0.25
13.822 -26.000999 -1.462 0.25
13.899 -25.948 -1.461 0.25
13.971 -25.886999 -1.46 0.25
14.006 -25.854 -1.46 0.25
14.096 -25.826 -1.461 0.25
14.161 -25.752001 -1.459 0.27000001
14.253 -25.728001 -1.46 0.25999999
14.339 -25.691999 -1.461 0.2
14.435 -25.674999 -1.462 0.2
14.463 -25.535 -1.456 0.25
14.46 -25.438 -1.451 0.30000001
14.521 -25.360001 -1.449 0.30000001
14.542 -25.212 -1.443 0.27000001
14.518 -24.988001 -1.431 0.31
14.557 -24.875 -1.427 0.25999999
14.569 -24.716999 -1.419 0.23999999
14.549 -24.594999 -1.413 0.18000001
14.543 -24.408001 -1.404 0.44
14.547 -24.240999 -1.395 0.22
14.529 -24.039 -1.385 0.27000001
14.536 -23.881001 -1.378 0.19
14.544 -23.726 -1.3710001 0.38999999
14.547 -23.565001 -1.363 0.23999999
14.545 -23.476999 -1.359 0.2
14.571 -23.355 -1.353 0.41
14.549 -23.157 -1.3430001 0.20999999
14.579 -23.044001 -1.339 0.18000001
14.566 -22.865 -1.33 0.41999999
14.606 -22.768 -1.327 0.23
14.574 -22.563 -1.316 0.2
14.528 -22.412001 -1.307 0.43000001
14.551 -22.295 -1.302 0.25
14.523 -22.1 -1.2920001 0.28999999
14.535 -21.966 -1.286 0.28
14.536 -21.819 -1.279 0.28
14.561 -21.709 -1.275 0.27000001
14.566 -21.568001 -1.2690001 0.28999999
14.535 -21.448999 -1.262 0.25999999
14.574 -21.362 -1.2589999 0.2
14.599 -21.256001 -1.255 0.33000001
14.65 -21.187 -1.253 0.43000001
10.097 -14.49 -0.796 0.25
10.199 -14.539 -0.801 0.20999999
10.243 -14.505 -0.801 0.50999999
17.375 -24.554001 -1.498 0.16
10.311 -14.457 -0.801 0.38
17.472 -24.364 -1.492 0.19
17.514999 -24.261999 -1.489 0
17.556999 -24.16 -1.4859999 0
17.511 -23.938999 -1.474 0
17.617001 -23.926001 -1.477 0.16
17.757999 -24.038 -1.487 0.25999999
17.862 -24.02 -1.49 0
17.917999 -23.938999 -1.488 0.14
18.093 -24.014999 -1.497 0.20999999
18.132 -23.91 -1.494 0
17.389999 -22.781 -1.418 0
17.242001 -22.438999 -1.397 0
17.254 -22.382 -1.395 0.1
18.207001 -23.468 -1.476 0.22
18.216999 -23.327999 -1.471 0.20999999
18.233999 -23.200001 -1.465 0
18.173 -22.974001 -1.4529999 0.059999999
18.157 -22.805 -1.4450001 0.079999998
11.751 -14.603 -0.85699999 0.38999999
18.18 -22.469999 -1.431 0.22
18.188 -22.334999 -1.426 0.23
11.663 -14.216 -0.83700001 0.20999999
11.703 -14.173 -0.83600003 0.34
18.181999 -21.903 -1.4069999 0.23
11.974 -14.319 -0.852 0.2
18.157 -21.663 -1.395 0.16
12.004 -14.218 -0.84899998 0.43000001
12.281 -14.454 -0.87 0.34
12.088 -14.136 -0.84899998 0.22
12.211 -14.189 -0.85600001 0.38
12.306 -14.209 -0.86000001 0.34
12.059 -13.879 -0.83700001 0.25
18.094 -20.712999 -1.352 0.30000001
18.125999 -20.618999 -1.349 0.41
12.16 -13.732 -0.83399999 0.28999999
18.316999 -20.573 -1.355 0.33000001
18.327999 -20.455999 -1.35 0
4.2189999 -4.6350002 -0.152 0
4.21 -4.5949998 -0.149 0
4.2210002 -4.579 -0.149 0
4.223 -4.552 -0.148 0
4.2280002 -4.5289998 -0.147 0
4.237 -4.5089998 -0.147 0
4.2389998 -4.4829998 -0.146 0
4.2550001 -4.4860001 -0.147 0
4.2709999 -4.4749999 -0.147 0
4.2639999 -4.4390001 -0.145 0
4.289 -4.4380002 -0.146 0
4.3109999 -4.4330001 -0.147 0
4.3179998 -4.4120002 -0.146 0
4.3520002 -4.4180002 -0.148 0
4.3590002 -4.4120002 -0.148 0
4.3839998 -4.4089999 -0.149 0
4.402 -4.4000001 -0.149 0
4.4349999 -4.4060001 -0.15099999 0
4.4749999 -4.4169998 -0.153 0
14.167 -13.975 -0.92199999 0.079999998
20.716999 -20.326 -1.438 0.14
20.715 -20.26 -1.4349999 0.34
20.773001 -20.188999 -1.4349999 0.20999999
20.902 -20.187 -1.4400001 0.31
20.999001 -20.153999 -1.443 0.18000001
21.076 -20.101 -1.444 0.18000001
21.181 -20.075001 -1.447 0.30000001
21.253 -20.016001 -1.448 0.16
14.777 -13.862 -0.94300002 0.30000001
21.423 -19.987 -1.454 0.16
15.49 -14.351 -0.991 0.11
15.523 -14.291 -0.99000001 0.16
21.702 -19.868 -1.461 0.14
21.774 -19.809 -1.461 0.12
21.856001 -19.757999 -1.4630001 0.15000001
21.909 -19.743999 -1.465 0.17
21.975 -19.679001 -1.465 0.23
21.986 -19.563999 -1.461 0.25
22.066999 -19.511999 -1.4630001 0.25999999
22.131001 -19.445999 -1.4630001 0.11
22.188 -19.372 -1.462 0.18000001
22.275 -19.326 -1.464 0.12
22.327999 -19.309999 -1.466 0.15000001
16.252001 -13.869 -1.005 0.19
22.648001 -19.216999 -1.476 0.15000001
22.766001 -19.195 -1.4809999 0.12
16.909 -14.156 -1.044 0.16
23.040001 -19.179001 -1.492 0.17
23.136999 -19.198999 -1.497 0.18000001
23.278 -19.191999 -1.503 0.20999999
16.584999 -13.577 -1.0089999 0.20999999
23.562 -19.179001 -1.515 0.28
23.707001 -19.174 -1.521 0.2
23.861 -19.174999 -1.528 0.18000001
23.961 -19.194 -1.533 0.31
24.084999 -19.169001 -1.538 0.19
17.662001 -13.958 -1.0700001 0.31999999
17.698 -13.896 -1.069 0.19
17.729 -13.831 -1.068 0.40000001
17.740999 -13.75 -1.066 0.34
17.849001 -13.745 -1.071 0.31
17.782 -13.648 -1.064 0.38
17.837 -13.602 -1.0650001 0.22
18.023001 -13.655 -1.076 0.18000001
18.263 -13.747 -1.09 0.57999998
18.146999 -13.57 -1.0779999 0.2
18.433001 -13.694 -1.095 0.27000001
18.41 -13.588 -1.091 0.41
18.360001 -13.506 -1.086 0.23
18.757 -13.708 -1.1109999 0.33000001
18.806 -13.654 -1.1109999 0.34
18.993 -13.699 -1.1210001 0.20999999
19.027 -13.632 -1.12 0
24.645 -17.549999 -1.508 0
24.736 -17.497999 -1.51 0.12
24.716999 -17.427 -1.507 0.1
24.777 -17.353001 -1.507 0.15000001
24.84 -17.280001 -1.508 0.22
19.725 -13.624 -1.153 0.19
19.719 -13.528 -1.149 0.28999999
19.766001 -13.47 -1.149 0.22
19.792 -13.396 -1.148 0.20999999
19.830999 -13.378 -1.15 0.50999999
20.249001 -13.568 -1.175 0.18000001
20.052999 -13.345 -1.159 0.28999999
20.476 -13.534 -1.1849999 0.2
20.208 -13.266 -1.164 0.47999999
20.391001 -13.295 -1.173 0.27000001
20.702999 -13.406 -1.192 0.2
20.528999 -13.247 -1.179 0.36000001
20.754 -13.301 -1.191 0.34
21.065001 -13.407 -1.209 0.30000001
21.013 -13.281 -1.2029999 0.38999999
21.48 -13.483 -1.2309999 0.20999999
21.278 -13.263 -1.215 0.34
21.431999 -13.266 -1.222 0.31999999
21.731001 -13.404 -1.2410001 0.28999999
21.695 -13.288 -1.2359999 0.31
21.879999 -13.307 -1.245 0.31
21.999001 -13.284 -1.25 0.28999999
22.107 -13.255 -1.2539999 0.38
22.25 -13.246 -1.261 0.2
22.277 -13.168 -1.26 0.50999999
22.858999 -13.464 -1.2970001 0.20999999
22.886999 -13.384 -1.296 0.31
23.264999 -13.508 -1.318 0.27000001
23.399 -13.488 -1.324 0.31999999
23.504 -13.45 -1.3279999 0.36000001
23.784 -13.511 -1.344 0.20999999
24.174 -13.633 -1.3660001 0.31
24.195 -13.595 -1.3660001 0.28999999
24.288 -13.547 -1.37 0.30000001
24.451 -13.538 -1.377 0.30000001
24.621 -13.531 -1.386 0.30000001
24.771999 -13.513 -1.393 0.31999999
24.889 -13.475 -1.397 0.31
24.924 -13.393 -1.397 0.31999999
25.000999 -13.384 -1.4 0.31999999
25.108 -13.34 -1.405 0.30000001
25.249001 -13.314 -1.411 0.30000001
25.407 -13.296 -1.418 0.33000001
25.679001 -13.335 -1.433 0.28
25.823999 -13.308 -1.4400001 0.27000001
25.948999 -13.269 -1.4450001 0.41
25.915001 -13.201 -1.441 0.25999999
25.868999 -13.075 -1.436 0.11
25.906 -12.992 -1.436 0.15000001
25.948999 -12.911 -1.436 0
26.077 -12.873 -1.441 0.13
9.6029997 -4.6659999 -0.40099999 0.38999999
9.5819998 -4.618 -0.39899999 0.34
9.585 -4.5830002 -0.398 0.31
9.5939999 -4.5500002 -0.398 0.44999999
9.6070004 -4.5190001 -0.39700001 0.36000001
9.6280003 -4.493 -0.398 0.27000001
9.658 -4.4699998 -0.39899999 0.44
9.9420004 -4.5830002 -0.41600001 0
26.405001 -12.119 -1.4400001 0
26.614 -12.114 -1.45 0
26.822001 -12.108 -1.461 0
26.962 -12.069 -1.467 0
27.104 -12.031 -1.474 0
27.43 -12.073 -1.492 0
27.542999 -12.071 -1.497 0
27.591 -11.989 -1.498 0
27.818001 -11.983 -1.51 0
28.134001 -12.015 -1.527 0
28.188 -11.934 -1.528 0
28.212999 -11.84 -1.527 0
28.176001 -11.721 -1.522 0
28.261 -11.652 -1.525 0
28.285 -11.61 -1.526 0
28.414 -11.559 -1.531 0
26.274 -10.59 -1.399 0
26.476 -10.575 -1.409 0
26.723 -10.577 -1.4220001 0
26.976999 -10.579 -1.4349999 0
27.209 -10.622 -1.449 0
27.441999 -10.613 -1.461 0
27.674 -10.604 -1.473 0
27.809999 -10.556 -1.479 0
28.122999 -10.574 -1.4960001 0
28.263 -10.525 -1.502 0
28.422001 -10.483 -1.51 0
28.908001 -10.611 -1.538 0
28.931999 -10.517 -1.538 0
28.877001 -10.394 -1.5319999 0
28.945 -10.316 -1.534 0
28.959999 -10.219 -1.533 0
29.051001 -10.149 -1.5369999 0
29.084 -10.058 -1.5369999 0
28.997999 -9.9770002 -1.531 0
29.195999 -9.9429998 -1.541 0
29.142 -9.8219995 -1.536 0
29.372999 -9.7980003 -1.548 0
27.339001 -9.0220003 -1.425 0
27.603001 -9.0129995 -1.439 0
27.906 -9.0159998 -1.455 0
28.195999 -9.0609999 -1.472 0
28.479 -9.0530005 -1.487 0
28.733999 -9.0349998 -1.5 0
29.045 -9.033 -1.517 0.14
15.116 -4.5840001 -0.69 0.36000001
15.102 -4.5279999 -0.68900001 0.37
15.094 -4.5 -0.68800002 0.34
15.11 -4.4530001 -0.68800002 0.37
15.151 -4.4130001 -0.68900001 0.31999999
15.172 -4.368 -0.69 0.34999999
30.386 -8.6719999 -1.584 0.15000001
30.363001 -8.5620003 -1.581 0.31999999
30.400999 -8.4700003 -1.581 0.18000001
30.407 -8.4200001 -1.581 0.17
30.443001 -8.3269997 -1.582 0
30.496 -8.2390003 -1.5829999 0
28.249001 -7.5339999 -1.45 0
28.552999 -7.52 -1.466 0
28.966999 -7.5320001 -1.489 0
29.319 -7.5250001 -1.508 0
29.652 -7.5619998 -1.527 0
29.879 -7.52 -1.539 0
30.115 -7.4790001 -1.552 0.059999999
30.426001 -7.4549999 -1.568 0.079999998
30.443001 -7.3579998 -1.568 0
30.843 -7.3520002 -1.59 0
30.820999 -7.2449999 -1.587 0
30.933001 -7.2199998 -1.5930001 0.1
28.785 -6.6209998 -1.467 0.13
19.645 -4.4450002 -0.93599999 0.31999999
19.604 -4.3709998 -0.93300003 0.31999999
19.587999 -4.303 -0.93099999 0.46000001
19.58 -4.237 -0.93000001 0.28
19.584 -4.1739998 -0.92900002 0.30000001
19.598 -4.1440001 -0.93000001 0.38999999
19.643999 -4.0900002 -0.93199998 0.34
19.632 -4.0229998 -0.93000001 0.18000001
19.879 -4.0089998 -0.94400001 0.19
28.184 -5.6030002 -1.4220001 0.22
28.200001 -5.5139999 -1.4220001 0.18000001
28.125 -5.4070001 -1.416 0.40000001
28.087999 -5.3540001 -1.414 0.23999999
28.372 -5.316 -1.429 0.15000001
27.909 -5.1389999 -1.402 0.43000001
27.98 -5.0609999 -1.405 0.23
28.291 -5.026 -1.4220001 0.25
28.299999 -4.9359999 -1.421 0.30000001
27.954 -4.7839999 -1.401 0.20999999
27.737 -4.7020001 -1.388 0.36000001
27.604 -4.5900002 -1.3789999 0.23999999
27.775999 -4.5300002 -1.388 0.25
27.875 -4.4559999 -1.393 0.23999999
27.778 -4.3509998 -1.387 0.20999999
27.724001 -4.2529998 -1.383 0.18000001
27.924 -4.2389998 -1.3940001 0.40000001
27.849001 -4.138 -1.3890001 0.16
28.434999 -4.1339998 -1.4220001 0.38999999
28.732 -4.086 -1.438 0.22
28.913 -4.0190001 -1.448 0.20999999
29.125 -3.9560001 -1.459 0.44999999
29.399 -3.8989999 -1.474 0.23
29.666 -3.8870001 -1.489 0.25999999
29.874001 -3.819 -1.5 0.25999999
30.229 -3.7679999 -1.5190001 0.22
30.34 -3.6860001 -1.525 0.37
30.315001 -3.586 -1.523 0.30000001
30.396 -3.4990001 -1.527 0.30000001
31.034 -3.474 -1.563 0.13
32.101002 -3.543 -1.623 0.17
32.233002 -3.4549999 -1.63 0.20999999
32.137001 -3.3429999 -1.624 0
32.064999 -3.234 -1.619 0
32.001999 -3.1259999 -1.615 0
31.982 -3.0220001 -1.613 0
31.962999 -2.9189999 -1.612 0
31.944 -2.8670001 -1.61 0
31.945 -2.766 -1.61 0
31.933001 -2.664 -1.609 0
31.917999 -2.562 -1.608 0
31.9 -2.4590001 -1.6059999 0
31.889 -2.358 -1.605 0
31.827 -2.2520001 -1.601 0.059999999
31.608 -2.0869999 -1.5880001 0.19
31.677999 -1.992 -1.592 0.36000001
31.695999 -1.893 -1.592 0.56999999
31.565001 -1.786 -1.585 0
31.634001 -1.6900001 -1.5880001 0
31.589001 -1.5880001 -1.585 0
31.568001 -1.5369999 -1.584 0
31.558001 -1.437 -1.5829999 0
31.559 -1.3380001 -1.5829999 0
31.569 -1.239 -1.5829999 0
31.572001 -1.14 -1.5829999 0
31.556 -1.04 -1.582 0
31.547001 -0.94099998 -1.582 0
31.518999 -0.88999999 -1.58 0
31.500999 -0.79100001 -1.579 0
31.474001 -0.69099998 -1.577 0
31.424 -0.59100002 -1.574 0
31.513 -0.49399999 -1.579 0
31.391001 -0.39300001 -1.572 0
24.705 -0.226 -1.194 0.050000001
24.610001 -0.18700001 -1.189 0.14
24.534 -0.109 -1.184 0.20999999
24.532 -0.032000002 -1.184 0.25999999
24.587 0.067000002 -1.318 0.28999999
24.583 0.105 -1.318 0.31999999
24.565001 0.182 -1.317 0.31
24.548 0.259 -1.316 0.30000001
24.551001 0.336 -1.316 0.30000001
24.546 0.41299999 -1.316 0.30000001
24.541 0.49000001 -1.316 0.28999999
24.544001 0.52899998 -1.316 0.38999999
24.57 0.60699999 -1.318 0.23
24.591999 0.685 -1.319 0.38
24.59 0.76200002 -1.319 0.20999999
24.749001 0.84500003 -1.329 0.23
25.159 0.93900001 -1.355 0.23999999
24.849001 1.005 -1.336 0
24.781 1.041 -1.332 0
24.957001 1.127 -1.3430001 0
24.875999 1.202 -1.3380001 0
24.780001 1.275 -1.332 0
24.780001 1.353 -1.332 0
28.349001 1.641 -1.554 0
28.368999 1.732 -1.5549999 0
28.355 1.776 -1.5549999 0
28.327 1.863 -1.553 0
28.289 1.95 -1.551 0
28.264999 2.0369999 -1.55 0.07
28.235001 2.1240001 -1.549 0.079999998
28.186001 2.21 -1.546 0.090000004
28.160999 2.2969999 -1.545 0.14
28.120001 2.3380001 -1.543 0.11
28.219 2.4360001 -1.549 0.14
28.162001 2.52 -1.546 0.58999997
28.091999 2.602 -1.5420001 0
28.250999 2.707 -1.553 0
28.306 2.802 -1.557 0
28.329 2.8940001 -1.559 0
28.396 2.9460001 -1.563 0
28.448 3.0420001 -1.567 0
28.49 3.1370001 -1.5700001 0
28.547001 3.234 -1.574 0
28.58 3.329 -1.577 0
28.613001 3.424 -1.58 0
28.632 3.5179999 -1.582 0
28.709999 3.573 -1.587 0
28.738001 3.668 -1.589 0
28.778 3.7650001 -1.5930001 0
28.819 3.8629999 -1.596 0
28.865999 3.9619999 -1.6 0
28.895 4.0580001 -1.602 0
28.952999 4.1589999 -1.607 0
29.016001 4.2150002 -1.6109999 0
29.038 4.3109999 -1.613 0
29.077999 4.4109998 -1.617 0
29.115 4.5100002 -1.62 0
29.183001 4.6139998 -1.625 0
29.219999 4.7140002 -1.628 0
29.264 4.816 -1.632 0
29.304001 4.8699999 -1.635 0
29.355 4.973 -1.6390001 0
29.41 5.0780001 -1.643 0
29.447001 5.1799998 -1.647 0
29.504 5.2849998 -1.651 0
29.479 5.3759999 -1.651 0
29.705 5.5139999 -1.666 0
29.705999 5.5630002 -1.6670001 0
29.747999 5.6669998 -1.671 0
29.823999 5.7789998 -1.676 0
29.892 5.8899999 -1.682 0
29.943001 5.9980001 -1.686 0
29.997 6.1069999 -1.691 0
30.038 6.2129998 -1.6950001 0
30.073 6.27 -1.698 0
30.145 6.3839998 -1.7029999 0
30.174 6.4889998 -1.706 0
30.219 6.599 -1.711 0
30.282 6.7119999 -1.716 0
30.334999 6.8239999 -1.721 0
30.372 6.9330001 -1.724 0
30.455999 7.0019999 -1.73 0
30.52 7.118 -1.7359999 0
30.591999 7.2360001 -1.742 0
30.646999 7.3509998 -1.747 0
30.736 7.4749999 -1.7539999 0
30.811001 7.5960002 -1.76 0
30.841999 7.7059999 -1.7640001 0
30.896999 7.7719998 -1.768 0
30.923 7.882 -1.771 0
30.948 7.9920001 -1.774 0
30.971001 8.1009998 -1.778 0
31.058001 8.2279997 -1.785 0
31.141001 8.3559999 -1.7920001 0.059999999
31.325001 8.5109997 -1.8049999 0.14
31.264999 8.5469999 -1.802 0.28
30.909 8.5539999 -1.781 0.22
30.554001 8.559 -1.76 0.23999999
30.362 8.6079998 -1.749 0.17
30.051001 8.6210003 -1.7309999 0.1
29.851 8.665 -1.72 0.14
29.841 8.7639999 -1.721 0.16
29.611 8.7469997 -1.707 0.27000001
29.392 8.783 -1.6950001 0.31999999
29.106001 8.7969999 -1.678 0.28999999
28.969999 8.8549995 -1.671 0.30000001
28.851999 8.9180002 -1.665 0.28
28.666 8.9589996 -1.655 0.30000001
28.506001 9.007 -1.647 0.31
28.299999 8.9910002 -1.6339999 0.28
28.157 9.0430002 -1.627 0.19
28.094999 9.1199999 -1.624 0.46000001
27.771999 9.1120005 -1.605 0.25
27.457001 9.1040001 -1.587 0.2
27.716 9.2869997 -1.605 0.38
27.532 9.3210001 -1.595 0.25
27.393999 9.323 -1.587 0.25
27.346001 9.4020004 -1.586 0.16
27.247 9.4639997 -1.582 0.47999999
27.367001 9.6020002 -1.591 0.22
27.507999 9.7489996 -1.603 0.31999999
27.045 9.6800003 -1.574 0.18000001
26.921 9.7309999 -1.568 0.14
26.992001 9.8050003 -1.574 0.15000001
26.917999 9.8739996 -1.571 0.18000001
27.929001 10.345 -1.64 0.12
27.906 10.437 -1.64 0.44999999
27.962 10.558 -1.646 0.23
27.972 10.662 -1.649 0.25
27.951 10.755 -1.65 0.16
27.763 10.733 -1.6390001 0.43000001
27.514 10.736 -1.624 0.20999999
27.582001 10.862 -1.631 0.23
27.485001 10.924 -1.627 0.17
27.15 10.889 -1.607 0.17
27.131001 10.981 -1.608 0.18000001
26.801001 10.945 -1.5880001 0
26.535999 10.885 -1.572 0
30.287001 12.539 -1.825 0
30.309999 12.66 -1.829 0
30.32 12.777 -1.8329999 0
30.349001 12.901 -1.837 0
30.410999 13.041 -1.844 0
30.400999 13.15 -1.846 0
30.434999 13.221 -1.85 0
30.462999 13.348 -1.855 0
30.507 13.481 -1.86 0
30.561001 13.62 -1.867 0
30.604 13.755 -1.873 0
30.9 14.005 -1.896 0
31.065001 14.198 -1.91 0
31.157 14.299 -1.918 0
31.322001 14.494 -1.932 0.13
31.382999 14.642 -1.939 0.2
31.235001 14.693 -1.933 0.25
31.059 14.73 -1.924 0.30000001
30.941 14.793 -1.919 0.28
30.858 14.872 -1.916 0.16
30.771999 14.89 -1.9119999 0.41999999
30.584999 14.918 -1.902 0.18000001
30.427 14.96 -1.895 0.37
30.341 15.036 -1.892 0.11
32.451 16.211 -2.0409999 0.14
32.654999 16.441999 -2.059 0.12
32.473 16.478001 -2.05 0.16
19.368 9.8549995 -1.142 0.31
19.605 10.053 -1.16 0.38999999
31.863001 16.483999 -2.016 0.2
31.237 16.284 -1.976 0.23
31.186001 16.382 -1.976 0.23
30.820999 16.313999 -1.954 0.30000001
30.388 16.145 -1.926 0.12
28.799999 15.416 -1.818 0.34999999
28.742001 15.502 -1.817 0.25
28.622999 15.554 -1.812 0.2
28.649 15.685 -1.818 0.38999999
28.721001 15.842 -1.826 0.20999999
28.561001 15.871 -1.818 0.22
28.558001 15.987 -1.822 0.40000001
28.620001 16.08 -1.8279999 0.20999999
28.566999 16.169001 -1.8279999 0.31999999
29.059 16.569 -1.8660001 0.28
26.608999 15.28 -1.6950001 0.19
26.586 15.379 -1.697 0.28999999
26.503 15.442 -1.6950001 0.17
27.671 16.240999 -1.7819999 0.27000001
27.337999 16.101999 -1.76 0.34
26.781 15.887 -1.723 0.23999999
27.298 16.311001 -1.7640001 0.16
27.136999 16.330999 -1.756 0.49000001
15.127 9.2189999 -0.89300001 0.31999999
15.06 9.2440004 -0.88999999 0.36000001
15.049 9.2700005 -0.89099997 0.37
15.025 9.3199997 -0.89099997 0.38
15.04 9.3950005 -0.89399999 0.51999998
24.114 15.187 -1.5599999 0.33000001
24.094999 15.281 -1.562 0.22
24.013 15.335 -1.5599999 0.31999999
24.142 15.471 -1.571 0.22
24.395 15.742 -1.5930001 0.34999999
24.695 16.046 -1.619 0.27000001
23.577999 15.424 -1.54 0.25
23.329 15.366 -1.525 0.18000001
23.327 15.471 -1.529 0.31999999
24.115 16.103001 -1.591 0.15000001
23.479 15.732 -1.546 0.23
23.476 15.837 -1.549 0.22
23.539 15.987 -1.557 0.50999999
23.306999 15.936 -1.544 0.22
22.452 15.454 -1.483 0.31
22.539 15.619 -1.494 0.22
22.981001 16.033001 -1.531 0.34999999
24.624001 17.239 -1.6569999 0.25999999
22.389999 15.777 -1.492 0.16
22.278 15.804 -1.487 0.23
22.018999 15.724 -1.471 0.34999999
20.070999 14.425 -1.326 0.20999999
20.031 14.492 -1.327 0.17
20.011 14.574 -1.329 0.38999999
20.030001 14.636 -1.332 0.30000001
19.976999 14.694 -1.331 0.28999999
20.003 14.81 -1.337 0.40000001
19.992001 14.899 -1.34 0.28
20.021 15.019 -1.346 0.31
20.030001 15.124 -1.35 0.34
20.080999 15.262 -1.358 0.31
19.159 14.608 -1.288 0.18000001
19.077999 14.641 -1.285 0.30000001
19.09 14.746 -1.29 0.44
19.309999 15.013 -1.3099999 0.22
19.033001 14.894 -1.2920001 0.30000001
19.028999 14.987 -1.296 0.33000001
19.063 15.111 -1.302 0.43000001
18.990999 15.103 -1.298 0.28
19.502001 15.611 -1.3430001 0.19
19.006001 15.311 -1.307 0.38999999
18.604 15.084 -1.279 0.31999999
18.854 15.385 -1.303 0.18000001
18.565001 15.246 -1.283 0.34
18.521 15.308 -1.284 0.36000001
18.444 15.292 -1.279 0.27000001
18.16 15.153 -1.26 0.41999999
18.254 15.329 -1.272 0.25
18.011999 15.223 -1.256 0.34
17.964001 15.279 -1.256 0.33000001
17.983999 15.394 -1.262 0.41999999
18.089001 15.582 -1.274 0.36000001
18.253 15.774 -1.29 0.31999999
17.507999 15.225 -1.233 0.20999999
17.527 15.34 -1.238 0.23999999
17.431 15.352 -1.234 0.44
17.531 15.538 -1.2460001 0.28
17.538 15.644 -1.251 0.34
18.121 16.268 -1.304 0.28999999
18.129999 16.327 -1.307 0.31999999
17.968 16.283001 -1.2970001 0.5
17.445999 15.91 -1.258 0.23
16.778999 15.397 -1.206 0.20999999
16.705999 15.427 -1.204 0.36000001
16.847 15.656 -1.22 0.41999999
16.827 15.736 -1.222 0.25
16.782 15.743 -1.221 0.31
16.893 15.948 -1.234 0.30000001
16.784 15.945 -1.229 0.31999999
16.77 16.032 -1.232 0.51999998
16.987 16.341999 -1.255 0.30000001
16.900999 16.362 -1.252 0.33000001
16.507 16.08 -1.223 0.23999999
16.541 16.165001 -1.228 0.28999999
16.452999 16.181 -1.225 0.38999999
16.384001 16.214001 -1.223 0.30000001
16.128 16.061001 -1.205 0.41
9.9860001 10.056 -0.67400002 0.67000002
16.304001 16.545 -1.234 0.19
16.329 16.622999 -1.239 0.31999999
16.249001 16.646 -1.2359999 0.44999999
16.204 16.704 -1.237 0.38
16.202 16.808001 -1.2410001 0.33000001
16.143999 16.853001 -1.2410001 0.38999999
16.167999 16.985001 -1.248 0.46000001
16.264999 17.195 -1.261 0.30000001
15.917 16.879 -1.232 0.34
16.018 17.094 -1.2460001 0.34
15.658 16.815001 -1.219 0.22
15.597 16.855 -1.2180001 0.52999997
15.556 16.917999 -1.219 0.38
16.910999 18.511 -1.348 0.20999999
17.625 19.416 -1.419 0.2
13.864 15.313 -1.075 0.28999999
13.865 15.412 -1.08 0.20999999
13.731 15.457 -1.076 0.54000002
13.665 15.48 -1.075 0.27000001
12.944 14.754 -1.011 0.38
12.906 14.805 -1.012 0.38
12.915 14.862 -1.015 0.30000001
12.878 14.914 -1.016 0.38999999
13.872 16.171 -1.115 0.23
12.901 15.132 -1.027 0.30000001
12.862 15.183 -1.028 0.20999999
12.818 15.228 -1.029 0.51999998
12.829 15.338 -1.034 0.25999999
12.8 15.352 -1.034 0.50999999
12.795 15.445 -1.038 0.23
12.626 15.338 -1.026 0.28
12.696 15.523 -1.038 0.40000001
12.033 14.805 -0.977 0.23
12.212 15.123 -1 0.25
12.123 15.109 -0.99599999 0.56999999
12.107 15.138 -0.99599999 0.20999999
12.208 15.363 -1.011 0.38
11.278 14.282 -0.92299998 0.27000001
11.165 14.231 -0.91600001 0.41
11.326 14.531 -0.93699998 0.2
11.19 14.449 -0.92799997 0.31999999
11.831 15.379 -0.99800003 0.20999999
11.88 15.493 -1.005 0.50999999
11.763 15.441 -0.99800003 0.34999999
10.922 14.428 -0.917 0.43000001
11.663 15.51 -0.99800003 0.19
12.215 16.353001 -1.0599999 0.36000001
11.667 15.721 -1.008 0.19
11.373 15.424 -0.98299998 0.51999998
12.027 16.368 -1.054 0.25
11.403 15.62 -0.99400002 0.38
11.755 16.209999 -1.036 0.27000001
