# .PCD v0.7 - Point Cloud Data file format
VERSION 0.7
FIELDS x y z intensity
SIZE 4 4 4 4
TYPE F F F F
COUNT 1 1 1 1
WIDTH 1447
HEIGHT 1
VIEWPOINT 0 0 0 1 0 0 0
POINTS 1447
DATA ascii
14.955 -0.73000002 -1.6390001 0.28
14.965 -0.68300003 -1.64 0.25999999
14.949 -0.63499999 -1.638 0.2
14.965 -0.58899999 -1.6390001 0.41999999
14.955 -0.542 -1.638 0.23
14.944 -0.51800001 -1.637 0.18000001
14.954 -0.47099999 -1.637 0.38999999
14.955 -0.42399999 -1.637 0.20999999
14.942 -0.377 -1.636 0.25
14.932 -0.33000001 -1.6339999 0.20999999
14.938 -0.28299999 -1.635 0.22
14.91 -0.235 -1.631 0.20999999
14.922 -0.212 -1.633 0.2
14.92 -0.16500001 -1.633 0.34999999
14.903 -0.118 -1.63 0.22
14.901 -0.071000002 -1.63 0.18000001
14.907 -0.025 -1.631 0.40000001
14.267 0.039999999 -1.625 0.22
14.263 0.085000001 -1.625 0.2
14.269 0.13 -1.626 0.41999999
14.262 0.175 -1.625 0.23
14.252 0.197 -1.624 0.2
14.245 0.242 -1.623 0.41
14.239 0.28600001 -1.622 0.23999999
14.242 0.331 -1.623 0.25999999
14.233 0.37599999 -1.622 0.25
14.231 0.41999999 -1.622 0.27000001
14.232 0.465 -1.622 0.28
14.229 0.48699999 -1.622 0.27000001
14.226 0.53200001 -1.6210001 0.27000001
14.22 0.57700002 -1.6210001 0.28999999
14.218 0.62099999 -1.6210001 0.28
14.214 0.66600001 -1.6210001 0.25999999
14.228 0.71100003 -1.623 0.28
14.22 0.75599998 -1.622 0.27000001
14.211 0.80000001 -1.6210001 0.25999999
14.22 0.82300001 -1.622 0.27000001
14.217 0.86699998 -1.622 0.2
14.222 0.91299999 -1.623 0.40000001
14.203 0.95599997 -1.6210001 0.25
14.206 1.001 -1.622 0.27000001
14.211 1.046 -1.623 0.2
14.217 1.069 -1.624 0.38999999
14.206 1.113 -1.623 0.25
14.208 1.159 -1.624 0.22
14.205 1.2029999 -1.624 0.38
14.199 1.248 -1.624 0.25
14.199 1.293 -1.624 0.2
14.201 1.3380001 -1.625 0.41999999
14.187 1.359 -1.623 0.23999999
14.176 1.403 -1.623 0.25
14.178 1.448 -1.623 0.23999999
14.173 1.493 -1.623 0.2
14.155 1.536 -1.622 0.44
14.14 1.579 -1.62 0.25
14.127 1.622 -1.619 0.25999999
14.124 1.645 -1.619 0.28999999
14.123 1.689 -1.62 0.28999999
14.108 1.733 -1.619 0.27000001
14.106 1.777 -1.619 0.28999999
14.101 1.822 -1.619 0.28999999
14.093 1.8660001 -1.619 0.28999999
14.089 1.91 -1.619 0.27000001
14.091 1.956 -1.62 0.28999999
14.099 1.979 -1.622 0.28
14.101 2.0250001 -1.623 0.25
14.073 2.066 -1.62 0.14
14.068 2.1099999 -1.62 0.20999999
14.056 2.154 -1.619 0.38
14.039 2.1960001 -1.618 0.41
13.993 2.234 -1.613 0.61000001
13.991 2.257 -1.613 0.30000001
13.988 2.3010001 -1.614 0.25999999
13.983 2.345 -1.614 0.19
13.964 2.3870001 -1.613 0.46000001
13.938 2.428 -1.61 0.25
13.937 2.473 -1.6109999 0.27000001
13.927 2.494 -1.61 0.25999999
13.923 2.5380001 -1.6109999 0.27000001
13.917 2.582 -1.6109999 0.2
13.897 2.6240001 -1.61 0.41
13.867 2.6630001 -1.607 0.23999999
13.876 2.71 -1.609 0.2
13.864 2.753 -1.609 0.38999999
13.848 2.773 -1.607 0.23
13.853 2.819 -1.609 0.18000001
13.834 2.8599999 -1.607 0.40000001
13.817 2.902 -1.6059999 0.23
13.808 2.9460001 -1.6059999 0.19
13.801 2.9890001 -1.607 0.40000001
13.791 3.033 -1.607 0.20999999
13.788 3.0550001 -1.607 0.2
13.775 3.0969999 -1.6059999 0.38
13.755 3.138 -1.605 0.23
13.751 3.1830001 -1.6059999 0.18000001
13.741 3.2260001 -1.6059999 0.38999999
13.723 3.267 -1.605 0.23999999
13.72 3.312 -1.6059999 0.2
13.711 3.3329999 -1.605 0.41999999
13.703 3.3770001 -1.6059999 0.25
13.696 3.4200001 -1.6059999 0.23
13.679 3.4619999 -1.605 0.18000001
13.663 3.5039999 -1.605 0.43000001
13.644 3.5439999 -1.604 0.25
13.638 3.589 -1.604 0.27000001
13.625 3.608 -1.603 0.25
13.604 3.648 -1.602 0.25999999
13.589 3.6900001 -1.602 0.25999999
13.6 3.7390001 -1.605 0.23999999
13.579 3.779 -1.603 0.2
13.572 3.823 -1.604 0.43000001
13.559 3.865 -1.604 0.25
13.551 3.8859999 -1.604 0.25999999
13.525 3.925 -1.602 0.20999999
13.52 3.97 -1.603 0.41
13.504 4.0110002 -1.602 0.25
13.485 4.052 -1.602 0.25
13.482 4.0970001 -1.603 0.2
13.469 4.1389999 -1.603 0.38999999
13.453 4.1570001 -1.602 0.25
13.457 4.2049999 -1.604 0.19
13.432 4.244 -1.602 0.38999999
13.425 4.2880001 -1.603 0.23
13.421 4.3330002 -1.604 0.2
13.403 4.3740001 -1.604 0.38
13.389 4.4159999 -1.604 0.22
13.392 4.4400001 -1.605 0.20999999
13.37 4.48 -1.604 0.38
13.356 4.5209999 -1.604 0.22
13.351 4.5669999 -1.605 0.2
13.32 4.6030002 -1.603 0.38
13.302 4.6430001 -1.603 0.22
13.298 4.6890001 -1.604 0.18000001
13.285 4.7080002 -1.603 0.40000001
13.261 4.7459998 -1.602 0.23
13.263 4.7940001 -1.604 0.23
13.238 4.8319998 -1.603 0.17
13.227 4.875 -1.604 0.41999999
13.2 4.9130001 -1.602 0.25
13.176 4.9499998 -1.601 0.25999999
13.183 4.9770002 -1.603 0.27000001
13.165 5.0170002 -1.603 0.27000001
13.136 5.0539999 -1.601 0.28
13.117 5.0939999 -1.6 0.28999999
13.115 5.1409998 -1.602 0.25999999
13.097 5.1810002 -1.602 0.28
13.077 5.2210002 -1.602 0.30000001
13.086 5.2480001 -1.604 0.25999999
13.06 5.2849998 -1.603 0.28
13.054 5.3309999 -1.604 0.28999999
13.034 5.3699999 -1.604 0.28999999
13.013 5.4099998 -1.603 0.28999999
12.991 5.448 -1.602 0.28999999
12.972 5.4879999 -1.602 0.28
12.952 5.5040002 -1.601 0.31
12.918 5.5380001 -1.598 0.31
12.888 5.573 -1.597 0.28999999
12.872 5.6139998 -1.597 0.31999999
12.838 5.6469998 -1.595 0.31999999
12.804 5.6799998 -1.592 0.30000001
12.723 5.6919999 -1.5829999 0.36000001
12.629 5.6739998 -1.571 0.31999999
12.537 5.6799998 -1.561 0.34999999
12.432 5.6799998 -1.549 0.34999999
12.333 5.6820002 -1.5369999 0.31999999
12.247 5.6890001 -1.528 0.31
12.164 5.697 -1.5190001 0.33000001
12.069 5.6989999 -1.508 0.33000001
11.983 5.6820002 -1.497 0.31999999
11.895 5.6859999 -1.487 0.33000001
11.813 5.6929998 -1.478 0.31999999
11.754 5.71 -1.472 0.31
11.732 5.7449999 -1.472 0.30000001
11.703 5.777 -1.47 0.27000001
11.692 5.8169999 -1.471 0.20999999
11.653 5.8200002 -1.467 0.34
11.622 5.8509998 -1.465 0.38
11.6 5.8850002 -1.464 0.33000001
11.581 5.9219999 -1.464 0.52999997
11.496 5.9239998 -1.455 0.33000001
11.384 5.9120002 -1.441 0.40000001
11.347 5.9380002 -1.439 0.28
11.255 5.9130001 -1.427 0.40000001
11.135 5.8940001 -1.4119999 0.31999999
11.092 5.9159999 -1.409 0.46000001
11.07 5.9489999 -1.408 0.38999999
11.137 6.0300002 -1.421 0.37
11.078 6.0430002 -1.415 0.31999999
11.005 6.0489998 -1.4069999 0.34
10.971 6.053 -1.403 0.43000001
10.952 6.0869999 -1.403 0.34999999
10.868 6.086 -1.3940001 0.43000001
10.797 6.0910001 -1.386 0.37
10.716 6.0890002 -1.377 0.5
10.655 6.099 -1.3710001 0.27000001
10.559 6.0879998 -1.36 0.55000001
10.499 6.0760002 -1.352 0.23
10.447 6.0900002 -1.347 0.36000001
10.38 6.0949998 -1.34 0.44999999
10.347 6.1199999 -1.3380001 0.38
10.316 6.145 -1.337 0.31
10.3 6.1789999 -1.337 0.30000001
10.284 6.2140002 -1.3380001 0.28
10.273 6.2290001 -1.337 0.36000001
10.226 6.2449999 -1.3329999 0.34
13.198 8.1079998 -1.7819999 0.19
13.13 8.1230001 -1.775 0.36000001
13.042 8.1260004 -1.766 0.34
12.953 8.1269999 -1.756 0.47
12.87 8.1309996 -1.748 0.34999999
12.783 8.1049995 -1.737 0.55000001
12.691 8.1020002 -1.726 0.54000002
9.5679998 6.1589999 -1.256 0.28
9.5 6.158 -1.249 0.25
9.4560003 6.171 -1.245 0.34
9.4169998 6.1880002 -1.242 0.31999999
9.3590002 6.1919999 -1.2359999 0.31999999
9.323 6.1890001 -1.232 0.20999999
9.2189999 6.1630001 -1.219 0.49000001
9.165 6.1680002 -1.214 0.30000001
9.1459999 6.197 -1.214 0.36000001
9.0719995 6.1890001 -1.205 0.20999999
8.9589996 6.1539998 -1.191 0.34999999
8.9460001 6.1859999 -1.192 0.44999999
8.915 6.1859999 -1.189 0.28
8.8260002 6.165 -1.178 0.31999999
8.7969999 6.1859999 -1.176 0.28999999
8.7250004 6.177 -1.168 0.40000001
8.6929998 6.1950002 -1.166 0.33000001
8.6059999 6.1739998 -1.155 0.30000001
8.5810003 6.198 -1.155 0.33000001
8.5179996 6.1729999 -1.146 0.38999999
8.4849997 6.1890001 -1.1440001 0.34
8.4329996 6.1919999 -1.1390001 0.23999999
8.3690004 6.1859999 -1.132 0.38
8.29 6.1680002 -1.122 0.31999999
8.2690001 6.1929998 -1.122 0.38999999
8.2229996 6.1989999 -1.118 0.23999999
8.151 6.165 -1.108 0.38999999
8.1260004 6.1859999 -1.107 0.27000001
8.0749998 6.1880002 -1.102 0.40000001
8.0220003 6.1880002 -1.097 0.31999999
7.9619999 6.1810002 -1.09 0.25999999
7.9200001 6.1890001 -1.086 0.41
7.848 6.1719999 -1.0779999 0.30000001
7.8400002 6.1859999 -1.0779999 0.38999999
7.7919998 6.1880002 -1.073 0.31
7.7210002 6.1719999 -1.0650001 0.34
7.697 6.1929998 -1.064 0.31
7.6209998 6.171 -1.0549999 0.31999999
7.5900002 6.1859999 -1.053 0.36000001
7.5450001 6.1880002 -1.049 0.30000001
7.4569998 6.1360002 -1.036 0.23999999
7.4390001 6.1609998 -1.036 0.40000001
7.4580002 6.2160001 -1.043 0.30000001
7.4699998 6.2659998 -1.048 0.37
7.4720001 6.3070002 -1.051 0.31999999
7.4559999 6.335 -1.052 0.38
7.474 6.3899999 -1.059 0.31
7.4689999 6.4060001 -1.059 0.33000001
7.4790001 6.4549999 -1.064 0.37
7.4749999 6.493 -1.067 0.31999999
7.48 6.5380001 -1.071 0.31999999
7.4530001 6.5560002 -1.0700001 0.31999999
7.4759998 6.618 -1.0779999 0.36000001
7.4640002 6.6490002 -1.079 0.31999999
7.48 6.6849999 -1.084 0.31999999
7.4899998 6.7360001 -1.089 0.30000001
6.9910002 6.329 -1.007 0.31999999
6.961 6.342 -1.005 0.46000001
7.473 6.849 -1.097 0.28999999
7.4629998 6.8829999 -1.099 0.37
7.4809999 6.9429998 -1.1059999 0.31
7.4920001 6.9749999 -1.11 0.31999999
7.473 7.0009999 -1.1109999 0.31999999
7.4899998 7.0609999 -1.117 0.36000001
7.4679999 7.085 -1.117 0.30000001
7.4840002 7.145 -1.124 0.31
7.6599998 7.3579998 -1.159 0
6.8629999 6.638 -1.022 0
6.8200002 6.6170001 -1.016 0
6.7810001 6.6199999 -1.013 0
6.7329998 6.6149998 -1.008 0
6.6950002 6.619 -1.005 0
6.6599998 6.6269999 -1.002 0
6.6069999 6.6149998 -0.99699998 0
6.5970001 6.6469998 -0.99900001 0
6.5669999 6.638 -0.995 0
6.5229998 6.6339998 -0.991 0
6.4819999 6.6350002 -0.98699999 0
6.4229999 6.6160002 -0.98000002 0
6.3800001 6.6129999 -0.97600001 0.11
6.3369999 6.6100001 -0.972 0.13
6.2379999 6.5479999 -0.958 0.17
6.323 6.6589999 -0.97500002 0.090000004
6.3270001 6.704 -0.98000002 0.14
6.3140001 6.7329998 -0.98100001 0.090000004
6.3130002 6.7740002 -0.98500001 0.090000004
6.3119998 6.816 -0.98900002 0.14
6.3080001 6.855 -0.99199998 0.090000004
6.322 6.9120002 -0.99900001 0.15000001
6.3280001 6.941 -1.002 0.090000004
6.322 6.9790001 -1.005 0.15000001
6.316 7.0159998 -1.008 0.1
6.322 7.0669999 -1.0140001 0.15000001
6.3109999 7.099 -1.016 0.090000004
6.3169999 7.151 -1.021 0.090000004
6.3109999 7.1890001 -1.024 0.14
6.3309999 7.2340002 -1.03 0.20999999
6.3239999 7.2719998 -1.033 0.090000004
6.3179998 7.3119998 -1.0369999 0.14
6.3150001 7.355 -1.041 0.090000004
6.3130002 7.3990002 -1.045 0.090000004
6.3189998 7.454 -1.051 0.14
6.3210001 7.5040002 -1.056 0.090000004
6.3340001 7.5430002 -1.061 0.14
6.3239999 7.579 -1.063 0.090000004
6.3270001 7.631 -1.069 0.14
6.3189998 7.671 -1.072 0.1
6.3189998 7.7199998 -1.077 0.15000001
6.316 7.7659998 -1.081 0.090000004
6.3109999 7.8080001 -1.085 0.14
8.934 11.073 -1.62 0.28999999
8.8970003 11.098 -1.62 0.25999999
8.8780003 11.146 -1.623 0.19
8.8540001 11.188 -1.625 0.38999999
8.8149996 11.211 -1.625 0.23
8.7869997 11.248 -1.626 0.19
8.7650003 11.293 -1.6289999 0.38999999
8.7360001 11.328 -1.63 0.25
8.7270002 11.353 -1.632 0.20999999
8.743 11.448 -1.643 0.37
8.9449997 11.788 -1.693 0.2
9.0270004 11.974 -1.719 0.28999999
8.9890003 12 -1.7180001 0.30000001
8.9200001 11.987 -1.712 0.27000001
8.8739996 12.004 -1.71 0.31
8.8430004 12.002 -1.707 0.31999999
8.7810001 11.996 -1.702 0.31999999
8.7290001 12.005 -1.699 0.33000001
8.6660004 11.997 -1.693 0.31
8.6090002 11.998 -1.689 0.31999999
8.5500002 11.994 -1.6849999 0.31
8.4890003 11.989 -1.6799999 0.28
8.4460001 11.968 -1.674 0.33000001
8.3920002 11.972 -1.671 0.31999999
8.3360004 11.971 -1.666 0.28999999
8.2919998 11.989 -1.665 0.17
5.1550002 7.52 -0.96700001 0.37
5.118 7.5170002 -0.96399999 0.46000001
5.085 7.52 -0.96200001 0.38
5.0630002 7.513 -0.95999998 0.47
5.0250001 7.507 -0.95599997 0.38
4.9899998 7.5050001 -0.95300001 0.44999999
4.9569998 7.507 -0.95099998 0.38
4.9229999 7.506 -0.949 0.38999999
4.8850002 7.5 -0.94599998 0.46000001
4.8590002 7.5120001 -0.94499999 0.36000001
4.8179998 7.5009999 -0.94099998 0.43000001
4.7989998 7.4970002 -0.93900001 0.36000001
4.7649999 7.4949999 -0.93699998 0.38999999
4.7319999 7.4949999 -0.93400002 0.40000001
4.6929998 7.4860001 -0.93099999 0.43000001
4.664 7.4920001 -0.93000001 0.34
4.631 7.4920001 -0.92699999 0.41999999
4.599 7.493 -0.92500001 0.37
4.572 7.4749999 -0.92199999 0.44999999
4.5430002 7.4809999 -0.92000002 0.34999999
4.5100002 7.4780002 -0.91799998 0.43000001
4.48 7.4819999 -0.91600001 0.36000001
4.4429998 7.474 -0.91299999 0.50999999
4.4439998 7.5289998 -0.91900003 0.36000001
4.4349999 7.5679998 -0.92299998 0.41
4.4489999 7.618 -0.92900002 0.36000001
4.4400001 7.658 -0.93300003 0.37
4.4380002 7.7090001 -0.93900001 0.38
4.4299998 7.7519999 -0.94300002 0.52999997
7.678 13.496 -1.7869999 0.27000001
7.6240001 13.499 -1.784 0.28999999
7.5650001 13.494 -1.779 0.28999999
7.4990001 13.426 -1.768 0.28999999
7.4809999 13.493 -1.774 0.28999999
7.427 13.495 -1.771 0.28999999
7.3720002 13.496 -1.768 0.28999999
7.3189998 13.498 -1.765 0.28999999
7.2639999 13.498 -1.761 0.28999999
7.2140002 13.507 -1.7589999 0.30000001
7.1810002 13.497 -1.756 0.30000001
7.125 13.494 -1.752 0.30000001
7.0700002 13.491 -1.749 0.28999999
7.013 13.485 -1.745 0.30000001
6.9590001 13.486 -1.742 0.28999999
6.9050002 13.485 -1.738 0.28
6.8509998 13.484 -1.735 0.27000001
6.8140001 13.463 -1.7309999 0.28
6.7610002 13.465 -1.728 0.27000001
6.7140002 13.475 -1.726 0.25999999
6.6589999 13.471 -1.723 0.2
6.6040001 13.467 -1.719 0.43000001
6.5469999 13.458 -1.715 0.23999999
6.4990001 13.466 -1.7130001 0.20999999
6.4720001 13.463 -1.711 0.34999999
6.4159999 13.455 -1.707 0.2
6.3790002 13.488 -1.709 0
6.3119998 13.455 -1.702 0
6.2810001 13.499 -1.705 0
6.3340001 13.723 -1.734 0.050000001
6.415 14.014 -1.772 0.18000001
6.427 14.098 -1.7819999 0.23
6.3990002 14.154 -1.7869999 0.25999999
6.349 14.161 -1.786 0.30000001
6.2930002 14.156 -1.7819999 0.23
6.2389998 14.154 -1.779 0.31999999
6.1849999 14.153 -1.776 0.30000001
6.1360002 14.162 -1.775 0.38999999
6.0999999 14.139 -1.77 0.37
6.0440001 14.132 -1.767 0.27000001
6.0009999 14.153 -1.767 0.27000001
5.9419999 14.139 -1.762 0.25
5.895 14.152 -1.761 0.23
5.8429999 14.152 -1.7589999 0.20999999
5.7909999 14.152 -1.756 0.34999999
5.7389998 14.152 -1.7539999 0.28999999
5.7160001 14.157 -1.753 0.33000001
5.6620002 14.153 -1.75 0.41999999
5.6079998 14.147 -1.747 0.27000001
5.559 14.153 -1.745 0.31
5.5079999 14.152 -1.743 0.30000001
5.4530001 14.143 -1.739 0.28999999
5.4060001 14.153 -1.738 0.33000001
5.3759999 14.143 -1.7359999 0.36000001
5.3280001 14.149 -1.734 0.28
5.276 14.145 -1.732 0.36000001
5.223 14.139 -1.728 0.23
5.1750002 14.146 -1.727 0.36000001
5.1269999 14.153 -1.726 0.33000001
5.072 14.139 -1.722 0.31
5.0500002 14.147 -1.722 0.34999999
4.9990001 14.144 -1.719 0.31
4.9460001 14.137 -1.716 0.34
4.8979998 14.142 -1.715 0.34999999
4.849 14.144 -1.7130001 0.34
4.7969999 14.138 -1.71 0.34999999
4.7490001 14.142 -1.709 0.33000001
4.7220001 14.134 -1.707 0.34999999
4.6739998 14.14 -1.705 0.31999999
4.6290002 14.151 -1.705 0.31999999
4.579 14.15 -1.7029999 0.34
4.526 14.138 -1.699 0.31999999
4.4780002 14.139 -1.698 0.36000001
4.4299998 14.143 -1.696 0.34
4.4029999 14.133 -1.694 0.31999999
4.3569999 14.143 -1.693 0.40000001
4.3080001 14.142 -1.691 0.34999999
4.2550001 14.128 -1.688 0.30000001
4.2090001 14.134 -1.687 0.36000001
4.1609998 14.136 -1.6849999 0.31
4.1129999 14.136 -1.684 0.36000001
4.0879998 14.134 -1.683 0.31999999
4.0409999 14.138 -1.681 0.38
3.9909999 14.129 -1.679 0.30000001
3.9419999 14.126 -1.676 0.31999999
3.8989999 14.143 -1.677 0.34
3.849 14.136 -1.674 0.33000001
3.803 14.142 -1.674 0.31999999
3.779 14.14 -1.673 0.34999999
3.7309999 14.139 -1.671 0.34
3.687 14.154 -1.671 0.31999999
3.6489999 14.189 -1.674 0.28
3.6210001 14.267 -1.683 0.36000001
3.5880001 14.323 -1.689 0.30000001
3.556 14.388 -1.696 0.34999999
3.52 14.436 -1.701 0.28999999
3.4820001 14.379 -1.693 0.38999999
3.45 14.446 -1.7 0.33000001
3.402 14.445 -1.699 0.38
3.3610001 14.473 -1.701 0.38
3.329 14.542 -1.709 0.41
3.3050001 14.651 -1.722 0.34999999
3.256 14.646 -1.72 0.38
3.2179999 14.583 -1.711 0.38
3.1760001 14.613 -1.7130001 0.33000001
3.1300001 14.619 -1.7130001 0.46000001
3.0699999 14.566 -1.705 0.34
3.0139999 14.523 -1.698 0.44
2.9849999 14.614 -1.7079999 0.31
2.9260001 14.56 -1.7 0.40000001
2.902 14.558 -1.699 0.40000001
2.8599999 14.589 -1.702 0.37
2.8110001 14.578 -1.7 0.38999999
2.7550001 14.536 -1.693 0.38
2.7160001 14.582 -1.698 0.41
2.6800001 14.639 -1.704 0.43000001
2.6489999 14.729 -1.715 0.38999999
2.612 14.661 -1.705 0.34
2.5639999 14.654 -1.7029999 0.37
2.503 14.58 -1.693 0.31
2.464 14.627 -1.698 0.38
2.431 14.711 -1.7079999 0.43000001
2.3599999 14.569 -1.688 0.34999999
2.322 14.626 -1.6950001 0.38999999
2.286 14.545 -1.684 0.36000001
2.2460001 14.589 -1.689 0.34
2.227 14.775 -1.712 0.36000001
2.1730001 14.725 -1.704 0.38
2.115 14.653 -1.694 0.36000001
2.1059999 14.923 -1.728 0.33000001
2.0610001 14.937 -1.729 0.36000001
1.9859999 14.739 -1.7029999 0.40000001
1.967 14.772 -1.707 0.36000001
1.9400001 14.929 -1.726 0.41999999
1.875 14.792 -1.7079999 0.30000001
1.825 14.774 -1.705 0.44
1.776 14.76 -1.702 0.38999999
1.74 14.848 -1.7130001 0.37
1.676 14.704 -1.693 0.36000001
1.652 14.699 -1.692 0.38
1.594 14.595 -1.679 0.34
1.5700001 14.809 -1.705 0.44
1.524 14.818 -1.706 0.38
1.476 14.803 -1.7029999 0.34
1.439 14.904 -1.716 0.41999999
1.393 14.921 -1.717 0.33000001
1.3789999 15.028 -1.7309999 0.37
1.307 14.759 -1.696 0.37
1.27 14.87 -1.709 0.33000001
1.207 14.68 -1.6849999 0.2
1.175 14.848 -1.706 0.47
1.105 14.559 -1.668 0.28
1.052 14.459 -1.655 0.43000001
1.039 14.603 -1.673 0.28999999
0.99000001 14.557 -1.6670001 0.37
0.94400001 14.562 -1.6670001 0.34
0.90200001 14.611 -1.673 0.37
0.85600001 14.615 -1.673 0.43000001
0.80299997 14.489 -1.6569999 0.40000001
0.764 14.624 -1.674 0.31999999
0.74000001 14.608 -1.671 0.44
0.70300001 14.79 -1.6950001 0.36000001
0.65100002 14.67 -1.679 0.36000001
0.60500002 14.67 -1.679 0.36000001
0.56400001 14.788 -1.693 0.34
0.51300001 14.679 -1.679 0.38999999
0.47 14.782 -1.692 0.34
0.449 14.836 -1.699 0.31999999
0.405 14.942 -1.7130001 0.38999999
0.35499999 14.827 -1.698 0.34
0.30700001 14.76 -1.689 0.38
0.26300001 14.88 -1.704 0.33000001
0.215 14.77 -1.6900001 0.38
0.171 14.983 -1.717 0.31
0.148 15.013 -1.721 0.47
0.1 14.896 -1.706 0.30000001
0.054000001 15.041 -1.724 0.47999999
0.0060000001 14.801 -1.694 0.41
-0.041000001 14.859 -1.701 0.36000001
-0.088 14.918 -1.709 0.28999999
-0.13500001 14.999 -1.719 0.31999999
-0.182 15.016 -1.721 0.43000001
-0.206 15.024 -1.722 0.38999999
-0.25099999 14.886 -1.705 0.31999999
-0.294 14.681 -1.679 0.38999999
-0.338 14.585 -1.6670001 0.47999999
-0.389 14.79 -1.693 0.27000001
-0.42899999 14.553 -1.663 0.33000001
-0.47499999 14.553 -1.663 0.36000001
-0.49200001 14.36 -1.638 0.36000001
-0.54799998 14.684 -1.6799999 0.34999999
-0.59799999 14.767 -1.691 0.34
-0.64600003 14.811 -1.697 0.43000001
-0.69700003 14.918 -1.711 0.31
-0.74599999 14.943 -1.714 0.38999999
-0.79299998 14.959 -1.717 0.43000001
-0.81599998 14.932 -1.7130001 0.31
-0.86699998 15.008 -1.723 0.40000001
-0.917 15.061 -1.7309999 0.34
-0.963 15.038 -1.728 0.5
-1 14.873 -1.707 0.34999999
-1.054 14.972 -1.72 0.33000001
-1.102 14.979 -1.722 0.31
-1.1210001 14.92 -1.714 0.38999999
-1.1619999 14.841 -1.705 0.41999999
-1.212 14.883 -1.71 0.36000001
-1.275 15.077 -1.7359999 0.41999999
-1.314 14.968 -1.722 0.30000001
-1.367 15.035 -1.732 0.44
-1.383 14.687 -1.687 0.31999999
-1.4119999 14.751 -1.696 0.37
-1.449 14.654 -1.684 0.22
-1.464 14.34 -1.6440001 0.31
-1.498 14.228 -1.631 0.54000002
-1.591 14.673 -1.688 0.28
-1.635 14.647 -1.686 0.34
-1.696 14.779 -1.7029999 0.34
-1.732 14.681 -1.691 0.34
-1.772 14.824 -1.71 0.47999999
-1.796 14.634 -1.686 0.30000001
-1.867 14.829 -1.712 0.46000001
-1.911 14.799 -1.709 0.33000001
-1.978 14.952 -1.73 0.38999999
-2.013 14.86 -1.719 0.34
-2.0439999 14.739 -1.704 0.28
-2.096 14.94 -1.73 0.38999999
-2.1440001 14.94 -1.7309999 0.44
-2.1889999 14.921 -1.73 0.41999999
-2.244 14.971 -1.737 0.34
-2.2950001 14.991 -1.74 0.31999999
-2.3610001 15.106 -1.756 0.5
-2.3729999 14.875 -1.727 0.31999999
-2.4059999 14.93 -1.735 0.38999999
-2.3699999 14.411 -1.669 0.28999999
-2.392 14.261 -1.65 0.37
-2.4419999 14.284 -1.654 0.41
-2.5350001 14.556 -1.6900001 0.38999999
-2.6300001 14.832 -1.727 0.28999999
-2.6110001 14.458 -1.6799999 0.33000001
-2.7219999 14.807 -1.726 0.33000001
-2.7290001 14.713 -1.715 0.36000001
-2.777 14.716 -1.716 0.41
-2.8599999 14.898 -1.7410001 0.28999999
-2.8469999 14.583 -1.701 0.38
-2.911 14.664 -1.7130001 0.30000001
-2.9660001 14.703 -1.719 0.30000001
-3.0190001 14.725 -1.723 0.38999999
-3.033 14.675 -1.717 0.36000001
-3.086 14.699 -1.722 0.31
-3.1140001 14.606 -1.711 0.38
-3.1470001 14.534 -1.7029999 0.41999999
-3.204 14.576 -1.709 0.38
-3.2309999 14.481 -1.698 0.38999999
-3.276 14.576 -1.711 0.43000001
-3.299 14.467 -1.699 0.28999999
-3.358 14.515 -1.706 0.44
-3.404 14.506 -1.706 0.34
-3.4349999 14.434 -1.698 0.30000001
-3.5209999 14.591 -1.72 0.38
-3.582 14.645 -1.729 0.41999999
-3.5999999 14.52 -1.714 0.28999999
-3.6689999 14.697 -1.738 0.43000001
-3.697 14.616 -1.729 0.36000001
-3.7260001 14.537 -1.72 0.44
-3.8010001 14.637 -1.735 0.38
-3.881 14.757 -1.752 0.34
-3.915 14.699 -1.7460001 0.34999999
-3.961 14.685 -1.7460001 0.41
-3.95 14.552 -1.729 0.34
-4.0019999 14.563 -1.732 0.34
-4.0619998 14.604 -1.739 0.37
-4.086 14.512 -1.729 0.34
-4.1420002 14.536 -1.734 0.38
-4.2220001 14.643 -1.75 0.31999999
-4.3000002 14.74 -1.765 0.38999999
-4.2509999 14.486 -1.732 0.31999999
-4.316 14.537 -1.74 0.36000001
-4.3709998 14.556 -1.744 0.37
-4.4109998 14.523 -1.742 0.37
-4.4619999 14.526 -1.744 0.38999999
-4.4819999 14.43 -1.733 0.38999999
-4.5479999 14.483 -1.742 0.40000001
-4.6040001 14.5 -1.747 0.41
-4.619 14.469 -1.743 0.33000001
-4.7389998 14.688 -1.775 0.36000001
-4.8169999 14.771 -1.788 0.44999999
-4.8460002 14.701 -1.781 0.38
-4.8829999 14.658 -1.777 0.34
-4.8959999 14.545 -1.7640001 0.38
-4.947 14.546 -1.766 0.37
-4.9660001 14.525 -1.7640001 0.38
-5.006 14.495 -1.762 0.38
-5.0110002 14.363 -1.7460001 0.44999999
-5.105 14.485 -1.765 0.34
-5.1269999 14.404 -1.756 0.43000001
-5.164 14.363 -1.753 0.37
-5.2480001 14.455 -1.768 0.34999999
-5.3099999 14.555 -1.7819999 0.33000001
-5.309 14.41 -1.765 0.40000001
-5.3720002 14.441 -1.771 0.28999999
-5.427 14.45 -1.775 0.43000001
-5.4899998 14.48 -1.781 0.43000001
-5.5149999 14.409 -1.774 0.34999999
-5.5679998 14.413 -1.777 0.43000001
-5.5760002 14.366 -1.772 0.34999999
-5.6079998 14.315 -1.767 0.38999999
-5.6799998 14.366 -1.776 0.41
-5.7199998 14.335 -1.775 0.43000001
-5.7639999 14.315 -1.774 0.36000001
-5.8039999 14.284 -1.773 0.41999999
-5.8740001 14.326 -1.781 0.30000001
-5.895 14.315 -1.781 0.41999999
-5.96 14.344 -1.7869999 0.41
-6.0079999 14.333 -1.788 0.38999999
-6.046 14.297 -1.786 0.41
-6.086 14.267 -1.785 0.38999999
-6.1300001 14.244 -1.784 0.38999999
-6.2189999 14.329 -1.799 0.34
-6.2350001 14.303 -1.796 0.47
-6.3070002 14.345 -1.8049999 0.25999999
-6.3330002 14.283 -1.799 0.47999999
-6.3740001 14.254 -1.798 0.41
-6.441 14.285 -1.8049999 0.40000001
-6.5050001 14.306 -1.811 0.38999999
-6.5450001 14.275 -1.809 0.33000001
-6.5830002 14.24 -1.807 0.46000001
-6.625 14.271 -1.813 0.34
-6.6690001 14.248 -1.813 0.38
-6.7080002 14.214 -1.811 0.38
-6.7509999 14.192 -1.811 0.44999999
-6.7979999 14.176 -1.811 0.38
-6.8779998 14.227 -1.822 0.36000001
-6.9640002 14.291 -1.834 0.38
-6.9689999 14.243 -1.829 0.41
-7.04 14.276 -1.837 0.38
-7.0689998 14.222 -1.832 0.36000001
-7.1209998 14.214 -1.834 0.34999999
-7.1589999 14.177 -1.832 0.36000001
-7.191 14.13 -1.8279999 0.31999999
-7.2290001 14.095 -1.827 0.31999999
-7.2480001 14.078 -1.826 0.30000001
-7.302 14.075 -1.829 0.30000001
-7.355 14.068 -1.831 0.31
-7.4120002 14.069 -1.835 0.27000001
-7.461 14.056 -1.836 0.34999999
-7.52 14.059 -1.84 0.33000001
-7.5739999 14.055 -1.8430001 0.33000001
-7.6059999 14.06 -1.845 0.31999999
-7.6589999 14.054 -1.848 0.31
-7.723 14.066 -1.853 0.31999999
-7.7740002 14.054 -1.855 0.33000001
-7.829 14.048 -1.858 0.31999999
-7.8899999 14.055 -1.862 0.31999999
-7.9429998 14.046 -1.864 0.33000001
-8.0010004 14.045 -1.868 0.33000001
-8.04 14.062 -1.872 0.34
-8.0959997 14.057 -1.875 0.30000001
-8.1520004 14.052 -1.878 0.34
-8.21 14.05 -1.882 0.37
-8.2670002 14.047 -1.885 0.34
-8.3240004 14.043 -1.8890001 0.34
-8.3830004 14.042 -1.892 0.28
-8.4189997 14.051 -1.896 0.36000001
-8.4790001 14.052 -1.9 0.28
-8.5419998 14.056 -1.904 0.34999999
-8.5979996 14.049 -1.9069999 0.33000001
-8.6560001 14.044 -1.911 0.33000001
-8.7180004 14.045 -1.915 0.34
-8.7779999 14.043 -1.919 0.31
-8.8149996 14.055 -1.923 0.31999999
-8.8739996 14.05 -1.926 0.34
-8.934 14.048 -1.9299999 0.33000001
-8.9949999 14.046 -1.934 0.28999999
-9.0530005 14.04 -1.937 0.28999999
-9.1120005 14.033 -1.941 0.30000001
-9.1750002 14.034 -1.9450001 0.33000001
-9.2139997 14.046 -1.949 0.34999999
-9.2729998 14.039 -1.9529999 0.28
-9.3369999 14.039 -1.957 0.34999999
-9.3990002 14.038 -1.961 0.34
-9.4630003 14.038 -1.966 0.34
-9.5279999 14.039 -1.971 0.30000001
-9.5889997 14.034 -1.975 0.38
-9.6239996 14.037 -1.977 0.27000001
-9.6920004 14.042 -1.983 0.31
-9.7550001 14.038 -1.987 0.36000001
-9.8190002 14.037 -1.992 0.34
-9.8760004 14.024 -1.994 0.34999999
-9.948 14.033 -2.0009999 0.23999999
-10.011 14.028 -2.0050001 0
-10.019 13.946 -1.997 0
-9.8500004 13.664 -1.955 0
-9.7030001 13.371 -1.914 0
-9.7510004 13.349 -1.915 0.12
-9.809 13.341 -1.919 0.1
-9.868 13.332 -1.9220001 0.18000001
-9.9280005 13.326 -1.926 0.16
-10 13.335 -1.932 0.38999999
-10.036 13.34 -1.936 0.25
-10.103 13.341 -1.941 0.2
-10.176 13.351 -1.948 0.41
-10.235 13.341 -1.951 0.23
-10.307 13.348 -1.9579999 0.2
-10.379 13.355 -1.964 0.40000001
-10.437 13.342 -1.967 0.25
-10.496 13.374 -1.975 0.23
-10.552 13.358 -1.978 0.18000001
-10.628 13.369 -1.985 0.43000001
-10.68 13.348 -1.987 0.25
-10.759 13.36 -1.995 0.2
-10.811 13.339 -1.997 0.40000001
-10.886 13.346 -2.003 0.23999999
-10.934 13.362 -2.0090001 0.2
-11.012 13.372 -2.016 0.38999999
-11.073 13.36 -2.02 0.23
-11.154 13.372 -2.0280001 0.2
-11.214 13.359 -2.0309999 0.38
-11.279 13.351 -2.036 0.19
-11.357 13.357 -2.043 0.38
-11.419 13.346 -2.0469999 0.19
-11.413 13.296 -2.0420001 0.37
-11.501 13.314 -2.0510001 0.19
-11.591 13.334 -2.0599999 0.36000001
-11.674 13.344 -2.0680001 0.2
-11.738 13.332 -2.072 0.23
-11.807 13.326 -2.0780001 0.2
-11.879 13.323 -2.0840001 0.23
-11.916 13.323 -2.0869999 0.20999999
-11.976 13.306 -2.0899999 0.2
-12.022 13.272 -2.0910001 0.38
-12.066 13.238 -2.092 0.25
-12.131 13.224 -2.096 0.25
-12.413 13.448 -2.141 0.28999999
-12.495 13.452 -2.1489999 0.25
-12.502 13.416 -2.1459999 0.38
-12.517 13.348 -2.141 0.33000001
-12.586 13.338 -2.1459999 0.23
-12.648 13.32 -2.1500001 0.14
-11.325 11.848 -1.897 0.12
-11.39 11.841 -1.902 0.31999999
-11.441 11.819 -1.905 0.23999999
-11.494 11.837 -1.911 0.27000001
-11.566 11.836 -1.9170001 0.28999999
-11.633 11.831 -1.923 0.28999999
-11.704 11.828 -1.929 0.27000001
-11.777 11.828 -1.936 0.27000001
-11.848 11.825 -1.942 0.25999999
-11.926 11.828 -1.949 0.2
-11.995 11.86 -1.9579999 0.40000001
-12.055 11.844 -1.962 0.23999999
-12.142 11.855 -1.971 0.25999999
-12.222 11.858 -1.979 0.27000001
-12.284 11.845 -1.983 0.27000001
-12.366 11.849 -1.9910001 0.25
-12.437 11.843 -1.997 0.22
-12.491 11.856 -2.003 0.41999999
-12.572 11.859 -2.0109999 0.22
-12.63 11.838 -2.0150001 0.34
-12.623 11.758 -2.007 0.11
-12.258 11.344 -1.937 0.079999998
-12.117 11.143 -1.906 0.16
-12.156 11.109 -1.9069999 0.17
-12.182 11.063 -1.905 0.17
-12.194 11.038 -1.904 0.18000001
-12.237 11.008 -1.906 0.17
-12.279 10.976 -1.9069999 0.33000001
-12.328 10.95 -1.91 0.23
-12.397 10.942 -1.915 0.27000001
-12.48 10.946 -1.924 0.27000001
-12.556 10.943 -1.931 0.27000001
-12.608 10.954 -1.937 0.27000001
-12.687 10.953 -1.944 0.28
-12.767 10.952 -1.952 0.27000001
-12.837 10.943 -1.9579999 0.27000001
-12.92 10.943 -1.966 0.25
-13.01 10.95 -1.976 0.25
-13.08 10.938 -1.9809999 0.2
-13.149 10.961 -1.99 0.43000001
-13.218 10.949 -1.9960001 0.25
-13.289 10.938 -2.0020001 0
-13.296 10.873 -1.997 0
-12.712 10.328 -1.895 0
-12.73 10.276 -1.893 0
-12.807 10.272 -1.9 0.13
-12.864 10.285 -1.9069999 0.16
-12.95 10.287 -1.916 0.18000001
-13.024 10.28 -1.923 0.34
-13.111 10.282 -1.932 0.2
-13.207 10.291 -1.942 0.33000001
-13.285 10.284 -1.949 0.22
-10.442 8.0240002 -1.485 0.18000001
-13.447 10.309 -1.9680001 0.40000001
-13.533 10.307 -1.976 0.20999999
-13.614 10.302 -1.984 0.17
-13.699 10.299 -1.993 0.43000001
-13.782 10.294 -2.0009999 0.22
-13.862 10.286 -2.0079999 0.20999999
-10.79 7.947 -1.515 0.25999999
-14.007 10.292 -2.0239999 0.20999999
-14.043 10.25 -2.0239999 0.20999999
-14.099 10.224 -2.0280001 0.16
-10.965 7.8920002 -1.529 0.25
-11.236 8.0340004 -1.567 0.19
-10.385 7.3249998 -1.426 0.33000001
-10.484 7.3460002 -1.438 0.38999999
-14.621 10.222 -2.082 0.18000001
-14.65 10.174 -2.082 0.34999999
-14.692 10.135 -2.0829999 0.20999999
-14.974 10.261 -2.122 0.28999999
-14.989 10.202 -2.1199999 0.20999999
-15.026 10.159 -2.1199999 0.16
-11.598 7.7810001 -1.587 0.57999998
-14.987 10.029 -2.1070001 0.25
-11.537 7.6609998 -1.572 0.25
-15.16 10.008 -2.1240001 0.30000001
-12.001 7.862 -1.636 0.23999999
-11.869 7.7220001 -1.612 0.36000001
-11.844 7.652 -1.604 0.25
-11.723 7.5219998 -1.582 0.28
-13.731 8.7849998 -1.886 0.23999999
-11.338 7.1989999 -1.518 0.20999999
-11.501 7.2519999 -1.54 0.14
-12.552 7.862 -1.6950001 0.15000001
-11.631 7.2319999 -1.552 0.57999998
-11.507 7.105 -1.53 0.25
-12.571 7.71 -1.687 0.28999999
-11.54 7.0500002 -1.53 0.17
-12.933 7.849 -1.7359999 0.34999999
-12.486 7.5229998 -1.665 0.25999999
-12.858 7.6929998 -1.717 0.28999999
-12.807 7.6079998 -1.706 0.46000001
-12.641 7.4559999 -1.678 0.30000001
-12.948 7.5830002 -1.72 0.31999999
-12.363 7.2119999 -1.631 0.23
-13.03 7.5489998 -1.727 0.34
-13.145 7.5599999 -1.74 0.34
-12.396 7.0760002 -1.626 0.44999999
-12.763 7.2329998 -1.677 0.25999999
-12.72 7.1560001 -1.6670001 0.20999999
-12.407 6.928 -1.618 0.44
-12.457 6.9299998 -1.624 0.28
-12.795 7.066 -1.67 0.38999999
-12.591 6.902 -1.637 0.34999999
-12.472 6.7849998 -1.617 0.36000001
-12.709 6.8629999 -1.648 0.31
-12.792 6.8559999 -1.6569999 0.31999999
-12.799 6.8080001 -1.655 0.34
-12.893 6.8060002 -1.665 0.30000001
-13.01 6.8429999 -1.681 0.36000001
-13.035 6.8039999 -1.681 0.5
-12.912 6.6869998 -1.661 0.22
-13.123 6.7449999 -1.688 0.31999999
-12.917 6.5869999 -1.655 0.41
-12.96 6.5580001 -1.658 0.23
-13.277 6.6669998 -1.701 0.40000001
-13.167 6.585 -1.684 0.28999999
-13.123 6.5120001 -1.674 0.40000001
-13.192 6.4949999 -1.681 0.37
-13.287 6.4899998 -1.692 0.36000001
-13.25 6.4200001 -1.684 0.36000001
-13.27 6.3790002 -1.684 0.33000001
-13.346 6.3889999 -1.693 0.38999999
-13.341 6.336 -1.6900001 0.38
-13.501 6.3600001 -1.709 0.36000001
-13.442 6.2800002 -1.698 0.43000001
-13.329 6.1760001 -1.6799999 0.31999999
-13.269 6.098 -1.668 0.36000001
-13.363 6.0910001 -1.679 0.43000001
-13.35 6.059 -1.676 0.34999999
-13.215 5.947 -1.654 0.31999999
-13.36 5.9629998 -1.6720001 0.38999999
-13.431 5.9439998 -1.679 0.38999999
-13.534 5.9390001 -1.691 0.36000001
-13.578 5.9070001 -1.6950001 0.40000001
-13.578 5.8569999 -1.692 0.36000001
-13.625 5.8260002 -1.696 0.36000001
-13.802 5.8769999 -1.719 0.40000001
-13.872 5.855 -1.726 0.31
-13.912 5.8210001 -1.73 0.41
-13.923 5.7740002 -1.728 0.34999999
-13.961 5.7389998 -1.7309999 0.41999999
-13.999 5.7030001 -1.734 0.38999999
-14.131 5.7049999 -1.75 0.34
-14.179 5.6989999 -1.755 0.44
-14.206 5.658 -1.756 0.34
-14.29 5.6389999 -1.766 0.44999999
-14.328 5.6020002 -1.768 0.34999999
-14.425 5.5879998 -1.779 0.38999999
-14.502 5.566 -1.7869999 0.41
-14.536 5.527 -1.79 0.40000001
-14.57 5.5139999 -1.793 0.25
-14.842 5.5640001 -1.8279999 0.5
-14.755 5.4780002 -1.814 0.31999999
-15.007 5.5180001 -1.846 0.34
-15.058 5.4840002 -1.85 0.30000001
-15.142 5.461 -1.859 0.31
-15.267 5.4520001 -1.874 0.30000001
-15.405 5.474 -1.892 0.33000001
-15.529 5.4629998 -1.906 0.28999999
-15.675 5.46 -1.924 0.31
-15.808 5.4510002 -1.939 0.31
-15.955 5.4450002 -1.957 0.33000001
-16.094 5.4369998 -1.973 0.31999999
-16.239 5.4289999 -1.9910001 0.34
-16.327999 5.4310002 -2.0009999 0.33000001
-16.360001 5.3839998 -2.003 0.28999999
-16.392 5.3379998 -2.006 0.28
-16.399 5.283 -2.0039999 0.27000001
-16.427 5.2350001 -2.006 0.27000001
-16.447001 5.1849999 -2.006 0.27000001
-16.445 5.1269999 -2.0039999 0.25999999
-16.462 5.1040001 -2.0050001 0.2
-16.476 5.052 -2.0050001 0.43000001
-16.476999 4.9959998 -2.003 0.25
-16.502001 4.947 -2.0039999 0.25
-16.531 4.8990002 -2.006 0.2
-16.525 4.8410001 -2.003 0.41
-16.532 4.7859998 -2.0020001 0.23999999
-16.561001 4.7379999 -2.0039999 0.20999999
-16.57 4.7129998 -2.0039999 0.38
-16.608 4.6669998 -2.007 0.20999999
-16.617001 4.6129999 -2.006 0.25
-16.612 4.5560002 -2.0039999 0.20999999
-16.636 4.506 -2.0050001 0.22
-16.65 4.454 -2.0050001 0.2
-16.673 4.4039998 -2.006 0.22
-16.671 4.3759999 -2.0050001 0.2
-16.700001 4.3270001 -2.007 0.20999999
-16.698 4.2709999 -2.0050001 0.19
-16.721001 4.2210002 -2.006 0.20999999
-16.733999 4.1680002 -2.006 0.2
-16.735001 4.1129999 -2.0050001 0.22
-16.76 4.0630002 -2.006 0.18000001
-16.757999 4.0349998 -2.0050001 0.34
-16.777 3.983 -2.006 0.2
-16.766001 3.925 -2.003 0.34
-16.792 3.8759999 -2.0050001 0.2
-16.788 3.819 -2.003 0.34999999
-16.802 3.767 -2.003 0.18000001
-16.806 3.7119999 -2.0020001 0.34999999
-16.802 3.684 -2.0009999 0.22
-16.816 3.632 -2.0009999 0.20999999
-16.834999 3.5799999 -2.0020001 0.37
-16.834 3.5250001 -2 0.23
-16.857 3.4749999 -2.0020001 0.20999999
-16.878 3.424 -2.003 0.38
-16.875 3.368 -2.0009999 0.22
-16.886 3.342 -2.0020001 0.2
-16.893999 3.289 -2.0020001 0.36000001
-16.893 3.234 -2 0.2
-16.909 3.1819999 -2.0009999 0.36000001
-16.934 3.131 -2.003 0.20999999
-16.938 3.0769999 -2.0020001 0.23
-16.940001 3.0220001 -2.0009999 0.2
-16.952999 2.97 -2.0020001 0.20999999
-16.968 2.9449999 -2.003 0.18000001
-16.971001 2.891 -2.0020001 0.31999999
-16.983999 2.8380001 -2.003 0.2
-16.993 2.7850001 -2.003 0.18000001
-16.997 2.7309999 -2.0020001 0.28999999
-17.016001 2.6789999 -2.0039999 0.2
-16.995001 2.6210001 -2 0.18000001
-17.030001 2.599 -2.0039999 0.20999999
-17.049999 2.5469999 -2.006 0.18000001
-17.049999 2.4920001 -2.0050001 0.31
-17.07 2.441 -2.006 0.19
-17.066999 2.385 -2.0050001 0.33000001
-17.075001 2.332 -2.0050001 0.18000001
-17.08 2.2780001 -2.0050001 0.34999999
-17.086 2.2509999 -2.0050001 0.19
-17.098 2.198 -2.006 0.34999999
-17.099001 2.1440001 -2.0050001 0.19
-17.118 2.092 -2.006 0.37
-17.132 2.039 -2.007 0.18000001
-17.136999 1.985 -2.007 0.38
-17.146999 1.931 -2.0079999 0.22
-17.177 1.908 -2.0109999 0.22
-17.207001 1.8559999 -2.0139999 0.15000001
-17.197001 1.8 -2.0120001 0.14
-17.233999 1.75 -2.016 0.18000001
-17.235001 1.6950001 -2.016 0.38999999
-17.237 1.641 -2.0150001 0.22
-17.236 1.586 -2.0139999 0.20999999
-17.238001 1.559 -2.0139999 0.37
-17.063999 1.462 -1.9910001 0.18000001
-17.08 1.409 -1.993 0.38999999
-17.073999 1.382 -1.992 0.19
-17.087999 1.329 -1.993 0.34
-17.120001 1.277 -1.9960001 0.19
-17.122 1.223 -1.9960001 0.33000001
-17.124001 1.169 -1.9960001 0.17
-17.145 1.117 -1.998 0.34999999
-17.150999 1.063 -1.998 0.2
-17.132 1.008 -1.9960001 0.31999999
-17.142 0.98100001 -1.997 0.2
-17.132999 0.92699999 -1.995 0.34
-17.128 0.87199998 -1.994 0.18000001
-17.118 0.81800002 -1.993 0.34999999
-17.122999 0.764 -1.993 0.18000001
-17.121 0.70999998 -1.992 0.36000001
-17.118999 0.65600002 -1.992 0.2
-17.117001 0.62900001 -1.9910001 0.23999999
-17.105 0.57499999 -1.99 0.20999999
-17.115999 0.52200001 -1.9910001 0.17
-17.124001 0.46799999 -1.992 0.38999999
-17.111 0.414 -1.99 0.22
-17.129999 0.361 -1.992 0.2
-17.121 0.30700001 -1.9910001 0.36000001
-17.129999 0.28 -1.992 0.19
-17.122999 0.226 -1.9910001 0.36000001
-17.111 0.17200001 -1.989 0.19
-17.118 0.118 -1.99 0.37
-17.114 0.064999998 -1.99 0.2
-17.104 0.011 -1.988 0.23999999
-17.108 -0.043000001 -1.989 0.2
-17.112 -0.07 -1.989 0.23
-17.106001 -0.124 -1.989 0.2
-17.113001 -0.177 -1.99 0.23
-17.099001 -0.23100001 -1.988 0.2
-17.110001 -0.285 -1.989 0.23
-17.115 -0.33899999 -1.99 0.18000001
-17.106001 -0.39199999 -1.989 0.34
-17.105 -0.419 -1.989 0.2
-17.104 -0.47299999 -1.989 0.34
-17.098 -0.52700001 -1.989 0.18000001
-17.09 -0.57999998 -1.988 0.36000001
-17.093 -0.634 -1.988 0.18000001
-17.096001 -0.68800002 -1.989 0.37
-17.091999 -0.741 -1.989 0.2
-17.108999 -0.76899999 -1.9910001 0.36000001
-17.1 -0.82300001 -1.99 0.22
-17.112 -0.87699997 -1.992 0.18000001
-17.097 -0.93000001 -1.9910001 0.38999999
-17.098 -0.98400003 -1.9910001 0.23
-17.097 -1.038 -1.9910001 0.2
-17.079 -1.091 -1.99 0.38999999
-17.062 -1.143 -1.988 0.23
-17.062 -1.17 -1.988 0.2
-17.054001 -1.224 -1.988 0.41
-17.059999 -1.278 -1.989 0.22
-17.048 -1.331 -1.988 0.16
-17.066 -1.386 -1.9910001 0.27000001
-17.070999 -1.441 -1.992 0.33000001
-17.042999 -1.492 -1.989 0.47999999
-17.063999 -1.521 -1.992 0.31999999
-17.032 -1.572 -1.988 0.56999999
-17.013 -1.624 -1.9859999 0.38999999
-17.025999 -1.6799999 -1.989 0.41999999
-17.021999 -1.733 -1.989 0.25
-17.025 -1.788 -1.99 0.2
-17.024 -1.814 -1.99 0.41
-17.021999 -1.868 -1.9910001 0.23
-17.025999 -1.923 -1.992 0.2
-17.014 -1.976 -1.9910001 0.41999999
-17.007 -2.029 -1.9910001 0.23
-16.997 -2.082 -1.9910001 0.19
-16.988001 -2.135 -1.9910001 0.38999999
-16.98 -2.188 -1.99 0.23999999
-16.98 -2.2160001 -1.9910001 0.2
-16.965 -2.2679999 -1.99 0.38999999
-16.959999 -2.3210001 -1.99 0.23
-16.943001 -2.3729999 -1.989 0.2
-16.943001 -2.428 -1.99 0.38999999
-16.926001 -2.4790001 -1.989 0.23
-16.933001 -2.5350001 -1.9910001 0.23
-16.926001 -2.5610001 -1.99 0.22
-16.921 -2.615 -1.9910001 0.41
-16.889 -2.664 -1.988 0.23999999
-16.879 -2.717 -1.987 0.25999999
-16.9 -2.7750001 -1.9910001 0.2
-16.875 -2.825 -1.989 0.41999999
-16.864 -2.878 -1.989 0.23999999
-16.885 -2.9089999 -1.992 0.25
-16.862 -2.9590001 -1.99 0.18000001
-16.844999 -3.0109999 -1.989 0.43000001
-16.83 -3.063 -1.989 0.25
-16.812 -3.1140001 -1.988 0.2
-16.804001 -3.1670001 -1.988 0.41
-16.799999 -3.221 -1.989 0.23
-16.791 -3.247 -1.988 0.19
-16.785 -3.3 -1.989 0.38999999
-16.768999 -3.352 -1.988 0.23
-16.754 -3.404 -1.987 0.2
-16.743 -3.4560001 -1.987 0.37
-16.738001 -3.51 -1.988 0.19
-16.719 -3.5610001 -1.987 0.37
-16.723 -3.589 -1.988 0.2
-16.709999 -3.642 -1.988 0.23
-16.691 -3.6919999 -1.987 0.20999999
-16.695 -3.7479999 -1.989 0.2
-16.677 -3.799 -1.988 0.36000001
-16.655001 -3.849 -1.987 0.23
-16.657 -3.905 -1.989 0.2
-16.652 -3.9319999 -1.989 0.41
-16.625 -3.98 -1.987 0.23999999
-16.622 -4.0349998 -1.988 0.19
-16.624001 -4.0910001 -1.99 0.41
-16.594 -4.1389999 -1.988 0.25
-16.573 -4.1890001 -1.987 0.25999999
-16.559999 -4.2410002 -1.987 0.25
-16.545 -4.2919998 -1.987 0.25999999
-16.525999 -4.3150001 -1.985 0.27000001
-16.525999 -4.3709998 -1.987 0.25
-16.493 -4.4180002 -1.984 0.19
-16.473 -4.4679999 -1.984 0.44
-16.457001 -4.5190001 -1.983 0.25
-16.443001 -4.5710001 -1.983 0.22
-16.423 -4.6209998 -1.983 0.38
-16.416 -4.6459999 -1.983 0.23
-16.434999 -4.7080002 -1.987 0.25
-16.409 -4.756 -1.9859999 0.20999999
-16.368999 -4.8000002 -1.982 0.28
-16.236 -4.8169999 -1.967 0.41
-16.181 -4.8559999 -1.961 0.19
-16.153999 -4.9029999 -1.96 0.55000001
-16.173 -4.9369998 -1.9630001 0.41999999
-16.093 -4.9679999 -1.955 0.31999999
-15.935 -4.974 -1.936 0.34999999
-15.778 -4.98 -1.9170001 0.34
-15.595 -4.9770002 -1.8940001 0.33000001
-15.463 -4.9879999 -1.8789999 0.34
-15.311 -4.9920001 -1.86 0.34
-15.171 -4.973 -1.8430001 0.31
-15.029 -4.9790001 -1.826 0.38
-14.865 -4.9770002 -1.806 0.31
-14.742 -4.9879999 -1.791 0.36000001
-14.595 -4.9889998 -1.773 0.30000001
-14.468 -4.9970002 -1.758 0.31999999
-14.383 -5.0190001 -1.749 0.36000001
-14.332 -5.026 -1.743 0.30000001
-14.283 -5.059 -1.739 0.31999999
-14.227 -5.0900002 -1.733 0.31999999
-14.193 -5.1279998 -1.7309999 0.37
-14.156 -5.165 -1.728 0.31999999
-14.108 -5.198 -1.724 0.37
-14.092 -5.2420001 -1.724 0.30000001
-14.074 -5.2610002 -1.722 0.36000001
-14.05 -5.302 -1.721 0.31
-14.018 -5.3410001 -1.719 0.34999999
-13.996 -5.3829999 -1.719 0.34999999
-13.974 -5.4250002 -1.7180001 0.34
-13.945 -5.4640002 -1.716 0.34
-13.919 -5.5040002 -1.715 0.33000001
-13.916 -5.5279999 -1.716 0.31999999
-13.876 -5.5630002 -1.7130001 0.33000001
-13.848 -5.6020002 -1.711 0.31999999
-13.824 -5.6440001 -1.71 0.31
-13.803 -5.6849999 -1.71 0.34
-13.776 -5.7249999 -1.709 0.31999999
-13.75 -5.7649999 -1.7079999 0.31999999
-13.718 -5.802 -1.706 0.31999999
-13.709 -5.8239999 -1.706 0.31
-13.676 -5.8610001 -1.704 0.31
-13.65 -5.9000001 -1.7029999 0.28999999
-13.622 -5.9390001 -1.701 0.31999999
-13.596 -5.9790001 -1.7 0.30000001
-13.572 -6.0190001 -1.7 0.28999999
-13.533 -6.053 -1.697 0.28999999
-13.52 -6.072 -1.696 0.28999999
-13.497 -6.1129999 -1.696 0.28999999
-13.47 -6.152 -1.6950001 0.28999999
-13.449 -6.1939998 -1.6950001 0.30000001
-13.414 -6.2290001 -1.692 0.28999999
-13.374 -6.2610002 -1.689 0.30000001
-13.336 -6.2950001 -1.687 0.28999999
-13.321 -6.3130002 -1.686 0.30000001
-13.292 -6.3509998 -1.6849999 0.30000001
-13.263 -6.388 -1.684 0.30000001
-13.227 -6.4219999 -1.681 0.28999999
-13.209 -6.4650002 -1.682 0.19
-13.21 -6.5170002 -1.6849999 0.28999999
-13.161 -6.5440001 -1.681 0.74000001
-13.118 -6.5489998 -1.676 0.79000002
-13.08 -6.5809999 -1.673 0.75
-13.02 -6.6020002 -1.668 0.69999999
-12.955 -6.6209998 -1.6619999 0.51999998
-12.959 -6.6739998 -1.665 0.34999999
-12.929 -6.71 -1.664 0.31999999
-12.905 -6.7490001 -1.663 0.31999999
-12.884 -6.7639999 -1.6619999 0.31
-12.85 -6.7979999 -1.66 0.31
-12.814 -6.8309999 -1.658 0.31
-12.779 -6.8629999 -1.656 0.30000001
-12.747 -6.8979998 -1.654 0.34
-12.723 -6.9369998 -1.654 0.33000001
-12.696 -6.974 -1.653 0.31999999
-12.67 -6.9850001 -1.651 0.33000001
-12.636 -7.0180001 -1.649 0.31999999
-12.613 -7.0580001 -1.649 0.31999999
-12.581 -7.092 -1.648 0.31999999
-12.553 -7.1279998 -1.647 0.31999999
-12.526 -7.165 -1.646 0.30000001
-12.501 -7.2030001 -1.646 0.33000001
-12.483 -7.2189999 -1.645 0.31999999
-12.454 -7.2540002 -1.6440001 0.33000001
-12.417 -7.2849998 -1.642 0.30000001
-12.385 -7.3189998 -1.641 0.31
-12.35 -7.3509998 -1.6390001 0.31
-12.324 -7.388 -1.638 0.31
-12.289 -7.4190001 -1.637 0.31
-12.272 -7.4349999 -1.636 0.31999999
-12.235 -7.4660001 -1.6339999 0.30000001
-12.21 -7.5029998 -1.6339999 0.31
-12.179 -7.5370002 -1.633 0.31999999
-12.147 -7.5700002 -1.631 0.34
-12.12 -7.6059999 -1.631 0.30000001
-12.078 -7.6329999 -1.628 0.30000001
-12.054 -7.6440001 -1.626 0.31
-12.026 -7.6799998 -1.626 0.31
-11.989 -7.7090001 -1.624 0.31999999
-11.96 -7.743 -1.623 0.31999999
-11.92 -7.7709999 -1.6210001 0.31999999
-11.881 -7.7989998 -1.618 0.31999999
-11.843 -7.8270001 -1.6160001 0.31999999
-11.819 -7.8379998 -1.615 0.31999999
-11.78 -7.8660002 -1.612 0.31999999
-11.756 -7.9039998 -1.613 0.33000001
-11.735 -7.9429998 -1.613 0.33000001
-11.693 -7.9679999 -1.6109999 0.33000001
-11.659 -7.9980001 -1.609 0.34
-11.619 -8.0249996 -1.607 0.34
-11.598 -8.0369997 -1.605 0.28999999
-11.571 -8.073 -1.605 0.34999999
-11.528 -8.0970001 -1.602 0.34
-11.499 -8.1300001 -1.602 0.30000001
-11.457 -8.1549997 -1.599 0.34999999
-11.423 -8.1850004 -1.598 0.30000001
-11.383 -8.2110004 -1.596 0.36000001
-11.367 -8.2259998 -1.595 0.30000001
-11.333 -8.2559996 -1.594 0.38
-11.294 -8.2819996 -1.592 0.31
-11.265 -8.3149996 -1.592 0.34
-11.22 -8.3369999 -1.5880001 0.31999999
-11.19 -8.3690004 -1.5880001 0.31999999
-11.15 -8.3940001 -1.586 0.33000001
-11.125 -8.4029999 -1.584 0.34
-11.085 -8.427 -1.582 0.31999999
-11.055 -8.4589996 -1.581 0.31999999
-10.992 -8.4659996 -1.575 0.33000001
-10.945 -8.4849997 -1.572 0.34999999
-10.91 -8.5129995 -1.571 0.31999999
-10.887 -8.5500002 -1.571 0.34
-10.855 -8.5799999 -1.5700001 0.40000001
-10.845 -8.6000004 -1.571 0.31
-10.799 -8.6190004 -1.568 0.34999999
-10.778 -8.658 -1.569 0.30000001
-10.748 -8.6890001 -1.568 0.34999999
-10.699 -8.7060003 -1.5650001 0.38
-10.648 -8.7200003 -1.561 0.25
-20.972 -17.252001 -3.2739999 0.28999999
-21.035 -17.360001 -3.289 0.28999999
-19.759001 -16.518 -3.0940001 0.5
-20.954 -17.627001 -3.303 0.2
-21.622 -18.304001 -3.424 0.17
-19.287001 -16.434999 -3.0409999 0.40000001
-18.346001 -15.734 -2.892 0.23999999
-18.495001 -15.913 -2.921 0.19
-9.802 -8.5030003 -1.46 0.16
-9.757 -8.5179996 -1.457 0.23999999
-9.6870003 -8.5109997 -1.45 0.28999999
-9.6330004 -8.5179996 -1.4450001 0.28
-9.5649996 -8.5109997 -1.438 0.28999999
-9.5100002 -8.5159998 -1.433 0.28999999
-9.4709997 -8.5080004 -1.429 0.31999999
-9.408 -8.5050001 -1.423 0.28999999
-9.3579998 -8.5129995 -1.419 0.27000001
-9.2980003 -8.5129995 -1.413 0.30000001
-9.2700005 -8.5410004 -1.413 0.25999999
-9.224 -8.552 -1.41 0.13
-9.0480003 -8.4420004 -1.383 0.18000001
-9.1420002 -8.5570002 -1.402 0.11
-17.089001 -16.065001 -2.8 0.23
-9.007 -8.5380001 -1.388 0.33000001
-16.884001 -16.073999 -2.7820001 0.34
-16.792 -16.087 -2.7750001 0.2
-8.8549995 -8.5530005 -1.375 0.2
-16.524 -16.031 -2.7449999 0.5
-8.7080002 -8.4910002 -1.3559999 0.22
-8.6669998 -8.5050001 -1.354 0.36000001
-8.6610003 -8.5530005 -1.358 0.30000001
-16.287001 -16.153 -2.734 0.36000001
-8.5129995 -8.5129995 -1.341 0.34999999
-15.989 -16.058001 -2.6989999 0.17
-15.954 -16.124001 -2.7019999 0.36000001
-8.3780003 -8.5109997 -1.3279999 0.34999999
-17.249001 -17.594 -2.9519999 0.16
-17.223 -17.677999 -2.957 0.38
-8.3809996 -8.6759996 -1.344 0
-8.1809998 -8.5229998 -1.312 0.1
-8.0679998 -8.5120001 -1.301 0.33000001
-8.0530005 -8.5229998 -1.301 0.090000004
-38.564999 -40.929001 -6.9920001 0.12
-7.9359999 -8.5059996 -1.289 0.25999999
-7.9089999 -8.5310001 -1.289 0.14
-38.084999 -41.189999 -6.9749999 0.19
-7.7680001 -8.4849997 -1.272 0.13
-37.646 -41.362999 -6.9530001 0.07
-7.6859999 -8.4490004 -1.262 0
-7.5960002 -8.4829998 -1.257 0
-37.198002 -41.653 -6.9419999 0.090000004
-16.264 -18.349001 -2.937 0.15000001
-7.336 -8.3500004 -1.222 0
-36.672001 -41.985001 -6.9299998 0.13
-7.4250002 -8.5050001 -1.245 0
-7.3379998 -8.4860001 -1.2359999 0.22
-7.3119998 -8.5100002 -1.2359999 0
-36.305 -42.362999 -6.9349999 0
-7.0469999 -8.3610001 -1.199 0
-36.102001 -42.938999 -6.9749999 0.059999999
-7.0419998 -8.4890003 -1.211 0.44999999
-7.0190001 -8.5159998 -1.212 0
-35.73 -43.457001 -6.9949999 0
-6.756 -8.3570004 -1.175 0
-35.304001 -43.772999 -6.9920001 0
-35.229 -43.820999 -6.9910002 0.14
-6.7459998 -8.4790001 -1.187 0.22
-6.6160002 -8.3699999 -1.165 0
-34.780998 -44.109001 -6.9840002 0
-6.4549999 -8.3269997 -1.148 0
-34.236 -44.412998 -6.9720001 0.12
-6.5630002 -8.5209999 -1.176 0
-6.4369998 -8.4399996 -1.158 0.13
-6.4089999 -8.4569998 -1.158 0.23
-6.3870001 -8.4840002 -1.159 0.5
-6.3769999 -8.526 -1.163 0
-33.436001 -44.814999 -6.9510002 0
-6.1300001 -8.3330002 -1.124 0
-33.013 -44.980999 -6.9359999 0
-21.662001 -29.725 -4.5040002 0
-5.987 -8.3570004 -1.1160001 0
-32.345001 -45.250999 -6.914 0
-32.167 -45.303001 -6.9060001 0.050000001
-5.9530001 -8.4490004 -1.123 0.11
-5.842 -8.3470001 -1.104 0
-31.766001 -45.491001 -6.8959999 0
-31.621 -45.589001 -6.8959999 0
-5.6750002 -8.3299999 -1.09 0
-31.169001 -45.853001 -6.8909998 0
-31.112 -45.924 -6.8940001 0
-5.5479999 -8.3389997 -1.082 0
-30.684 -46.224998 -6.8959999 0
-30.528999 -46.306 -6.8940001 0
-5.3870001 -8.323 -1.069 0
-30.033001 -46.501999 -6.8800001 0
-29.945999 -46.527 -6.8769999 0.059999999
-5.4679999 -8.6529999 -1.11 0
-5.3130002 -8.4680004 -1.079 0
-29.289 -46.789001 -6.8600001 0
-29.122999 -46.849998 -6.855 0.11
-5.1989999 -8.4630003 -1.071 0.25
-5.191 -8.4799995 -1.072 0
-28.731001 -47.039001 -6.849 0
-28.552 -47.077999 -6.842 0
-4.9400001 -8.3039999 -1.0369999 0
-28.018 -47.195 -6.8200002 0
-27.886 -47.140999 -6.8049998 0.090000004
-4.8410001 -8.3450003 -1.035 0.18000001
-4.8769999 -8.4680004 -1.051 0.14
-17.865 -31.104 -4.388 0.28999999
-17.518999 -30.726 -4.3239999 0.27000001
-4.7449999 -8.4519997 -1.04 0.47
-17.35 -30.992001 -4.3429999 0.14
-17.250999 -31.042999 -4.3429999 0.38
-17.184 -31.153 -4.3509998 0.28
-4.599 -8.4399996 -1.03 0.27000001
-4.5809999 -8.4700003 -1.0319999 0.31
-16.737 -31.031 -4.3099999 0.23999999
-16.723 -31.239 -4.3319998 0.28
-16.985001 -31.848 -4.4169998 0.12
-4.5510001 -8.6389999 -1.05 0
