# .PCD v0.7 - Point Cloud Data file format
VERSION 0.7
FIELDS x y z intensity
SIZE 4 4 4 4
TYPE F F F F
COUNT 1 1 1 1
WIDTH 1420
HEIGHT 1
VIEWPOINT 0 0 0 1 0 0 0
POINTS 1420
DATA ascii
2.1040001 4.6869998 -1.724 0.18000001
2.098 4.6939998 -1.726 0.17
2.089 4.7140002 -1.7309999 0.18000001
2.066 4.7020001 -1.724 0.18000001
2.0539999 4.7129998 -1.726 0.18000001
2.0369999 4.7160001 -1.724 0.17
2.029 4.7379999 -1.73 0.17
2.0139999 4.744 -1.73 0.090000004
2.0039999 4.7410002 -1.728 0.079999998
1.9910001 4.7519999 -1.73 0.16
1.979 4.7639999 -1.732 0.16
1.959 4.7579999 -1.727 0.16
1.949 4.7779999 -1.732 0.18000001
1.936 4.789 -1.734 0.17
1.9220001 4.7969999 -1.735 0.16
1.899 4.7820001 -1.727 0.039999999
1.897 4.7989998 -1.732 0.079999998
1.887 4.8189998 -1.738 0.16
1.8710001 4.823 -1.737 0.16
1.855 4.8249998 -1.7359999 0.18000001
1.8380001 4.8270001 -1.734 0.16
1.8200001 4.8239999 -1.7309999 0.039999999
1.813 4.8530002 -1.74 0.079999998
1.806 4.8579998 -1.7410001 0.079999998
1.79 4.8600001 -1.739 0.15000001
1.772 4.8600001 -1.737 0.16
1.76 4.8740001 -1.7410001 0.17
1.7460001 4.882 -1.7410001 0.16
1.725 4.8730001 -1.7359999 0.039999999
1.712 4.8839998 -1.738 0.07
1.71 4.9039998 -1.745 0.16
1.689 4.8930001 -1.738 0.039999999
1.677 4.908 -1.742 0.07
1.659 4.9060001 -1.739 0.16
1.646 4.9159999 -1.7410001 0.039999999
1.632 4.927 -1.743 0.07
1.615 4.928 -1.742 0.16
1.603 4.9419999 -1.745 0.17
1.59 4.9289999 -1.739 0.039999999
1.5829999 4.961 -1.749 0.079999998
1.562 4.9489999 -1.743 0.079999998
1.544 4.947 -1.7410001 0.079999998
1.536 4.973 -1.749 0.079999998
1.521 4.98 -1.749 0.079999998
1.5039999 4.9829998 -1.749 0.079999998
1.492 4.9710002 -1.743 0.15000001
1.475 4.9720001 -1.742 0.039999999
1.465 4.9949999 -1.749 0.07
1.447 4.9899998 -1.745 0.039999999
1.436 5.0110002 -1.751 0.07
1.416 5.0029998 -1.747 0.090000004
1.406 5.027 -1.7539999 0.090000004
1.387 5.0170002 -1.749 0.079999998
1.382 5.0320001 -1.753 0.079999998
1.365 5.033 -1.752 0.079999998
1.347 5.0279999 -1.749 0.15000001
1.331 5.0320001 -1.749 0.16
1.316 5.04 -1.75 0.17
1.304 5.0570002 -1.755 0.17
1.283 5.0409999 -1.747 0.039999999
1.2819999 5.0700002 -1.757 0.14
1.263 5.0630002 -1.753 0.18000001
1.2460001 5.0630002 -1.752 0.17
1.2309999 5.0689998 -1.753 0.16
1.215 5.0749998 -1.753 0.18000001
1.2 5.0819998 -1.755 0.17
1.187 5.0970001 -1.7589999 0.18000001
1.176 5.0879998 -1.755 0.18000001
1.16 5.092 -1.755 0.18000001
1.145 5.0970001 -1.755 0.17
1.126 5.086 -1.75 0.039999999
1.117 5.1240001 -1.763 0.14
1.094 5.0970001 -1.751 0.039999999
1.082 5.1160002 -1.757 0.14
1.071 5.1030002 -1.752 0.039999999
1.059 5.1290002 -1.76 0.14
1.0420001 5.125 -1.757 0.050000001
1.026 5.1279998 -1.757 0.15000001
1.0089999 5.1290002 -1.757 0.18000001
0.99400002 5.138 -1.7589999 0.17
0.97899997 5.1490002 -1.761 0.17
0.96100003 5.1420002 -1.758 0.17
0.954 5.1459999 -1.7589999 0.17
0.93800002 5.152 -1.76 0.16
0.92299998 5.1630001 -1.763 0.17
0.90600002 5.1560001 -1.7589999 0.039999999
0.89300001 5.178 -1.766 0.14
0.87300003 5.1620002 -1.7589999 0.050000001
0.85799998 5.1700001 -1.761 0.16
0.85000002 5.1729999 -1.762 0.18000001
0.83499998 5.1820002 -1.7640001 0.17
0.81599998 5.171 -1.7589999 0.039999999
0.80400002 5.1999998 -1.7690001 0.14
0.78500003 5.1859999 -1.763 0.050000001
0.77100003 5.2010002 -1.768 0.15000001
0.755 5.2049999 -1.768 0.19
0.74800003 5.2179999 -1.772 0.16
0.72899997 5.1989999 -1.765 0.050000001
0.71700001 5.23 -1.775 0.17
0.69499999 5.197 -1.762 0.050000001
0.68199998 5.223 -1.771 0.16
0.66500002 5.2160001 -1.768 0.19
0.648 5.2199998 -1.768 0.090000004
0.634 5.2379999 -1.774 0.15000001
0.62199998 5.2080002 -1.763 0.050000001
0.61000001 5.2490001 -1.777 0.14
0.58999997 5.217 -1.765 0.050000001
0.57599998 5.2410002 -1.773 0.16
0.55900002 5.2360001 -1.77 0.2
0.54299998 5.243 -1.772 0.1
0.52600002 5.243 -1.772 0.090000004
0.51999998 5.2659998 -1.78 0.14
0.5 5.2319999 -1.767 0.050000001
0.48699999 5.2639999 -1.778 0.17
0.47 5.2610002 -1.776 0.19
0.45300001 5.2589998 -1.775 0.18000001
0.43700001 5.2639999 -1.776 0.090000004
0.421 5.277 -1.78 0.18000001
0.41100001 5.2610002 -1.774 0.2
0.396 5.2729998 -1.778 0.1
0.38100001 5.3010001 -1.788 0.15000001
0.36199999 5.2639999 -1.774 0.050000001
0.347 5.2919998 -1.784 0.16
0.329 5.2740002 -1.777 0.19
0.31299999 5.2859998 -1.781 0.090000004
0.296 5.2800002 -1.778 0.15000001
0.287 5.2670002 -1.774 0.050000001
0.271 5.2789998 -1.778 0.17
0.25400001 5.2610002 -1.771 0.050000001
0.23800001 5.2750001 -1.776 0.17
0.221 5.27 -1.774 0.050000001
0.205 5.2839999 -1.778 0.16
0.189 5.2849998 -1.778 0.2
0.18099999 5.2940001 -1.7819999 0.090000004
0.164 5.3039999 -1.785 0.17
0.147 5.29 -1.78 0.20999999
0.131 5.2919998 -1.78 0.090000004
0.115 5.3189998 -1.79 0.15000001
0.097000003 5.289 -1.779 0.050000001
0.081 5.2969999 -1.7819999 0.16
0.071999997 5.2820001 -1.776 0.050000001
0.056000002 5.3010001 -1.783 0.17
0.039000001 5.303 -1.784 0.20999999
0.023 5.2969999 -1.7819999 0.1
0.0060000001 5.3070002 -1.785 0.15000001
-0.011 5.2800002 -1.776 0.050000001
-0.027000001 5.2950001 -1.781 0.16
-0.035999998 5.2919998 -1.78 0.050000001
-0.052000001 5.3010001 -1.783 0.17
-0.068999998 5.289 -1.779 0.2
-0.086000003 5.3039999 -1.784 0.18000001
-0.102 5.2979999 -1.7819999 0.1
-0.119 5.3070002 -1.786 0.16
-0.13600001 5.3049998 -1.785 0.050000001
-0.152 5.3070002 -1.786 0.16
-0.161 5.2989998 -1.783 0.20999999
-0.178 5.3150001 -1.789 0.1
-0.19499999 5.3330002 -1.796 0.16
-0.20999999 5.2880001 -1.78 0.050000001
-0.228 5.323 -1.793 0.17
-0.244 5.3070002 -1.7869999 0.2
-0.26100001 5.3060002 -1.7869999 0.1
-0.271 5.3390002 -1.799 0.16
-0.285 5.2880001 -1.781 0.050000001
-0.303 5.3150001 -1.791 0.16
-0.31999999 5.3179998 -1.793 0.11
-0.33700001 5.323 -1.795 0.18000001
-0.352 5.2909999 -1.784 0.050000001
-0.37 5.3150001 -1.793 0.17
-0.38499999 5.2849998 -1.7819999 0.19
-0.39399999 5.296 -1.786 0.1
-0.412 5.3150001 -1.794 0.18000001
-0.428 5.2989998 -1.788 0.11
-0.44499999 5.3049998 -1.791 0.18000001
-0.461 5.3000002 -1.79 0.11
-0.479 5.3080001 -1.793 0.16
-0.493 5.2820001 -1.784 0.050000001
-0.50400001 5.3060002 -1.793 0.16
-0.51800001 5.2779999 -1.784 0.050000001
-0.537 5.3000002 -1.793 0.17
-0.55400002 5.2989998 -1.793 0.11
-0.57200003 5.3119998 -1.798 0.17
-0.58499998 5.2800002 -1.7869999 0.050000001
-0.60399997 5.3010001 -1.795 0.16
-0.61900002 5.2820001 -1.789 0.11
-0.63 5.3049998 -1.798 0.16
-0.64399999 5.2750001 -1.788 0.050000001
-0.66100001 5.2839999 -1.7920001 0.17
-0.676 5.2649999 -1.786 0.20999999
-0.69400001 5.2779999 -1.791 0.1
-0.71200001 5.2820001 -1.793 0.18000001
-0.727 5.2719998 -1.79 0.20999999
-0.73699999 5.2820001 -1.795 0.1
-0.755 5.2870002 -1.7970001 0.18000001
-0.76700002 5.2509999 -1.785 0.050000001
-0.78899997 5.29 -1.8 0.16
-0.80199999 5.2610002 -1.79 0.19
-0.81900001 5.2600002 -1.791 0.090000004
-0.83700001 5.2690001 -1.795 0.090000004
-0.84500003 5.2680001 -1.795 0.16
-0.85799998 5.243 -1.7869999 0.050000001
-0.87900001 5.2680001 -1.7970001 0.16
-0.89099997 5.2389998 -1.788 0.050000001
-0.912 5.2589998 -1.796 0.16
-0.92799997 5.257 -1.7970001 0.2
-0.94099998 5.2340002 -1.789 0.1
-0.96200001 5.257 -1.799 0.16
-0.96700001 5.2329998 -1.79 0.050000001
-0.98400003 5.2340002 -1.7920001 0.17
-0.99800003 5.2220001 -1.788 0.050000001
-1.02 5.244 -1.798 0.16
-1.031 5.2129998 -1.788 0.050000001
-1.051 5.23 -1.795 0.17
-1.068 5.2309999 -1.7970001 0.11
-1.077 5.2329998 -1.798 0.16
-1.089 5.204 -1.788 0.050000001
-1.1109999 5.2280002 -1.799 0.15000001
-1.1210001 5.1950002 -1.788 0.050000001
-1.141 5.2080002 -1.794 0.16
-1.154 5.1890001 -1.788 0.050000001
-1.176 5.2119999 -1.798 0.16
-1.182 5.2020001 -1.795 0.19
-1.199 5.1999998 -1.796 0.16
-1.214 5.1890001 -1.793 0.16
-1.23 5.1859999 -1.793 0.17
-1.249 5.1939998 -1.798 0.090000004
-1.2690001 5.2049999 -1.803 0.16
-1.276 5.1630001 -1.789 0.050000001
-1.299 5.184 -1.799 0.16
-1.3049999 5.1750002 -1.796 0.19
-1.323 5.1760001 -1.798 0.090000004
-1.3430001 5.1869998 -1.803 0.15000001
-1.351 5.1500001 -1.791 0.050000001
-1.37 5.1599998 -1.7970001 0.16
-1.383 5.1430001 -1.7920001 0.050000001
-1.399 5.138 -1.7920001 0.14
-1.409 5.1420002 -1.794 0.050000001
-1.429 5.152 -1.799 0.16
-1.4400001 5.1290002 -1.793 0.050000001
-1.461 5.1430001 -1.799 0.14
-1.473 5.1220002 -1.793 0.050000001
-1.495 5.1370001 -1.801 0.14
-1.5039999 5.1069999 -1.791 0.050000001
-1.524 5.1170001 -1.7970001 0.16
-1.536 5.1269999 -1.801 0.19
-1.55 5.1149998 -1.799 0.18000001
-1.562 5.099 -1.795 0.17
-1.577 5.0910001 -1.793 0.039999999
-1.597 5.0960002 -1.7970001 0.16
-1.608 5.0770001 -1.7920001 0.050000001
-1.6289999 5.0879998 -1.798 0.16
-1.63 5.0619998 -1.789 0.050000001
-1.655 5.086 -1.8 0.16
-1.664 5.059 -1.7920001 0.050000001
-1.684 5.0679998 -1.7970001 0.16
-1.699 5.059 -1.796 0.050000001
-1.719 5.066 -1.801 0.14
-1.727 5.0380001 -1.7920001 0.050000001
-1.745 5.0650001 -1.803 0.16
-1.753 5.0349998 -1.794 0.19
-1.77 5.0349998 -1.796 0.18000001
-1.781 5.0149999 -1.79 0.039999999
-1.798 5.013 -1.7920001 0.07
-1.823 5.0320001 -1.801 0.079999998
-1.834 5.0139999 -1.7970001 0.079999998
-1.844 5.0159998 -1.799 0.079999998
-1.857 5.0019999 -1.795 0.079999998
-1.8789999 5.013 -1.802 0.079999998
-1.891 4.9990001 -1.799 0.15000001
-1.902 4.9790001 -1.793 0.039999999
-1.919 4.9759998 -1.795 0.07
-1.9299999 4.96 -1.79 0.039999999
-1.946 4.9530001 -1.79 0.07
-1.955 4.954 -1.7920001 0.16
-1.973 4.9530001 -1.794 0.039999999
-1.989 4.9499998 -1.795 0.079999998
-2.003 4.9390001 -1.793 0.079999998
-2.0220001 4.941 -1.7970001 0.079999998
-2.039 4.9380002 -1.798 0.16
-2.052 4.927 -1.796 0.18000001
-2.062 4.9060001 -1.79 0.039999999
-2.073 4.9120002 -1.794 0.07
-2.089 4.9070001 -1.795 0.15000001
-2.1059999 4.902 -1.795 0.039999999
-2.122 4.8990002 -1.7970001 0.079999998
-2.135 4.8850002 -1.794 0.15000001
-2.1489999 4.8769999 -1.793 0.039999999
-2.1670001 4.875 -1.795 0.07
-2.175 4.8720002 -1.795 0.079999998
-2.191 4.8670001 -1.796 0.14
-2.204 4.855 -1.794 0.039999999
-2.22 4.8509998 -1.795 0.07
-2.233 4.8390002 -1.793 0.039999999
-2.2520001 4.8390002 -1.796 0.079999998
-2.2679999 4.8330002 -1.7970001 0.079999998
-2.2679999 4.8140001 -1.79 0.039999999
-2.2909999 4.8239999 -1.7970001 0.07
-2.3039999 4.8119998 -1.795 0.15000001
-2.3169999 4.8010001 -1.794 0.039999999
-2.3340001 4.7969999 -1.795 0.07
-2.348 4.7870002 -1.794 0.079999998
-2.358 4.7709999 -1.79 0.14
-2.3740001 4.7649999 -1.791 0.16
-2.385 4.7680001 -1.794 0.16
-2.398 4.757 -1.793 0.039999999
-2.414 4.7509999 -1.793 0.07
-2.4319999 4.7490001 -1.795 0.079999998
-2.4400001 4.7290001 -1.79 0.079999998
-2.4630001 4.737 -1.7970001 0.079999998
-2.4679999 4.7090001 -1.788 0.15000001
-2.467 4.6900001 -1.7819999 0.039999999
-2.4909999 4.7010002 -1.79 0.07
-2.5039999 4.6880002 -1.788 0.079999998
-2.517 4.6760001 -1.786 0.079999998
-2.5339999 4.6739998 -1.788 0.079999998
-2.5409999 4.652 -1.783 0.039999999
-2.5599999 4.6529999 -1.786 0.07
-2.569 4.6500001 -1.7869999 0.16
-2.5810001 4.6389999 -1.786 0.17
-2.589 4.6170001 -1.78 0.17
-2.608 4.618 -1.784 0.16
-2.6170001 4.599 -1.78 0.17
-2.6359999 4.599 -1.783 0.18000001
-2.648 4.5879998 -1.7819999 0.090000004
-2.652 4.5770001 -1.779 0.090000004
-2.678 4.5879998 -1.7869999 0.15000001
-2.6730001 4.5469999 -1.774 0.050000001
-2.7049999 4.5700002 -1.786 0.14
-2.7 4.527 -1.772 0.050000001
-2.7279999 4.5430002 -1.7819999 0.14
-2.74 4.5300002 -1.78 0.050000001
-2.7579999 4.527 -1.783 0.17
-2.7490001 4.4970002 -1.772 0.050000001
-2.779 4.5139999 -1.783 0.15000001
-2.7780001 4.4819999 -1.773 0.20999999
-2.7920001 4.4710002 -1.772 0.1
-2.822 4.4899998 -1.784 0.15000001
-2.8080001 4.434 -1.7640001 0.050000001
-2.8340001 4.4450002 -1.772 0.17
-2.832 4.427 -1.767 0.050000001
-2.8570001 4.4359999 -1.774 0.17
-2.862 4.4130001 -1.768 0.11
-2.888 4.4229999 -1.776 0.18000001
-2.891 4.3959999 -1.7690001 0.22
-2.905 4.3870001 -1.7690001 0.1
-2.9300001 4.395 -1.776 0.18000001
-2.928 4.3629999 -1.766 0.12
-2.954 4.3860002 -1.778 0.18000001
-2.957 4.3610001 -1.772 0.22
-2.977 4.3610001 -1.776 0.16
-2.9809999 4.3379998 -1.77 0.23999999
-3.003 4.3410001 -1.775 0.17
-3.0050001 4.3140001 -1.768 0.25
-3.023 4.3109999 -1.77 0.18000001
-3.023 4.2969999 -1.766 0.25
-3.05 4.3060002 -1.774 0.17
-3.046 4.2719998 -1.763 0.23
-3.073 4.2820001 -1.772 0.16
-3.0699999 4.25 -1.762 0.25
-3.0999999 4.263 -1.772 0.19
-3.099 4.2329998 -1.763 0.12
-3.1040001 4.2249999 -1.762 0.20999999
-3.1170001 4.2160001 -1.762 0.17
-3.1300001 4.2059999 -1.762 0.27000001
-3.1570001 4.2140002 -1.77 0.18000001
-3.1500001 4.177 -1.758 0.25
-3.1819999 4.1929998 -1.77 0.19
-3.177 4.1589999 -1.7589999 0.12
-3.1889999 4.1469998 -1.758 0.18000001
-3.1919999 4.138 -1.756 0.11
-3.2260001 4.1539998 -1.768 0.16
-3.21 4.1069999 -1.751 0.050000001
-3.24 4.119 -1.761 0.16
-3.2509999 4.1059999 -1.76 0.19
-3.2639999 4.0960002 -1.76 0.1
-3.2880001 4.0999999 -1.767 0.15000001
-3.2709999 4.066 -1.753 0.050000001
-3.2950001 4.0689998 -1.7589999 0.16
-3.3039999 4.0539999 -1.757 0.2
-3.3150001 4.0419998 -1.757 0.1
-3.3380001 4.0430002 -1.762 0.16
-3.3380001 4.0180001 -1.755 0.20999999
-3.3640001 4.0240002 -1.763 0.18000001
-3.3659999 4.0120001 -1.76 0.25
-3.3840001 4.0089998 -1.763 0.16
-3.3859999 3.9860001 -1.757 0.25999999
-3.408 3.9860001 -1.763 0.16
-3.418 3.973 -1.761 0.23
-3.4419999 3.9749999 -1.768 0.17
-3.4349999 3.941 -1.757 0.13
-3.4630001 3.9489999 -1.765 0.2
-3.473 3.948 -1.768 0.18000001
-3.474 3.924 -1.761 0.25999999
-3.4879999 3.915 -1.762 0.16
-3.5 3.904 -1.762 0.25999999
-3.5120001 3.8929999 -1.762 0.18000001
-3.523 3.8800001 -1.761 0.13
-3.53 3.8629999 -1.7589999 0.20999999
-3.5439999 3.8659999 -1.763 0.16
-3.5599999 3.859 -1.765 0.25999999
-3.5599999 3.836 -1.7589999 0.20999999
-3.5840001 3.8369999 -1.765 0.14
-3.5880001 3.8169999 -1.761 0.28999999
-3.6040001 3.8099999 -1.763 0.23999999
-3.6159999 3.799 -1.763 0.17
-3.6289999 3.8 -1.766 0.27000001
-3.6340001 3.7820001 -1.763 0.19
-3.6429999 3.767 -1.761 0.25
-3.664 3.766 -1.766 0.16
-3.671 3.7490001 -1.763 0.27000001
-3.6849999 3.74 -1.765 0.22
-3.7060001 3.7379999 -1.77 0.17
-3.7049999 3.7119999 -1.763 0.25999999
-3.7160001 3.7119999 -1.765 0.22
-3.7379999 3.711 -1.771 0.18000001
-3.7479999 3.698 -1.77 0.28
-3.7509999 3.677 -1.765 0.23
-3.7690001 3.6719999 -1.7690001 0.18000001
-3.779 3.658 -1.768 0.27000001
-3.793 3.6489999 -1.77 0.25
-3.796 3.641 -1.768 0.18000001
-3.8099999 3.631 -1.77 0.28
-3.8199999 3.618 -1.7690001 0.16
-3.8280001 3.602 -1.767 0.25999999
-3.8440001 3.595 -1.77 0.23
-3.868 3.595 -1.776 0.16
-3.8640001 3.5680001 -1.768 0.25999999
-3.878 3.5699999 -1.772 0.22
-3.895 3.563 -1.775 0.17
-3.895 3.54 -1.77 0.28
-3.918 3.54 -1.776 0.20999999
-3.9170001 3.516 -1.77 0.12
-3.9430001 3.517 -1.777 0.20999999
-3.9460001 3.4979999 -1.773 0.18000001
-3.957 3.4849999 -1.773 0.27000001
-3.96 3.4760001 -1.772 0.18000001
-3.9679999 3.461 -1.77 0.23999999
-3.9809999 3.451 -1.772 0.20999999
-3.9949999 3.441 -1.773 0.17
-4.0089998 3.431 -1.774 0.25999999
-4.0370002 3.4330001 -1.7819999 0.18000001
-4.0229998 3.4000001 -1.771 0.23
-4.0339999 3.398 -1.774 0.16
-4.0419998 3.3829999 -1.772 0.25999999
-4.052 3.3710001 -1.772 0.22
-4.0749998 3.368 -1.778 0.17
-4.0739999 3.345 -1.772 0.27000001
-4.1059999 3.3499999 -1.7819999 0.18000001
-4.0960002 3.3210001 -1.773 0.13
-4.1030002 3.3150001 -1.774 0.19
-4.1059999 3.2969999 -1.77 0.11
-4.1220002 3.2880001 -1.773 0.20999999
-4.1290002 3.273 -1.772 0.17
-4.1409998 3.2609999 -1.772 0.25999999
-4.1529999 3.2490001 -1.773 0.16
-4.1659999 3.2390001 -1.774 0.25999999
-4.184 3.243 -1.78 0.17
-4.1739998 3.2130001 -1.771 0.25
-4.2020001 3.214 -1.779 0.2
-4.198 3.1900001 -1.773 0.12
-4.2220001 3.187 -1.779 0.2
-4.2350001 3.1760001 -1.78 0.16
-4.224 3.1470001 -1.771 0.27000001
-4.2410002 3.1500001 -1.776 0.19
-4.2470002 3.1340001 -1.775 0.25
-4.263 3.125 -1.778 0.18000001
-4.2690001 3.108 -1.776 0.23999999
-4.2839999 3.099 -1.778 0.18000001
-4.2800002 3.076 -1.772 0.13
-4.296 3.0669999 -1.775 0.2
-4.3060002 3.053 -1.775 0.15000001
-4.3109999 3.0469999 -1.775 0.28
-4.329 3.04 -1.779 0.18000001
-4.3270001 3.017 -1.774 0.25
-4.336 3.0039999 -1.774 0.23
-4.3530002 2.9960001 -1.777 0.17
-4.3530002 2.9749999 -1.773 0.27000001
-4.3769999 2.971 -1.779 0.23
-4.3699999 2.957 -1.774 0.17
-4.3800001 2.9430001 -1.774 0.28
-4.3839998 2.9260001 -1.772 0.23
-4.4060001 2.921 -1.778 0.17
-4.401 2.898 -1.772 0.27000001
-4.427 2.895 -1.779 0.23
-4.4299998 2.8770001 -1.776 0.16
-4.4310002 2.858 -1.773 0.28
-4.4419999 2.855 -1.776 0.25
-4.46 2.8469999 -1.78 0.19
-4.46 2.8269999 -1.776 0.28
-4.473 2.816 -1.778 0.23
-4.4889998 2.806 -1.78 0.17
-4.4889998 2.7869999 -1.777 0.27000001
-4.5209999 2.7869999 -1.786 0.19
-4.5110002 2.7709999 -1.78 0.25
-4.5110002 2.7520001 -1.777 0.23
-4.5370002 2.7479999 -1.784 0.15000001
-4.52 2.7179999 -1.774 0.28999999
-4.54 2.711 -1.778 0.23999999
-4.5570002 2.7019999 -1.7819999 0.17
-4.5510001 2.6789999 -1.776 0.25999999
-4.566 2.678 -1.78 0.23
-4.586 2.671 -1.785 0.16
-4.572 2.6429999 -1.776 0.28
-4.5809999 2.6289999 -1.776 0.23
-4.598 2.6199999 -1.78 0.18000001
-4.599 2.6010001 -1.777 0.27000001
-4.619 2.5940001 -1.7819999 0.22
-4.6079998 2.5780001 -1.776 0.18000001
-4.6230001 2.5669999 -1.778 0.25999999
-4.6389999 2.5569999 -1.7819999 0.23
-4.652 2.5450001 -1.784 0.16
-4.645 2.523 -1.778 0.28999999
-4.6570001 2.51 -1.779 0.22
-4.671 2.4990001 -1.7819999 0.16
-4.658 2.4820001 -1.775 0.28999999
-4.6750002 2.4719999 -1.778 0.23999999
-4.6859999 2.4590001 -1.78 0.2
-4.6900001 2.4430001 -1.778 0.13
-4.704 2.4319999 -1.781 0.20999999
-4.7150002 2.418 -1.7819999 0.17
-4.7080002 2.3959999 -1.776 0.25999999
-4.73 2.3889999 -1.7819999 0.23999999
-4.7270002 2.378 -1.78 0.18000001
-4.73 2.3610001 -1.778 0.27000001
-4.7459998 2.3499999 -1.781 0.23
-4.7610002 2.339 -1.784 0.17
-4.75 2.3150001 -1.777 0.27000001
-4.7789998 2.3110001 -1.786 0.22
-4.7750001 2.29 -1.781 0.18000001
-4.7820001 2.2839999 -1.7819999 0.25999999
-4.7919998 2.2709999 -1.784 0.16
-4.796 2.2539999 -1.7819999 0.27000001
-4.8179998 2.2460001 -1.788 0.18000001
-4.8099999 2.224 -1.7819999 0.25
-4.8309999 2.2149999 -1.788 0.2
-4.8239999 2.194 -1.7819999 0.25
-4.829 2.187 -1.783 0.23
-4.8319998 2.1700001 -1.7819999 0.11
-4.8509998 2.1600001 -1.786 0.17
-4.8579998 2.145 -1.786 0.11
-4.8509998 2.1240001 -1.781 0
-4.8590002 2.109 -1.7819999 0
-4.9060001 2.1110001 -1.7970001 0
-4.802 -1.835 -1.726 0
-4.763 -1.8380001 -1.7130001 0
-4.7220001 -1.83 -1.698 0
-4.704 -1.84 -1.693 0.12
-4.652 -1.8380001 -1.676 0.050000001
-4.652 -1.854 -1.678 0.17
-4.6389999 -1.8660001 -1.675 0.1
-4.6350002 -1.881 -1.676 0.18000001
-4.6199999 -1.892 -1.6720001 0.11
-4.631 -1.905 -1.678 0.18000001
-4.6110001 -1.914 -1.6720001 0.23
-4.6209998 -1.9349999 -1.678 0.17
-4.5970001 -1.942 -1.6720001 0.25
-4.598 -1.96 -1.674 0.16
-4.5809999 -1.97 -1.67 0.23
-4.5939999 -1.992 -1.678 0.18000001
-4.5669999 -1.998 -1.67 0.30000001
-4.6020002 -2.0209999 -1.684 0.34999999
-4.632 -2.052 -1.699 0.33000001
-4.6290002 -2.0680001 -1.7 0.28
-4.631 -2.086 -1.7029999 0.27000001
-4.619 -2.098 -1.701 0.25
-4.5949998 -2.105 -1.6950001 0.18000001
-4.6059999 -2.1270001 -1.701 0.30000001
-4.618 -2.141 -1.707 0.25
-4.599 -2.1500001 -1.7029999 0.25999999
-4.5770001 -2.158 -1.697 0.27000001
-4.5869999 -2.1800001 -1.7029999 0.27000001
-4.5739999 -2.191 -1.701 0.30000001
-4.5580001 -2.2019999 -1.697 0.33000001
-4.5430002 -2.2119999 -1.694 0.33000001
-4.5500002 -2.224 -1.698 0.16
-4.539 -2.2360001 -1.697 0.28999999
-4.5409999 -2.2550001 -1.7 0.25
-4.5229998 -2.2639999 -1.696 0.15000001
-4.526 -2.283 -1.7 0.28
-4.5440001 -2.3099999 -1.71 0.18000001
-4.5219998 -2.3169999 -1.704 0.13
-4.527 -2.3280001 -1.707 0.2
-4.5339999 -2.3499999 -1.7130001 0.17
-4.5450001 -2.3740001 -1.721 0.28
-4.5599999 -2.3989999 -1.73 0.23
-4.5370002 -2.4059999 -1.724 0.23999999
-4.5250001 -2.4170001 -1.722 0.28
-4.5 -2.4230001 -1.715 0.31999999
-4.474 -2.427 -1.707 0.25999999
-4.4970002 -2.448 -1.7180001 0.27000001
-4.5139999 -2.4760001 -1.728 0.25
-4.4829998 -2.4779999 -1.719 0.22
-4.4720001 -2.49 -1.7180001 0.13
-4.4660001 -2.5050001 -1.7180001 0.2
-4.4559999 -2.5179999 -1.7180001 0.11
-4.4549999 -2.536 -1.72 0.19
-4.4530001 -2.543 -1.721 0.11
-4.4450002 -2.5569999 -1.721 0.18000001
-4.428 -2.5669999 -1.7180001 0.11
-4.4400001 -2.592 -1.726 0.18000001
-4.4239998 -2.6010001 -1.722 0.11
-4.4200001 -2.618 -1.724 0.18000001
-4.402 -2.6259999 -1.72 0.11
-4.3969998 -2.632 -1.72 0.18000001
-4.388 -2.6459999 -1.72 0.11
-4.4109998 -2.678 -1.732 0.18000001
-4.375 -2.675 -1.721 0.22
-4.3730001 -2.6930001 -1.724 0.16
-4.3600001 -2.704 -1.722 0.23999999
-4.3569999 -2.721 -1.724 0.16
-4.3369999 -2.7179999 -1.7180001 0.23999999
-4.3639998 -2.7539999 -1.732 0.16
-4.3340001 -2.7539999 -1.724 0.23999999
-4.362 -2.7909999 -1.739 0.18000001
-4.3439999 -2.799 -1.735 0.23999999
-4.3449998 -2.819 -1.739 0.19
-4.3330002 -2.8299999 -1.738 0.12
-4.3280001 -2.8469999 -1.74 0.20999999
-4.335 -2.8610001 -1.745 0.19
-4.323 -2.872 -1.743 0.14
-4.2779999 -2.862 -1.728 0.2
-4.2119999 -2.8380001 -1.7029999 0.11
-4.2189999 -2.862 -1.71 0.16
-4.1799998 -2.855 -1.697 0.050000001
-4.1849999 -2.8770001 -1.7029999 0.18000001
-4.1810002 -2.8840001 -1.7029999 0.11
-4.1690001 -2.895 -1.702 0.18000001
-4.1360002 -2.892 -1.692 0.12
-4.1240001 -2.9030001 -1.691 0.18000001
-4.0869999 -2.8959999 -1.678 0.23
-4.072 -2.905 -1.676 0.17
-4.0409999 -2.902 -1.666 0.25
-4.0149999 -2.8929999 -1.6569999 0.16
-4 -2.902 -1.654 0.25999999
-3.977 -2.904 -1.648 0.19
-3.944 -2.8989999 -1.637 0.12
-3.9219999 -2.902 -1.632 0.18000001
-3.881 -2.891 -1.618 0.12
-3.8529999 -2.8889999 -1.609 0.18000001
-3.825 -2.878 -1.599 0.11
-3.806 -2.882 -1.594 0.16
-3.777 -2.8789999 -1.585 0.20999999
-3.7650001 -2.8889999 -1.584 0.1
-3.7160001 -2.8699999 -1.566 0
-3.7019999 -2.878 -1.564 0
-3.681 -2.881 -1.558 0
-3.6830001 -2.9000001 -1.563 0
-4.052 -3.24 -1.743 0.22
-4.0489998 -3.2579999 -1.7460001 0.17
-4.0669999 -3.293 -1.7589999 0.25
-4.112 -3.3510001 -1.784 0.20999999
-4.0799999 -3.346 -1.774 0.11
-4.0809999 -3.3570001 -1.777 0.2
-4.0609999 -3.3629999 -1.773 0.11
-4.0580001 -3.382 -1.776 0.18000001
-4.0240002 -3.375 -1.765 0.11
-4.0289998 -3.401 -1.773 0.2
-4.0159998 -3.411 -1.772 0.14
-4.0089998 -3.428 -1.774 0.28999999
-4.02 -3.447 -1.781 0.19
-3.993 -3.447 -1.774 0.25
-3.9909999 -3.4660001 -1.778 0.36000001
-3.987 -3.4849999 -1.781 0.43000001
-3.993 -3.5120001 -1.789 0.20999999
-3.9719999 -3.516 -1.784 0.23999999
-3.944 -3.5139999 -1.776 0.16
-3.944 -3.5250001 -1.779 0.25999999
-3.9260001 -3.5309999 -1.776 0.20999999
-3.908 -3.5369999 -1.772 0.27000001
-3.8900001 -3.543 -1.7690001 0.17
-3.8610001 -3.539 -1.76 0.28999999
-3.8399999 -3.5420001 -1.755 0.25
-3.8369999 -3.562 -1.7589999 0.28
-3.835 -3.5829999 -1.7640001 0.25999999
-3.8329999 -3.5910001 -1.765 0.25999999
-3.8210001 -3.6029999 -1.765 0.28
-3.8 -3.6059999 -1.761 0.27000001
-3.8080001 -3.6359999 -1.77 0.27000001
-3.7880001 -3.6400001 -1.766 0.27000001
-3.7720001 -3.6470001 -1.763 0.27000001
-3.7490001 -3.6489999 -1.758 0.18000001
-3.7119999 -3.6240001 -1.743 0.25999999
-3.6930001 -3.628 -1.738 0.18000001
-3.6789999 -3.6370001 -1.737 0.23999999
-3.665 -3.6459999 -1.7359999 0.16
-3.6530001 -3.6570001 -1.7359999 0.23
-3.6619999 -3.6889999 -1.7460001 0.19
-3.635 -3.6860001 -1.738 0.12
-3.628 -3.6900001 -1.738 0.20999999
-3.625 -3.7090001 -1.742 0.17
-3.6040001 -3.711 -1.737 0.25999999
-3.5929999 -3.724 -1.738 0.22
-3.579 -3.733 -1.7359999 0.17
-3.5650001 -3.7409999 -1.735 0.25999999
-3.563 -3.763 -1.7410001 0.23
-3.5769999 -3.789 -1.751 0.25999999
-3.562 -3.7980001 -1.749 0.28999999
-3.5350001 -3.7920001 -1.7410001 0.31999999
-3.513 -3.793 -1.7359999 0.28999999
-3.4979999 -3.8010001 -1.734 0.25
-3.4809999 -3.806 -1.732 0.27000001
-3.4719999 -3.8199999 -1.733 0.31999999
-3.454 -3.813 -1.727 0.25999999
-3.451 -3.8329999 -1.732 0.36000001
-3.4449999 -3.8510001 -1.735 0.36000001
-3.4319999 -3.8610001 -1.734 0.31999999
-3.4219999 -3.8740001 -1.7359999 0.31999999
-3.4230001 -3.8989999 -1.743 0.31
-3.4119999 -3.911 -1.743 0.28999999
-3.382 -3.8900001 -1.73 0.27000001
-3.3599999 -3.8889999 -1.725 0.31999999
-3.3440001 -3.895 -1.723 0.31
-3.3380001 -3.9130001 -1.726 0.31999999
-3.3169999 -3.9130001 -1.722 0.28999999
-3.296 -3.914 -1.717 0.25999999
-3.2679999 -3.905 -1.7079999 0.18000001
-3.2650001 -3.915 -1.71 0.31999999
-3.2909999 -3.97 -1.7309999 0.23999999
-3.27 -3.97 -1.726 0.17
-3.2490001 -3.97 -1.722 0.27000001
-3.2550001 -4.0029998 -1.732 0.2
-3.223 -3.9890001 -1.721 0.12
-3.2349999 -4.0300002 -1.735 0.19
-3.233 -4.053 -1.7410001 0.18000001
-3.2219999 -4.052 -1.738 0.13
-3.1889999 -4.0370002 -1.727 0.28
-3.175 -4.046 -1.726 0.23999999
-3.165 -4.059 -1.728 0.11
-3.171 -4.092 -1.738 0.15000001
-3.1530001 -4.0960002 -1.7359999 0.12
-3.1389999 -4.105 -1.735 0.18000001
-3.128 -4.1040001 -1.732 0.12
-3.1210001 -4.1209998 -1.7359999 0.20999999
-3.1029999 -4.125 -1.733 0.23999999
-3.0899999 -4.1350002 -1.733 0.28
-3.0680001 -4.132 -1.728 0.31
-3.043 -4.125 -1.72 0.18000001
-3.03 -4.1350002 -1.72 0.27000001
-3.0409999 -4.164 -1.7309999 0.22
-3.0090001 -4.1469998 -1.72 0.12
-3.0209999 -4.1900001 -1.734 0.19
-3.0190001 -4.2150002 -1.7410001 0.11
-3.0139999 -4.237 -1.747 0.2
-2.984 -4.223 -1.7359999 0.11
-2.9619999 -4.2199998 -1.7309999 0.15000001
-2.9200001 -4.1880002 -1.7130001 0.050000001
-2.918 -4.1989999 -1.716 0.17
-2.904 -4.2080002 -1.716 0.1
-2.8959999 -4.2249999 -1.719 0.17
-2.8629999 -4.204 -1.706 0.050000001
-2.8599999 -4.2290001 -1.7130001 0.16
-2.8329999 -4.2179999 -1.704 0.19
-2.823 -4.2309999 -1.706 0.18000001
-2.8239999 -4.2470002 -1.711 0.17
-2.8099999 -4.2550001 -1.711 0.090000004
-2.806 -4.2779999 -1.717 0.20999999
-2.7909999 -4.2839999 -1.716 0.25999999
-2.7739999 -4.2880001 -1.7130001 0.28999999
-2.767 -4.3060002 -1.7180001 0.27000001
-2.7520001 -4.3130002 -1.717 0.22
-2.7460001 -4.3179998 -1.717 0.25999999
-2.7179999 -4.3039999 -1.707 0.19
-2.6930001 -4.2950001 -1.7 0.28999999
-2.6689999 -4.2859998 -1.693 0.38
-2.6630001 -4.3070002 -1.698 0.20999999
-2.6400001 -4.2989998 -1.691 0.23
-2.638 -4.3270001 -1.699 0.13
-2.6289999 -4.3280001 -1.698 0.059999999
-2.625 -4.3509998 -1.704 0.17
-2.605 -4.349 -1.7 0.19
-2.5869999 -4.3509998 -1.697 0.16
-2.569 -4.3509998 -1.694 0.17
-2.553 -4.3559999 -1.693 0.16
-2.5350001 -4.3559999 -1.689 0.039999999
-2.529 -4.3610001 -1.6900001 0.079999998
-2.517 -4.3720002 -1.691 0.15000001
-2.5 -4.3740001 -1.688 0.16
-2.48 -4.3720002 -1.684 0.16
-2.457 -4.3629999 -1.678 0.039999999
-2.457 -4.395 -1.688 0.14
-2.4300001 -4.3790002 -1.678 0.050000001
-2.4300001 -4.395 -1.683 0.14
-2.405 -4.382 -1.674 0.050000001
-2.3929999 -4.3940001 -1.676 0.16
-2.372 -4.3870001 -1.67 0.050000001
-2.365 -4.4070001 -1.676 0.16
-2.339 -4.3930001 -1.6670001 0.050000001
-2.3299999 -4.4089999 -1.67 0.15000001
-2.303 -4.3909998 -1.66 0.050000001
-2.2969999 -4.3969998 -1.661 0.15000001
-2.273 -4.3850002 -1.653 0.050000001
-2.266 -4.4039998 -1.658 0.15000001
-2.244 -4.3959999 -1.652 0.050000001
-2.2249999 -4.3930001 -1.648 0.14
-2.211 -4.3990002 -1.647 0.050000001
-2.2 -4.4120002 -1.65 0.14
-2.1760001 -4.382 -1.636 0.050000001
-2.178 -4.421 -1.649 0.14
-2.1470001 -4.3920002 -1.635 0.050000001
-2.138 -4.4089999 -1.6390001 0.15000001
-2.112 -4.3899999 -1.6289999 0.050000001
-2.1040001 -4.4089999 -1.6339999 0.15000001
-2.079 -4.3930001 -1.625 0.050000001
-2.0810001 -4.415 -1.632 0.16
-2.0550001 -4.395 -1.622 0.050000001
-2.0420001 -4.4050002 -1.623 0.15000001
-2.017 -4.3870001 -1.614 0.050000001
-2.0150001 -4.4169998 -1.623 0.15000001
-1.984 -4.3860002 -1.608 0.050000001
-1.975 -4.4039998 -1.613 0.16
-1.962 -4.3930001 -1.607 0.050000001
-1.951 -4.4050002 -1.609 0.15000001
-1.933 -4.402 -1.6059999 0.19
-1.916 -4.401 -1.603 0.16
-1.893 -4.3870001 -1.595 0.039999999
-1.878 -4.3889999 -1.594 0.07
-1.862 -4.3899999 -1.592 0.15000001
-1.844 -4.3670001 -1.582 0.039999999
-1.831 -4.3740001 -1.582 0.07
-1.812 -4.368 -1.5779999 0.039999999
-1.7970001 -4.3720002 -1.577 0.07
-1.78 -4.369 -1.574 0.039999999
-1.763 -4.3660002 -1.5700001 0
-1.745 -4.3610001 -1.566 0
-1.733 -4.3709998 -1.568 0
-1.721 -4.3600001 -1.563 0
-1.7130001 -4.3800001 -1.568 0
-1.693 -4.369 -1.562 0
-1.671 -4.3530002 -1.554 0
-1.658 -4.362 -1.5549999 0
-1.642 -4.3600001 -1.553 0
-1.633 -4.3779998 -1.557 0
-1.622 -4.3699999 -1.553 0
-1.605 -4.3660002 -1.55 0
-1.587 -4.3590002 -1.545 0
-1.573 -4.3639998 -1.545 0
-1.559 -4.3670001 -1.545 0
-1.5420001 -4.3629999 -1.541 0
-1.526 -4.3610001 -1.539 0
-1.524 -4.3790002 -1.545 0
-1.5089999 -4.3779998 -1.543 0
-1.4960001 -4.3850002 -1.543 0
-1.482 -4.3909998 -1.544 0
-1.467 -4.3920002 -1.543 0
-1.466 -4.4330001 -1.556 0
-1.523 -4.677 -1.646 0
-1.515 -4.6999998 -1.653 0
-1.5190001 -4.7639999 -1.675 0
-1.498 -4.7490001 -1.668 0
-1.498 -4.8000002 -1.6849999 0.02
-1.485 -4.8119998 -1.688 0.12
-1.476 -4.8379998 -1.696 0.16
-1.48 -4.8759999 -1.709 0.25
-1.457 -4.8579998 -1.701 0.28
-1.449 -4.8839998 -1.709 0.28999999
-1.426 -4.8629999 -1.699 0.18000001
-1.413 -4.8769999 -1.7029999 0.27000001
-1.408 -4.9169998 -1.716 0.19
-1.395 -4.9289999 -1.719 0.22
-1.385 -4.9219999 -1.716 0.34999999
-1.37 -4.928 -1.716 0.30000001
-1.353 -4.9289999 -1.715 0.31999999
-1.3430001 -4.9510002 -1.722 0.34
-1.327 -4.9530001 -1.721 0.34
-1.309 -4.948 -1.7180001 0.23999999
-1.296 -4.9619999 -1.721 0.40000001
-1.288 -4.9650002 -1.722 0.30000001
-1.275 -4.9790001 -1.725 0.27000001
-1.253 -4.9569998 -1.716 0.20999999
-1.23 -4.934 -1.705 0.059999999
-1.22 -4.9580002 -1.7130001 0.18000001
-1.205 -4.9629998 -1.7130001 0.17
-1.191 -4.974 -1.716 0.30000001
-1.171 -4.961 -1.71 0.28
-1.158 -4.941 -1.702 0.31999999
-1.142 -4.9429998 -1.701 0.38999999
-1.136 -4.987 -1.716 0.38999999
-1.123 -5.0019999 -1.72 0.31
-1.109 -5.0139999 -1.724 0.36000001
-1.089 -4.9980001 -1.716 0.31
-1.0700001 -4.9840002 -1.71 0.30000001
-1.057 -4.9660001 -1.7029999 0.28
-1.0470001 -4.9910002 -1.711 0.31
-1.0319999 -4.9980001 -1.712 0.30000001
-1.013 -4.9850001 -1.706 0.28
-0.99800003 -4.993 -1.7079999 0.34
-0.98299998 -4.9980001 -1.709 0.31999999
-0.96399999 -4.987 -1.7029999 0.34
-0.95599997 -4.9860001 -1.7029999 0.28999999
-0.93400002 -4.9580002 -1.691 0.25999999
-0.91500002 -4.9400001 -1.684 0.28999999
-0.89700001 -4.934 -1.6799999 0.27000001
-0.88300002 -4.9419999 -1.682 0.34
-0.866 -4.9380002 -1.6799999 0.28999999
-0.85299999 -4.9549999 -1.6849999 0.31
-0.84799999 -4.9699998 -1.6900001 0.36000001
-0.82999998 -4.9629998 -1.686 0.28
-0.81599998 -4.973 -1.689 0.34999999
-0.80000001 -4.9720001 -1.688 0.31
-0.78100002 -4.9580002 -1.682 0.31
-0.76499999 -4.954 -1.6799999 0.30000001
-0.74800003 -4.9489999 -1.677 0.31999999
-0.74199998 -4.96 -1.6799999 0.31999999
-0.727 -4.9640002 -1.681 0.28999999
-0.70999998 -4.9569998 -1.678 0.28999999
-0.69300002 -4.954 -1.676 0.31999999
-0.67799997 -4.9580002 -1.676 0.31
-0.667 -4.9949999 -1.689 0.23999999
-0.65399998 -5.0180001 -1.697 0.33000001
-0.64099997 -4.9780002 -1.682 0.23
-0.62400001 -4.9699998 -1.678 0.34999999
-0.60900003 -4.9759998 -1.6799999 0.28999999
-0.59399998 -4.9840002 -1.682 0.34999999
-0.57700002 -4.9720001 -1.677 0.20999999
-0.56099999 -4.9759998 -1.678 0.31999999
-0.54299998 -4.9569998 -1.67 0.23999999
-0.52600002 -4.9460001 -1.666 0.17
-0.51899999 -4.9520001 -1.668 0.25999999
-0.50800002 -4.993 -1.682 0.18000001
-0.491 -4.9809999 -1.677 0.25
-0.47600001 -4.994 -1.681 0.25
-0.46200001 -5.0139999 -1.688 0.25
-0.44600001 -5.0079999 -1.6849999 0.25999999
-0.42699999 -4.9759998 -1.673 0.25999999
-0.421 -4.9949999 -1.6799999 0.38
-0.40599999 -5.0100002 -1.684 0.34999999
-0.39199999 -5.0219998 -1.688 0.18000001
-0.375 -5.0100002 -1.684 0.27000001
-0.36000001 -5.0170002 -1.686 0.20999999
-0.345 -5.0300002 -1.6900001 0.28999999
-0.33000001 -5.046 -1.6950001 0.30000001
-0.322 -5.0409999 -1.693 0.31
-0.30500001 -5.0320001 -1.6900001 0.28
-0.289 -5.0240002 -1.686 0.23
-0.271 -4.994 -1.676 0.28999999
-0.25400001 -4.9710002 -1.6670001 0.28999999
-0.23899999 -4.9749999 -1.668 0.30000001
-0.22400001 -4.9889998 -1.673 0.27000001
-0.21699999 -5.0100002 -1.6799999 0.36000001
-0.20100001 -5.02 -1.684 0.36000001
-0.185 -5.0120001 -1.6799999 0.25999999
-0.169 -5.0050001 -1.678 0.27000001
-0.154 -5.0180001 -1.682 0.28
-0.138 -5.0229998 -1.684 0.28999999
-0.122 -5.0190001 -1.682 0.22
-0.113 -4.9759998 -1.6670001 0.27000001
-0.097999997 -4.9899998 -1.6720001 0.31
-0.082000002 -4.9819999 -1.669 0.34
-0.067000002 -4.9840002 -1.67 0.30000001
-0.052000001 -5.0219998 -1.683 0.33000001
-0.035999998 -5.0409999 -1.6900001 0.28
-0.02 -5.013 -1.6799999 0.17
-0.012 -5.0040002 -1.676 0.28999999
0.0040000002 -5.006 -1.677 0.25
0.018999999 -5.006 -1.677 0.23
0.035 -4.9749999 -1.666 0.13
0.050999999 -4.994 -1.673 0.20999999
0.067000002 -5 -1.675 0.22
0.082000002 -4.9959998 -1.674 0.30000001
0.097999997 -4.9949999 -1.674 0.34999999
0.106 -4.9910002 -1.6720001 0.30000001
0.122 -5.0100002 -1.679 0.34999999
0.138 -5.0450001 -1.692 0.34999999
0.154 -5.0240002 -1.684 0.30000001
0.169 -5.0229998 -1.684 0.27000001
0.184 -5 -1.676 0.28
0.2 -4.9850001 -1.671 0.31999999
0.208 -4.9899998 -1.673 0.17
0.22400001 -5.0009999 -1.677 0.28999999
0.23899999 -4.9790001 -1.67 0.18000001
0.252 -4.9330001 -1.653 0.20999999
0.26899999 -4.9590001 -1.663 0.31999999
0.28600001 -4.9860001 -1.673 0.22
0.29499999 -4.9990001 -1.678 0
0.30899999 -4.9699998 -1.668 0
0.324 -4.9559999 -1.663 0
0.34 -4.9640002 -1.666 0
0.359 -5.0250001 -1.688 0
0.375 -5.0219998 -1.688 0
0.389 -4.994 -1.678 0
0.403 -4.974 -1.6720001 0
0.41299999 -4.9980001 -1.6799999 0.11
0.42699999 -4.9720001 -1.6720001 0.19
0.44299999 -4.9770002 -1.674 0.090000004
0.45899999 -4.9860001 -1.678 0
0.472 -4.9530001 -1.666 0
0.48699999 -4.9419999 -1.663 0
0.50199997 -4.9349999 -1.661 0
2.3239999 -4.2820001 -1.6289999 0
2.335 -4.27 -1.627 0
2.352 -4.2690001 -1.63 0
2.3710001 -4.2709999 -1.6339999 0
2.411 -4.3130002 -1.654 0.059999999
2.4489999 -4.349 -1.6720001 0.14
2.46 -4.336 -1.67 0.13
2.4820001 -4.3449998 -1.676 0.18000001
2.483 -4.329 -1.6720001 0.18000001
2.484 -4.3000002 -1.663 0.16
2.503 -4.302 -1.6670001 0.17
2.5179999 -4.296 -1.668 0.17
2.5450001 -4.3119998 -1.678 0.1
2.575 -4.3319998 -1.689 0.18000001
2.5739999 -4.2989998 -1.679 0.15000001
2.576 -4.2870002 -1.676 0.28999999
2.592 -4.2820001 -1.677 0.22
2.5929999 -4.2529998 -1.668 0.18000001
2.6070001 -4.2470002 -1.669 0.27000001
2.632 -4.2579999 -1.677 0.22
2.641 -4.243 -1.674 0.15000001
2.6459999 -4.2199998 -1.668 0.31999999
2.6700001 -4.2449999 -1.6799999 0.20999999
2.6760001 -4.224 -1.675 0.20999999
2.704 -4.2389998 -1.6849999 0.16
2.701 -4.2049999 -1.674 0.050000001
2.723 -4.211 -1.6799999 0.18000001
2.7349999 -4.1989999 -1.679 0.2
2.7609999 -4.211 -1.688 0.16
2.763 -4.1989999 -1.684 0.25
2.7780001 -4.1929998 -1.686 0.20999999
2.779 -4.1659999 -1.678 0.15000001
2.786 -4.1490002 -1.674 0.28999999
2.825 -4.178 -1.691 0.19
2.8080001 -4.125 -1.6720001 0.22
2.8180001 -4.112 -1.67 0.14
2.812 -4.0890002 -1.661 0.27000001
2.8299999 -4.0879998 -1.665 0.23
2.8399999 -4.0739999 -1.663 0.15000001
2.865 -4.0840001 -1.671 0.28999999
2.8900001 -4.092 -1.678 0.25
2.9059999 -4.0869999 -1.6799999 0.25999999
2.931 -4.0949998 -1.688 0.31
2.9419999 -4.0970001 -1.691 0.19
2.931 -4.0549998 -1.676 0.059999999
2.957 -4.0640001 -1.684 0.17
2.961 -4.0430002 -1.679 0.1
2.983 -4.046 -1.684 0.18000001
2.9790001 -4.013 -1.674 0.23
3.0239999 -4.0479999 -1.694 0.19
3.006 -4.0100002 -1.679 0.11
3.0339999 -4.0219998 -1.688 0.18000001
3.0220001 -3.9790001 -1.674 0.22
3.0439999 -3.983 -1.6799999 0.16
3.0369999 -3.948 -1.668 0.25
3.0599999 -3.9519999 -1.674 0.2
3.0480001 -3.911 -1.66 0.12
3.0650001 -3.9070001 -1.663 0.19
3.066 -3.895 -1.659 0.11
3.092 -3.9030001 -1.668 0.18000001
3.099 -3.8870001 -1.665 0.11
3.115 -3.882 -1.6670001 0.18000001
3.1170001 -3.859 -1.661 0.11
3.138 -3.8610001 -1.666 0.19
3.1440001 -3.8440001 -1.663 0.11
3.1600001 -3.8510001 -1.668 0.18000001
3.154 -3.819 -1.658 0.11
3.1789999 -3.825 -1.666 0.18000001
3.1989999 -3.823 -1.67 0.11
3.243 -3.852 -1.688 0.2
3.267 -3.8570001 -1.6950001 0.25999999
3.2939999 -3.8640001 -1.7029999 0.23999999
3.2880001 -3.8440001 -1.696 0.28
3.2909999 -3.8239999 -1.691 0.28999999
3.309 -3.8210001 -1.6950001 0.30000001
3.3210001 -3.8099999 -1.6950001 0.31
3.342 -3.8099999 -1.699 0.31999999
3.3399999 -3.783 -1.692 0.20999999
3.3599999 -3.7809999 -1.696 0.14
3.3829999 -3.796 -1.705 0.18000001
3.3800001 -3.7679999 -1.697 0.25
3.3970001 -3.763 -1.7 0.34999999
3.405 -3.7479999 -1.698 0.17
3.408 -3.7279999 -1.693 0.28999999
3.4360001 -3.7349999 -1.702 0.19
3.4460001 -3.723 -1.701 0.23999999
3.4519999 -3.7179999 -1.701 0.34999999
3.474 -3.7179999 -1.707 0.30000001
3.4449999 -3.6630001 -1.6849999 0.14
3.4519999 -3.648 -1.683 0.31
3.474 -3.648 -1.688 0.23999999
3.5109999 -3.664 -1.702 0.25
3.529 -3.6600001 -1.705 0.28
3.5179999 -3.6370001 -1.697 0.25999999
3.54 -3.6370001 -1.702 0.34
3.5480001 -3.622 -1.7 0.31999999
3.5669999 -3.618 -1.704 0.20999999
3.552 -3.5799999 -1.691 0.23
3.5639999 -3.5710001 -1.691 0.14
3.5880001 -3.5710001 -1.697 0.25999999
3.592 -3.5639999 -1.697 0.25
3.608 -3.5580001 -1.699 0.23999999
3.6029999 -3.5309999 -1.691 0.18000001
3.6229999 -3.5280001 -1.6950001 0.30000001
3.6400001 -3.523 -1.699 0.16
3.6459999 -3.506 -1.696 0.27000001
3.671 -3.5079999 -1.7029999 0.20999999
3.6830001 -3.4979999 -1.7029999 0.27000001
3.701 -3.503 -1.709 0.31
3.698 -3.4790001 -1.7029999 0.19
3.6989999 -3.4579999 -1.698 0.16
3.7279999 -3.4630001 -1.707 0.18000001
3.6949999 -3.4100001 -1.6849999 0.20999999
3.6849999 -3.3800001 -1.675 0.1
3.7 -3.3829999 -1.6799999 0.18000001
3.691 -3.3529999 -1.67 0.15000001
3.7030001 -3.3429999 -1.671 0.31
3.7409999 -3.3570001 -1.684 0.23
3.757 -3.3499999 -1.687 0.17
3.7520001 -3.3239999 -1.6799999 0.25999999
3.77 -3.319 -1.683 0.17
3.7650001 -3.293 -1.676 0.23
3.7539999 -3.2739999 -1.668 0
3.7390001 -3.2390001 -1.656 0
3.401 -2.888 -1.482 0
3.425 -2.8889999 -1.489 0
3.438 -2.882 -1.4910001 0
3.4679999 -2.898 -1.503 0.13
3.4890001 -2.8970001 -1.508 0.19
3.5079999 -2.895 -1.513 0.1
3.54 -2.9030001 -1.524 0.16
3.5320001 -2.8770001 -1.516 0.050000001
3.579 -2.8970001 -1.533 0.17
3.6099999 -2.904 -1.543 0.11
3.6440001 -2.9219999 -1.557 0.19
3.651 -2.9089999 -1.556 0.11
3.7019999 -2.931 -1.575 0.17
3.7119999 -2.9200001 -1.576 0.11
3.7360001 -2.9200001 -1.582 0.14
3.7420001 -2.9059999 -1.581 0.050000001
3.7809999 -2.9170001 -1.595 0.18000001
3.793 -2.9170001 -1.598 0.11
3.823 -2.9219999 -1.607 0.19
3.8410001 -2.9159999 -1.612 0.11
3.8670001 -2.9170001 -1.619 0.18000001
3.869 -2.8989999 -1.6160001 0.11
3.8940001 -2.8989999 -1.623 0.16
3.8789999 -2.869 -1.612 0.050000001
3.8629999 -2.8469999 -1.603 0.16
3.865 -2.8310001 -1.6 0.11
3.9170001 -2.8499999 -1.619 0.16
3.9590001 -2.862 -1.6339999 0.22
3.9909999 -2.8659999 -1.6440001 0.16
3.994 -2.849 -1.641 0.27000001
4.0560002 -2.875 -1.665 0.25
4.073 -2.8670001 -1.668 0.14
4.0619998 -2.8499999 -1.661 0.28
4.0830002 -2.846 -1.6670001 0.20999999
4.0679998 -2.816 -1.656 0.12
4.0809999 -2.806 -1.658 0.2
4.1040001 -2.803 -1.664 0.12
4.1020002 -2.783 -1.659 0.28
4.1009998 -2.7639999 -1.655 0.22
4.1100001 -2.76 -1.6569999 0.15000001
4.1339998 -2.7579999 -1.664 0.28999999
4.1630001 -2.7579999 -1.673 0.18000001
4.171 -2.744 -1.6720001 0.25
4.178 -2.73 -1.6720001 0.16
4.1739998 -2.7090001 -1.666 0.23999999
4.1820002 -2.6960001 -1.666 0.22
4.223 -2.7130001 -1.682 0.20999999
4.1849999 -2.6700001 -1.6619999 0.23999999
4.1630001 -2.6370001 -1.649 0.23999999
4.197 -2.6400001 -1.66 0.25
4.204 -2.6259999 -1.659 0.28
4.2150002 -2.615 -1.661 0.28999999
4.2150002 -2.5969999 -1.6569999 0.27000001
4.223 -2.592 -1.659 0.25999999
4.2259998 -2.576 -1.6569999 0.30000001
4.2600002 -2.5780001 -1.668 0.16
4.2529998 -2.556 -1.661 0.28999999
4.2649999 -2.5450001 -1.663 0.22
4.302 -2.549 -1.675 0.2
4.3109999 -2.536 -1.676 0.15000001
4.2940001 -2.517 -1.6670001 0.20999999
4.2519999 -2.474 -1.646 0.16
4.2690001 -2.4660001 -1.65 0.28999999
4.2620001 -2.444 -1.6440001 0.22
4.2589998 -2.424 -1.6390001 0.16
4.256 -2.405 -1.635 0.30000001
4.2839999 -2.4030001 -1.643 0.16
4.302 -2.405 -1.649 0.25999999
4.3280001 -2.401 -1.6569999 0.23
4.3379998 -2.3889999 -1.658 0.25999999
4.3639998 -2.3859999 -1.666 0.28
4.3730001 -2.3729999 -1.666 0.25999999
4.3709998 -2.3540001 -1.6619999 0.27000001
4.3470001 -2.323 -1.649 0.18000001
4.3239999 -2.302 -1.6390001 0.31999999
4.3509998 -2.299 -1.647 0.23999999
4.3779998 -2.296 -1.655 0.25999999
4.375 -2.277 -1.651 0.16
4.3740001 -2.2590001 -1.647 0.31999999
4.3889999 -2.2490001 -1.651 0.23999999
4.3800001 -2.227 -1.6440001 0.23
4.4089999 -2.224 -1.653 0.28999999
4.4089999 -2.2160001 -1.651 0.28
4.4320002 -2.21 -1.658 0.31
4.4380002 -2.1949999 -1.6569999 0.20999999
4.3990002 -2.1589999 -1.6390001 0.25
4.4159999 -2.1500001 -1.643 0.43000001
4.4330001 -2.141 -1.647 0.41
4.4429998 -2.1289999 -1.649 0.31999999
4.4310002 -2.115 -1.643 0.17
4.4289999 -2.0969999 -1.6390001 0.31
4.4489999 -2.089 -1.645 0.25
4.4299998 -2.063 -1.6339999 0.23
4.408 -2.036 -1.623 0.34
4.3940001 -2.0120001 -1.615 0.28999999
4.402 -1.999 -1.6160001 0.2
4.3839998 -1.983 -1.607 0.14
4.3579998 -1.954 -1.595 0.17
4.3039999 -1.913 -1.571 0.050000001
4.322 -1.905 -1.576 0.16
4.3260002 -1.891 -1.575 0.2
4.3369999 -1.88 -1.577 0.1
4.3530002 -1.87 -1.581 0.16
4.3239999 -1.849 -1.568 0.050000001
4.3449998 -1.842 -1.574 0.18000001
4.3540001 -1.83 -1.576 0.1
4.3759999 -1.823 -1.582 0.17
4.3759999 -1.807 -1.58 0.12
4.382 -1.793 -1.58 0.20999999
4.4239998 -1.795 -1.594 0.16
4.434 -1.791 -1.597 0.27000001
4.474 -1.791 -1.61 0.16
4.494 -1.7819999 -1.6160001 0.25
4.5450001 -1.7869999 -1.633 0.2
4.5560002 -1.774 -1.635 0.12
4.5869999 -1.77 -1.645 0.18000001
4.625 -1.768 -1.6569999 0.11
4.6680002 -1.776 -1.673 0.18000001
4.6859999 -1.767 -1.678 0.22
4.7420001 -1.771 -1.697 0.16
4.7509999 -1.758 -1.699 0.23999999
4.7849998 -1.753 -1.709 0.16
4.7820001 -1.735 -1.706 0.27000001
4.8010001 -1.725 -1.711 0.18000001
4.7940001 -1.705 -1.707 0.25
4.809 -1.702 -1.711 0.17
4.7989998 -1.682 -1.705 0.25
4.8200002 -1.6720001 -1.711 0.18000001
4.8000002 -1.648 -1.702 0.25
4.816 -1.637 -1.706 0.17
4.8000002 -1.614 -1.698 0.25
4.8439999 -1.613 -1.7130001 0.19
4.8070002 -1.592 -1.698 0.23
4.8280001 -1.582 -1.704 0.16
4.8119998 -1.5599999 -1.696 0.23999999
4.8270001 -1.548 -1.7 0.15000001
4.8249998 -1.531 -1.697 0.25999999
4.8390002 -1.518 -1.701 0.16
4.829 -1.499 -1.6950001 0.25
4.8460002 -1.4960001 -1.701 0.18000001
4.829 -1.474 -1.693 0.25
4.8410001 -1.461 -1.6950001 0.17
4.8449998 -1.4450001 -1.6950001 0.25
4.8639998 -1.4349999 -1.701 0.18000001
4.8509998 -1.414 -1.694 0.25
4.8720002 -1.403 -1.7 0.19
4.8470001 -1.388 -1.6900001 0.22
4.8649998 -1.377 -1.6950001 0.16
4.8530002 -1.357 -1.689 0.25
4.8790002 -1.348 -1.697 0.18000001
4.8559999 -1.325 -1.687 0.23999999
4.8769999 -1.314 -1.693 0.18000001
4.8610001 -1.293 -1.686 0.23999999
4.881 -1.291 -1.693 0.18000001
4.862 -1.2690001 -1.684 0.23
4.895 -1.261 -1.6950001 0.16
4.8569999 -1.235 -1.679 0.050000001
4.881 -1.225 -1.686 0.17
4.8769999 -1.2079999 -1.684 0.11
4.8899999 -1.1950001 -1.687 0.18000001
4.8940001 -1.187 -1.688 0.11
4.901 -1.173 -1.689 0.19
4.9029999 -1.1569999 -1.688 0.1
4.934 -1.148 -1.699 0.16
4.8940001 -1.122 -1.682 0.050000001
4.914 -1.1109999 -1.688 0.17
4.9130001 -1.095 -1.687 0.19
4.9169998 -1.087 -1.688 0.090000004
4.9349999 -1.075 -1.693 0.15000001
4.9130001 -1.054 -1.684 0.050000001
4.9229999 -1.04 -1.686 0.16
4.9320002 -1.026 -1.688 0.2
4.9320002 -1.01 -1.687 0.090000004
4.9720001 -1.002 -1.701 0.16
4.9359999 -0.986 -1.687 0.050000001
4.9520001 -0.97299999 -1.692 0.16
4.9310002 -0.95300001 -1.683 0.050000001
4.9640002 -0.94300002 -1.694 0.15000001
4.9460001 -0.92400002 -1.686 0.050000001
4.9660001 -0.91100001 -1.693 0.15000001
4.947 -0.89200002 -1.684 0.050000001
4.974 -0.889 -1.694 0.16
4.96 -0.87 -1.688 0.050000001
4.994 -0.86000001 -1.699 0.14
4.9749999 -0.83999997 -1.691 0.050000001
4.987 -0.82599998 -1.6950001 0.14
4.9840002 -0.81 -1.693 0.18000001
4.9819999 -0.79400003 -1.691 0.1
4.9980001 -0.77999997 -1.696 0.15000001
4.9710002 -0.76800001 -1.686 0.050000001
4.994 -0.755 -1.693 0.16
4.9850001 -0.73799998 -1.689 0.050000001
5.0170002 -0.727 -1.7 0.15000001
4.9840002 -0.70599997 -1.687 0.050000001
5.0159998 -0.69400001 -1.698 0.14
4.9899998 -0.67500001 -1.688 0.050000001
5.0079999 -0.66900003 -1.694 0.15000001
4.98 -0.64899999 -1.683 0.050000001
5.007 -0.63700002 -1.692 0.16
5.0009999 -0.62 -1.689 0.2
5.0029998 -0.60399997 -1.689 0.090000004
5.0050001 -0.58899999 -1.689 0.090000004
5.0120001 -0.574 -1.691 0.090000004
5.0100002 -0.565 -1.6900001 0.090000004
5.0430002 -0.55299997 -1.701 0.15000001
5.007 -0.53299999 -1.688 0.20999999
5.0149999 -0.51800001 -1.6900001 0.090000004
5.0110002 -0.50199997 -1.688 0.079999998
5.0139999 -0.486 -1.688 0.090000004
5.0310001 -0.472 -1.694 0.15000001
4.9879999 -0.46000001 -1.678 0.050000001
5.0180001 -0.447 -1.688 0.17
5.0170002 -0.43099999 -1.688 0.2
5.026 -0.41600001 -1.691 0.1
5.039 -0.40099999 -1.6950001 0.15000001
5.0040002 -0.382 -1.682 0.059999999
5.0279999 -0.368 -1.6900001 0.18000001
5.013 -0.359 -1.684 0.11
5.0349998 -0.345 -1.692 0.18000001
5.0229998 -0.32800001 -1.687 0.23
5.0339999 -0.31299999 -1.691 0.19
5.0120001 -0.296 -1.682 0.23
5.0219998 -0.28099999 -1.686 0.1
5.0310001 -0.26499999 -1.688 0.19
5.007 -0.248 -1.6799999 0.11
5.0370002 -0.242 -1.691 0.18000001
5.0159998 -0.22499999 -1.682 0.23
5.0370002 -0.20999999 -1.6900001 0.16
5.0170002 -0.193 -1.682 0.23
5.046 -0.17900001 -1.693 0.19
5.0219998 -0.162 -1.684 0.23
5.0320001 -0.147 -1.687 0.16
5.0229998 -0.138 -1.684 0.23999999
5.0440001 -0.123 -1.691 0.19
5.0209999 -0.107 -1.683 0.23
5.0409999 -0.090999998 -1.6900001 0.17
5.0219998 -0.075000003 -1.683 0.23999999
5.0539999 -0.059999999 -1.6950001 0.2
5.0279999 -0.044 -1.6849999 0.12
5.039 -0.035999998 -1.689 0.18000001
5.0190001 -0.02 -1.682 0.12
5.0359998 -0.0040000002 -1.688 0.2
4.8740001 0.013 -1.677 0.19
4.8590002 0.028000001 -1.671 0.11
4.855 0.044 -1.67 0.19
4.862 0.050999999 -1.673 0.11
4.8720002 0.067000002 -1.676 0.17
4.8509998 0.082000002 -1.669 0.20999999
4.8790002 0.097999997 -1.679 0.16
4.8390002 0.112 -1.664 0.050000001
4.848 0.127 -1.668 0.17
4.849 0.14300001 -1.669 0.19
4.8579998 0.15000001 -1.6720001 0.1
4.8639998 0.16599999 -1.674 0.2
4.8460002 0.18099999 -1.668 0.11
4.8530002 0.19599999 -1.671 0.18000001
4.8449998 0.211 -1.668 0.20999999
4.8499999 0.226 -1.67 0.1
4.8699999 0.243 -1.678 0.15000001
4.836 0.249 -1.665 0.050000001
4.8499999 0.26499999 -1.671 0.18000001
4.8530002 0.28 -1.6720001 0.11
4.8439999 0.29499999 -1.669 0.18000001
4.8340001 0.30899999 -1.666 0.050000001
4.8499999 0.32600001 -1.6720001 0.17
4.8299999 0.34 -1.665 0.050000001
4.8540001 0.34900001 -1.674 0.16
4.8449998 0.36399999 -1.671 0.050000001
4.8520002 0.38 -1.674 0.16
4.8280001 0.39300001 -1.666 0.050000001
4.8439999 0.41 -1.6720001 0.16
4.842 0.42500001 -1.6720001 0.19
4.8449998 0.44 -1.673 0.18000001
4.8639998 0.44999999 -1.681 0.17
4.8439999 0.463 -1.674 0.090000004
4.8470001 0.479 -1.675 0.079999998
4.8470001 0.49399999 -1.676 0.15000001
4.8379998 0.509 -1.673 0.039999999
4.842 0.52499998 -1.675 0.15000001
4.8509998 0.54100001 -1.6799999 0.19
4.8429999 0.54799998 -1.677 0.18000001
4.8410001 0.56300002 -1.677 0.17
4.8299999 0.57700002 -1.673 0.16
4.8410001 0.59399998 -1.678 0.17
4.8470001 0.61000001 -1.681 0.18000001
4.8379998 0.62400001 -1.678 0.16
4.8280001 0.639 -1.675 0.039999999
4.8249998 0.64600003 -1.675 0.07
4.823 0.66100001 -1.675 0.039999999
4.8340001 0.67799997 -1.6799999 0.07
4.8509998 0.69599998 -1.687 0.079999998
4.8460002 0.71100003 -1.686 0.079999998
4.8260002 0.72299999 -1.679 0.079999998
4.8309999 0.74000001 -1.682 0.079999998
4.8299999 0.755 -1.682 0.079999998
4.8070002 0.759 -1.674 0.090000004
4.8099999 0.77499998 -1.676 0.039999999
4.8239999 0.79299998 -1.682 0.07
4.809 0.80599999 -1.678 0.16
4.8080001 0.82099998 -1.678 0.18000001
4.802 0.83600003 -1.677 0.039999999
4.8049998 0.852 -1.679 0.079999998
4.8000002 0.85900003 -1.678 0.079999998
4.8080001 0.87599999 -1.682 0.090000004
4.8070002 0.89099997 -1.682 0.14
4.7880001 0.903 -1.676 0.050000001
4.7940001 0.92000002 -1.6799999 0.14
4.7729998 0.93199998 -1.673 0.050000001
