# .PCD v0.7 - Point Cloud Data file format
VERSION 0.7
FIELDS x y z intensity
SIZE 4 4 4 4
TYPE F F F F
COUNT 1 1 1 1
WIDTH 1414
HEIGHT 1
VIEWPOINT 0 0 0 1 0 0 0
POINTS 1414
DATA ascii
-10.08 -23.722 -0.94300002 0.28999999
-9.9610004 -23.646 -0.93800002 0.34
-9.8450003 -23.577999 -0.93300003 0.34
-9.7810001 -23.635 -0.93400002 0.34
-9.717 -23.688999 -0.935 0.31999999
-9.7119999 -23.889999 -0.94300002 0.34999999
-9.6949997 -23.957001 -0.94599998 0.30000001
-9.5719995 -23.867001 -0.94 0.25
-9.5579996 -24.051001 -0.94700003 0.31999999
-9.4020004 -23.878 -0.93800002 0.25999999
-9.3459997 -23.955999 -0.94 0.30000001
-9.2770004 -24.002001 -0.94099998 0.34
-9.2080002 -24.048 -0.94199997 0.31
-9.0439997 -23.843 -0.93099999 0.31
-8.9750004 -23.773001 -0.92699999 0.22
-8.9099998 -23.827999 -0.92799997 0.34
-8.8360004 -23.857 -0.92799997 0.31999999
-8.7449999 -23.841999 -0.926 0.30000001
-8.691 -23.927 -0.92900002 0.33000001
-8.6040001 -23.923 -0.92699999 0.33000001
-8.4829998 -23.82 -0.921 0.33000001
-8.4779997 -23.924999 -0.92500001 0.36000001
-8.4329996 -24.038 -0.92900002 0.25
-8.3129997 -23.937 -0.92299998 0.34
-8.2290001 -23.936001 -0.92199999 0.31999999
-8.1379995 -23.916 -0.92000002 0.28999999
-7.9689999 -23.666 -0.90700001 0.28
-7.8579998 -23.580999 -0.90200001 0.28
-7.8150001 -23.573999 -0.90100002 0.25999999
-7.7059999 -23.492001 -0.89600003 0.31999999
-7.651 -23.575001 -0.89899999 0.34
-7.5739999 -23.589001 -0.898 0.38999999
-7.5409999 -23.740999 -0.90399998 0.28
-7.4640002 -23.757 -0.90399998 0.31999999
-7.4310002 -23.915001 -0.91000003 0.25
-7.428 -24.038 -0.91500002 0.28999999
-7.3309999 -23.992001 -0.912 0.28
-7.1890001 -23.792999 -0.90200001 0.34
-7.0780001 -23.695 -0.89600003 0.34999999
-7.0949998 -24.025999 -0.91100001 0.27000001
-7.0120001 -24.025 -0.91000003 0.30000001
-6.928 -24.016001 -0.90799999 0.34999999
-6.8909998 -24.028999 -0.90799999 0.28999999
-6.8470001 -24.162001 -0.91299999 0.28999999
-6.789 -24.249001 -0.91600001 0.40000001
-6.6750002 -24.132999 -0.91000003 0.25
-6.6529999 -24.349001 -0.91900003 0.36000001
-6.5739999 -24.362 -0.91900003 0.34
-6.4720001 -24.288 -0.91399997 0.31
-6.4200001 -24.243999 -0.912 0.30000001
-6.3410001 -24.254 -0.91100001 0.31999999
-6.29 -24.372999 -0.91600001 0.25
-6.2189999 -24.412001 -0.917 0.34999999
-6.1170001 -24.334 -0.912 0.28
-6.0320001 -24.318001 -0.91100001 0.36000001
-5.9720001 -24.403 -0.91399997 0.30000001
-5.927 -24.385 -0.91299999 0.38
-5.869 -24.48 -0.91600001 0.31999999
-5.7350001 -24.257 -0.90499997 0.30000001
-5.691 -24.413 -0.91100001 0.25999999
-5.599 -24.364 -0.90799999 0.36000001
-5.513 -24.341 -0.90600002 0.28
-5.4310002 -24.337 -0.90499997 0.36000001
-5.3769999 -24.273001 -0.90200001 0.25
-5.2729998 -24.163 -0.89600003 0.38
-5.2140002 -24.259001 -0.89999998 0.36000001
-5.152 -24.337999 -0.903 0.27000001
-5.0700002 -24.330999 -0.90200001 0.40000001
-4.9790001 -24.274 -0.89899999 0.30000001
-4.902 -24.285999 -0.898 0.28999999
-4.868 -24.315001 -0.89899999 0.37
-4.7969999 -24.358 -0.90100002 0.31999999
-4.7179999 -24.358999 -0.89999998 0.34
-4.619 -24.26 -0.89499998 0.38999999
-4.5609999 -24.370001 -0.89899999 0.31999999
-4.474 -24.326 -0.89600003 0.36000001
-4.4180002 -24.452 -0.90200001 0.34999999
-4.3670001 -24.393999 -0.89899999 0.38
-4.2550001 -24.205 -0.889 0.25
-4.1719999 -24.177 -0.88800001 0.40000001
-4.1030002 -24.233 -0.88999999 0.34
-4.0479999 -24.372 -0.89499998 0.34999999
-3.9760001 -24.412001 -0.89600003 0.28
-3.911 -24.497 -0.89999998 0.38
-3.845 -24.579 -0.903 0.33000001
-3.806 -24.580999 -0.903 0.38
-3.744 -24.693001 -0.90700001 0.31999999
-3.6659999 -24.705 -0.90700001 0.31999999
-3.585 -24.691 -0.90600002 0.34999999
-3.503 -24.674 -0.90499997 0.30000001
-3.4130001 -24.594 -0.90100002 0.36000001
-3.3800001 -24.643 -0.903 0.33000001
-3.3010001 -24.635 -0.90200001 0.34
-3.217 -24.6 -0.89999998 0.34999999
-3.1370001 -24.59 -0.89899999 0.33000001
-3.0580001 -24.584 -0.898 0.33000001
-2.9779999 -24.568001 -0.89700001 0.34999999
-2.8989999 -24.563 -0.89600003 0.37
-2.8559999 -24.534 -0.89499998 0.36000001
-2.7709999 -24.473 -0.89200002 0.30000001
-2.694 -24.476 -0.89200002 0.41
-2.618 -24.5 -0.89200002 0.33000001
-2.5380001 -24.475 -0.89099997 0.41999999
-2.464 -24.507999 -0.89200002 0.36000001
-2.3840001 -24.488001 -0.89099997 0.37
-2.306 -24.481001 -0.88999999 0.31
-2.263 -24.443001 -0.88800001 0.34999999
-2.1830001 -24.408001 -0.88599998 0.38999999
-2.1040001 -24.395 -0.88499999 0.38999999
-2.026 -24.386 -0.88499999 0.37
-1.949 -24.379999 -0.884 0.36000001
-1.869 -24.341999 -0.88200003 0.36000001
-1.796 -24.393999 -0.884 0.31999999
-1.756 -24.385 -0.884 0.41
-1.684 -24.448 -0.88599998 0.37
-1.604 -24.409 -0.884 0.30000001
-1.528 -24.42 -0.88499999 0.43000001
-1.451 -24.429001 -0.88499999 0.36000001
-1.374 -24.419001 -0.884 0.34
-1.295 -24.386 -0.88300002 0.37
-1.257 -24.398001 -0.88300002 0.38
-1.179 -24.363001 -0.88099998 0.38
-1.102 -24.368999 -0.88099998 0.36000001
-1.026 -24.378 -0.88200003 0.31
-0.94999999 -24.393 -0.88200003 0.41999999
-0.87199998 -24.360001 -0.88099998 0.38999999
-0.83499998 -24.389999 -0.88200003 0.38
-0.75800002 -24.402 -0.88200003 0.38
-0.68099999 -24.378 -0.88099998 0.33000001
-0.60399997 -24.388 -0.88099998 0.37
-0.528 -24.414 -0.88300002 0.41
-0.45199999 -24.454 -0.884 0.31
-0.37599999 -24.481001 -0.88499999 0.49000001
-0.212 -17.938999 -0.59399998 0.15000001
-0.184 -17.927 -0.59399998 0.34999999
-0.127 -17.914 -0.59299999 0.63
-0.071000002 -17.962 -0.59500003 0.36000001
-0.029999999 -24.445999 -0.884 0.33000001
0.046999998 -24.445999 -0.884 0.38999999
0.124 -24.458 -0.884 0.36000001
0.20100001 -24.483 -0.88499999 0.34
0.23899999 -24.475 -0.88499999 0.38999999
0.31600001 -24.462 -0.884 0.33000001
0.39399999 -24.523001 -0.88700002 0.41
0.47099999 -24.509001 -0.88700002 0.38
0.54699999 -24.492001 -0.88599998 0.34999999
0.625 -24.504 -0.88700002 0.40000001
0.70300001 -24.548 -0.889 0.37
0.741 -24.525 -0.88800001 0.28
0.81800002 -24.518 -0.88800001 0.44999999
0.89600003 -24.545 -0.889 0.36000001
0.97399998 -24.57 -0.88999999 0.34
1.052 -24.587 -0.89099997 0.36000001
1.1289999 -24.586 -0.89099997 0.34999999
1.207 -24.584 -0.89099997 0.34999999
1.245 -24.586 -0.89099997 0.33000001
1.3200001 -24.540001 -0.889 0.41
1.4 -24.582001 -0.89200002 0.37
1.48 -24.625 -0.89399999 0.38
1.559 -24.652 -0.89499998 0.34
1.638 -24.669001 -0.89600003 0.37
1.7180001 -24.691999 -0.89700001 0.36000001
1.757 -24.695 -0.898 0.36000001
1.834 -24.684 -0.89700001 0.38
1.913 -24.698 -0.898 0.33000001
1.992 -24.702999 -0.89899999 0.41
2.072 -24.726999 -0.89999998 0.31999999
2.1500001 -24.732 -0.90100002 0.38999999
2.2279999 -24.729 -0.90100002 0.36000001
2.2709999 -24.764 -0.90200001 0.34999999
2.3510001 -24.780001 -0.90399998 0.34
2.4300001 -24.785 -0.90399998 0.34999999
2.5050001 -24.749001 -0.903 0.38
2.585 -24.768999 -0.90399998 0.37
2.6670001 -24.796 -0.90600002 0.38
2.7509999 -24.841999 -0.90799999 0.28999999
2.7920001 -24.861 -0.90899998 0.44
2.8710001 -24.856001 -0.90899998 0.27000001
2.9449999 -24.811001 -0.90799999 0.23999999
3.023 -24.808001 -0.90799999 0.44999999
3.1029999 -24.812 -0.90899998 0.34999999
3.188 -24.858 -0.91100001 0.44
3.27 -24.877001 -0.912 0.28
3.3069999 -24.858 -0.912 0.27000001
3.385 -24.844 -0.912 0.34
3.4660001 -24.858999 -0.91299999 0.36000001
3.5469999 -24.865999 -0.91399997 0.2
3.6270001 -24.870001 -0.91399997 0.46000001
3.7049999 -24.855 -0.91399997 0.23
3.7839999 -24.849001 -0.91399997 0.27000001
3.8239999 -24.849001 -0.91500002 0.27000001
3.902 -24.834999 -0.91500002 0.27000001
3.983 -24.844 -0.91600001 0.23
4.0619998 -24.839001 -0.91600001 0.28999999
4.138 -24.811001 -0.91500002 0.18000001
4.2199998 -24.823 -0.91600001 0.44999999
4.302 -24.834999 -0.917 0.23
4.342 -24.832001 -0.91799998 0.25
4.4219999 -24.827999 -0.91799998 0.18000001
4.5019999 -24.823999 -0.91900003 0.41
4.5840001 -24.832001 -0.92000002 0.20999999
4.6620002 -24.819 -0.92000002 0.23999999
4.7410002 -24.808001 -0.92000002 0.19
4.822 -24.811001 -0.921 0.30000001
4.8639998 -24.819 -0.921 0.2
4.9450002 -24.816999 -0.92199999 0.18000001
5.0279999 -24.830999 -0.92299998 0.28999999
5.1079998 -24.825001 -0.92400002 0.19
5.1919999 -24.834 -0.92500001 0.19
5.2729998 -24.833 -0.926 0.30000001
5.348 -24.801001 -0.92500001 0.11
5.388 -24.798 -0.92500001 0.17
5.4699998 -24.799 -0.926 0.28999999
5.5510001 -24.799 -0.92699999 0.19
5.6300001 -24.784 -0.92699999 0.17
5.7090001 -24.774 -0.92699999 0.16
5.7849998 -24.747999 -0.92699999 0.13
5.8649998 -24.737 -0.92699999 0.16
5.9029999 -24.724001 -0.92699999 0.12
5.9819999 -24.711 -0.92699999 0.17
6.0700002 -24.735001 -0.92900002 0.12
6.145 -24.705999 -0.92900002 0.15000001
6.23 -24.716 -0.93000001 0.28999999
6.3109999 -24.709999 -0.93099999 0.11
6.3969998 -24.721001 -0.93199998 0.15000001
6.4359999 -24.712 -0.93199998 0.23
6.5159998 -24.702 -0.93300003 0.19
6.5960002 -24.691 -0.93300003 0.23
6.6750002 -24.674 -0.93300003 0.25999999
5.9050002 -21.546 -0.79000002 0.2
5.9369998 -21.398001 -0.78399998 0.18000001
5.9970002 -21.354 -0.78299999 0.17
5.9920001 -21.208 -0.77700001 0.31999999
6.052 -21.166 -0.77600002 0.25
6.1389999 -21.219999 -0.77899998 0.20999999
7.2069998 -24.636 -0.93800002 0.12
6.2779999 -21.200001 -0.77999997 0
6.329 -21.127001 -0.77700001 0.14
6.5089998 -21.483 -0.79500002 0.2
6.4850001 -21.282 -0.78600001 0.25999999
6.5929999 -21.396999 -0.792 0.16
6.6599998 -21.375999 -0.792 0.18000001
6.71 -21.299999 -0.79000002 0.23999999
6.8010001 -21.355 -0.79299998 0.23
6.8000002 -21.122 -0.78299999 0.38
6.9190001 -21.261 -0.79100001 0.28999999
6.9860001 -21.354 -0.796 0.31
7.0539999 -21.336 -0.796 0.27000001
7.118 -21.304001 -0.79500002 0.31
7.1890001 -21.292999 -0.796 0.34
7.2610002 -21.287001 -0.79699999 0.30000001
7.3410001 -21.302 -0.79900002 0.31
7.4439998 -21.381001 -0.80299997 0.28
7.434 -21.245001 -0.79699999 0.33000001
7.4959998 -21.209999 -0.79699999 0.38
7.5419998 -21.125999 -0.79400003 0.31
7.5840001 -21.037001 -0.79100001 0.34
7.6300001 -20.955999 -0.78799999 0.30000001
7.7340002 -21.035 -0.79299998 0.31
7.7940001 -20.996 -0.79299998 0.41
7.7839999 -20.868 -0.787 0.31999999
7.8309999 -20.794001 -0.78500003 0.31999999
7.8870001 -20.745001 -0.78399998 0.30000001
7.974 -20.777 -0.78600001 0.36000001
7.9959998 -20.639999 -0.78100002 0.38
8.0559998 -20.603001 -0.77999997 0.36000001
8.1499996 -20.652 -0.78399998 0.31999999
8.1780005 -20.628 -0.78299999 0.38999999
8.2189999 -20.541 -0.77999997 0.36000001
8.2290001 -20.379999 -0.77399999 0.36000001
8.2539997 -20.259001 -0.76899999 0.31999999
8.3450003 -20.299999 -0.773 0.34
8.3839998 -20.212999 -0.76999998 0.34
8.4359999 -20.159 -0.76800001 0.31
8.4659996 -20.142 -0.76800001 0.44
8.5170002 -20.087 -0.76700002 0.31
8.5649996 -20.024 -0.76499999 0.36000001
8.6440001 -20.035 -0.76700002 0.38999999
8.7019997 -19.997 -0.76599997 0.28999999
8.7849998 -20.014999 -0.76899999 0.44999999
8.8409996 -19.971001 -0.76800001 0.28999999
8.8430004 -19.892 -0.76499999 0.41
8.8999996 -19.851 -0.764 0.38999999
8.9709997 -19.843 -0.76499999 0.40000001
9.0089998 -19.761999 -0.76200002 0.36000001
9.0200005 -19.621 -0.75700003 0.36000001
9.0509996 -19.527 -0.75400001 0.40000001
9.1440001 -19.566999 -0.75700003 0.36000001
9.158 -19.517 -0.755 0.38
9.2089996 -19.466 -0.75400001 0.34999999
9.2799997 -19.457001 -0.755 0.37
9.3439999 -19.434999 -0.75599998 0.41
9.415 -19.424999 -0.75700003 0.34
9.5200005 -19.486 -0.76099998 0.36000001
9.592 -19.479 -0.76200002 0.28999999
9.6160002 -19.448999 -0.76099998 0.50999999
9.6949997 -19.455 -0.76300001 0.34999999
9.7679996 -19.448999 -0.764 0.38999999
9.8509998 -19.461 -0.76700002 0.37
9.974 -19.551001 -0.773 0.38
10.081 -19.611 -0.77700001 0.37
10.209 -19.707001 -0.78399998 0.36000001
10.312 -19.829 -0.79000002 0.38
10.437 -19.917 -0.79699999 0.34999999
10.595 -20.066 -0.80599999 0.25
10.756 -20.216 -0.815 0.30000001
10.897 -20.329 -0.82200003 0.40000001
10.975 -20.320999 -0.824 0.31
10.982 -20.181 -0.81800002 0.36000001
11.004 -20.146 -0.81699997 0.34
11.075 -20.125 -0.81800002 0.31999999
11.158 -20.127001 -0.81999999 0.31999999
11.266 -20.172001 -0.824 0.36000001
11.379 -20.224001 -0.829 0.33000001
11.502 -20.294001 -0.83399999 0.34999999
11.547 -20.225 -0.83200002 0.31999999
11.557 -20.169001 -0.82999998 0.43000001
11.605 -20.106001 -0.829 0.28999999
11.791 -20.281 -0.83999997 0.28999999
11.861 -20.254999 -0.83999997 0.38999999
11.881 -20.143999 -0.83700001 0.38999999
11.923 -20.070999 -0.83499998 0.23999999
11.825 -19.764 -0.82099998 0.28999999
11.894 -19.808001 -0.824 0.33000001
11.987 -19.820999 -0.82700002 0.31999999
12.046 -19.778 -0.82599998 0.44
12.136 -19.785999 -0.829 0.28999999
12.188 -19.732 -0.82800001 0.28999999
12.278 -19.738001 -0.82999998 0.31
12.357 -19.726 -0.83200002 0.28
12.379 -19.693001 -0.83099997 0.34
12.403 -19.594 -0.82800001 0.28999999
12.387 -19.433001 -0.82099998 0.34999999
12.53 -19.521999 -0.82800001 0.34
12.725 -19.691 -0.83899999 0.16
11.555 -17.752001 -0.73799998 0.22
11.596 -17.694 -0.73699999 0.40000001
11.636 -17.694 -0.73799998 0.55000001
11.718 -17.697001 -0.74000001 0.28999999
12.954 -19.436001 -0.83499998 0.27000001
13.066 -19.471001 -0.83899999 0.23999999
13.233 -19.587999 -0.84799999 0.41
13.222 -19.438999 -0.84200001 0.28999999
13.337 -19.476 -0.84600002 0.33000001
13.426 -19.541 -0.85100001 0.30000001
13.568 -19.615 -0.85699999 0.31999999
13.672 -19.632999 -0.86000001 0.36000001
13.624 -19.434999 -0.852 0.27000001
13.658 -19.353001 -0.85000002 0.30000001
13.738 -19.337 -0.85100001 0.33000001
13.78 -19.268 -0.85000002 0.30000001
13.804 -19.237 -0.84899998 0.28999999
13.954 -19.318001 -0.85600001 0.34
13.917 -19.139999 -0.84899998 0.31999999
14.055 -19.202 -0.85500002 0.33000001
14.099 -19.136 -0.85399997 0.25
14.177 -19.115 -0.85500002 0.33000001
14.379 -19.261 -0.86500001 0.28999999
14.348 -19.157 -0.861 0.27000001
14.427 -19.138 -0.86199999 0.36000001
14.528 -19.146 -0.86500001 0.33000001
14.574 -19.080999 -0.86400002 0.30000001
14.649 -19.056 -0.86500001 0.31
14.695 -18.990999 -0.86400002 0.31999999
14.736 -18.921 -0.86299998 0.38
14.77 -18.903999 -0.86299998 0.31
14.889 -18.933001 -0.86799997 0.36000001
14.957 -18.896999 -0.86799997 0.31999999
15.06 -18.905001 -0.87099999 0.33000001
15.112 -18.848 -0.87099999 0.40000001
15.166 -18.795 -0.87099999 0.37
15.267 -18.799999 -0.87400001 0.31
15.221 -18.683001 -0.86799997 0.28999999
15.371 -18.746 -0.875 0.36000001
15.421 -18.687 -0.87400001 0.28
15.58 -18.76 -0.88099998 0.44
15.648 -18.721001 -0.88200003 0.30000001
15.743 -18.715 -0.884 0.33000001
15.816 -18.681999 -0.88499999 0.31
15.864 -18.68 -0.88599998 0.36000001
15.913 -18.618 -0.88599998 0.36000001
16.049999 -18.660999 -0.89099997 0.38
16.113001 -18.615 -0.89099997 0.36000001
16.207001 -18.605 -0.89399999 0.31
16.365 -18.667999 -0.90100002 0.30000001
16.429001 -18.622 -0.90100002 0.49000001
16.51 -18.655001 -0.90399998 0.28999999
16.636999 -18.681 -0.90899998 0.36000001
16.724001 -18.66 -0.91100001 0.34
16.837 -18.667999 -0.91500002 0.33000001
16.955 -18.68 -0.91799998 0.40000001
17.1 -18.721001 -0.92400002 0.41
17.201 -18.714001 -0.92699999 0.36000001
17.229 -18.686001 -0.92699999 0.30000001
17.243 -18.583 -0.92400002 0.5
17.473 -18.712999 -0.935 0.23
17.705999 -18.843 -0.94599998 0.31999999
17.764999 -18.788 -0.94599998 0.37
17.912001 -18.825001 -0.95200002 0.25
18.018999 -18.819 -0.95499998 0.41
18.091 -18.834999 -0.958 0.31999999
18.162001 -18.790001 -0.95899999 0.27000001
18.190001 -18.701 -0.95700002 0.38
18.278 -18.674 -0.95899999 0.30000001
18.384001 -18.665001 -0.96200001 0.23
18.405001 -18.568001 -0.95899999 0.41999999
18.655001 -18.702999 -0.97100002 0.31999999
18.715 -18.705 -0.97299999 0.28999999
18.849001 -18.721001 -0.97799999 0.30000001
18.947001 -18.701 -0.98000002 0.31
19.039 -18.673 -0.98299998 0.28999999
19.114 -18.629999 -0.98400003 0.30000001
19.23 -18.625999 -0.98699999 0.27000001
19.368999 -18.643 -0.99199998 0.25999999
19.493 -18.704 -0.99800003 0.25
19.643 -18.729 -1.0039999 0.2
19.816 -18.775999 -1.011 0.41
19.987 -18.82 -1.017 0.23
20.156 -18.858999 -1.024 0.2
20.32 -18.893999 -1.03 0.14
20.499001 -18.941 -1.038 0
19.028 -17.524 -0.94700003 0.1
19.153 -17.528 -0.95099998 0.16
19.304001 -17.555 -0.95700002 0.18000001
19.465 -17.591 -0.963 0.18000001
19.635 -17.632 -0.97000003 0.17
19.799999 -17.669001 -0.977 0.16
19.997999 -17.733 -0.98500001 0.1
20.190001 -17.847 -0.995 0.15000001
20.375 -17.896999 -1.003 0.090000004
20.559999 -17.945999 -1.01 0.14
20.731001 -17.981001 -1.017 0.12
20.872 -17.989 -1.022 0.18000001
20.908001 -17.905001 -1.021 0.36000001
20.993 -17.864 -1.022 0.18000001
20.999001 -17.813 -1.021 0.28999999
21.028 -17.724001 -1.02 0.25
21.037001 -17.618999 -1.017 0.11
21.073 -17.535999 -1.016 0.15000001
21.094 -17.441999 -1.0140001 0.090000004
21.138 -17.367001 -1.013 0
21.143 -17.26 -1.01 0
20.146 -16.339001 -0.94999999 0
20.177 -16.312 -0.94999999 0.07
20.337999 -16.336 -0.95700002 0.13
20.523001 -16.379999 -0.96399999 0.090000004
20.743 -16.448999 -0.97399998 0.15000001
20.945 -16.503 -0.98199999 0.090000004
21.162001 -16.566999 -0.99199998 0.14
21.341999 -16.6 -0.99900001 0.1
21.513 -16.679001 -1.007 0
21.725 -16.733999 -1.016 0
21.938 -16.789 -1.025 0
22.132 -16.827999 -1.033 0
22.379 -16.905001 -1.044 0
22.556 -16.927999 -1.051 0
22.714001 -16.990999 -1.058 0.079999998
22.944 -17.051001 -1.068 0.079999998
23.09 -17.048 -1.073 0.19
23.215 -17.027 -1.077 0.27000001
23.441999 -17.080999 -1.086 0.2
23.517 -17.023001 -1.0880001 0.16
23.731001 -17.065001 -1.096 0.1
23.809 -17.065001 -1.099 0.15000001
23.837 -16.971001 -1.098 0.28
23.264 -16.452999 -1.064 0.18000001
23.681999 -16.636999 -1.084 0.11
13.401 -9.3380003 -0.523 0.20999999
13.385 -9.2639999 -0.51999998 0.28999999
13.415 -9.2229996 -0.51999998 0.30000001
13.413 -9.191 -0.51999998 0.5
13.447 -9.1520004 -0.51999998 0.44999999
13.507 -9.1309996 -0.52200001 0.50999999
13.473 -9.0459995 -0.51800001 0
24.545 -16.395 -1.109 0
22.294001 -14.787 -0.986 0.059999999
22.482 -14.81 -0.99400002 0.16
22.704 -14.905 -1.0039999 0.090000004
22.990999 -14.991 -1.017 0.079999998
23.35 -15.121 -1.034 0.079999998
23.610001 -15.185 -1.045 0.079999998
23.688 -15.131 -1.0470001 0.15000001
15.033 -9.4580002 -0.58600003 0.33000001
15.042 -9.3979998 -0.58499998 0.36000001
15.069 -9.382 -0.58600003 0.33000001
15.061 -9.3109999 -0.58399999 0.36000001
25.023001 -15.382 -1.103 0.15000001
25.066 -15.301 -1.103 0.15000001
25.075001 -15.198 -1.101 0.46000001
25.191 -15.16 -1.104 0.17
25.149 -15.028 -1.099 0.25999999
25.198999 -15.004 -1.101 0.38
25.407 -15.02 -1.109 0
23.243 -13.64 -0.995 0
23.277 -13.561 -0.995 0.050000001
14.492 -8.3100004 -0.53899997 0.14
14.469 -8.2370005 -0.537 0.38999999
14.477 -8.2110004 -0.537 0.34999999
14.492 -8.1599998 -0.53600001 0.47
14.513 -8.1110001 -0.53600001 0.44999999
14.563 -8.0790005 -0.537 0.52999997
14.653 -8.0690002 -0.54000002 0.38
14.837 -8.1110001 -0.54799998 0.38999999
15.035 -8.1269999 -0.55699998 0.50999999
15.103 -8.1029997 -0.55900002 0.31999999
15.163 -8.0740004 -0.56 0.58999997
15.476 -8.1789999 -0.57499999 0
15.863 -8.3199997 -0.59299999 0.090000004
25.896999 -13.498 -1.095 0.23
26.028999 -13.463 -1.1 0.2
25.955999 -13.374 -1.095 0.12
25.922001 -13.253 -1.091 0.079999998
26.629 -13.51 -1.125 0.16
26.75 -13.466 -1.128 0.18000001
26.951 -13.462 -1.136 0.15000001
27.018999 -13.389 -1.138 0.14
27.120001 -13.334 -1.141 0.18000001
24.583 -11.94 -1.012 0
24.754999 -11.928 -1.0190001 0.12
26.983 -12.9 -1.127 0.2
26.975 -12.792 -1.124 0.38
26.791 -12.602 -1.113 0.18000001
26.422001 -12.326 -1.0930001 0.14
26.655001 -12.384 -1.104 0.19
26.660999 -12.285 -1.102 0.13
27.275 -12.465 -1.13 0.33000001
27.278 -12.363 -1.128 0.2
26.783001 -12.037 -1.102 0.17
27.298 -12.166 -1.126 0.17
27.214001 -12.026 -1.12 0.13
26.823999 -11.702 -1.098 0.57999998
27.412001 -11.857 -1.125 0.25
27.535 -11.808 -1.1289999 0.27000001
27.410999 -11.653 -1.1210001 0.25
27.679001 -11.664 -1.132 0.30000001
28.084 -11.732 -1.15 0.23999999
28.188999 -11.724 -1.154 0.34999999
28.290001 -11.662 -1.1569999 0.36000001
28.645 -11.703 -1.173 0.23
28.767 -11.648 -1.177 0.13
28.664 -11.501 -1.17 0.47999999
28.531 -11.344 -1.1619999 0.17
28.327 -11.159 -1.151 0.14
28.504999 -11.178 -1.158 0.5
28.674999 -11.141 -1.165 0.20999999
29.132999 -11.214 -1.1849999 0.2
19.007999 -7.2389998 -0.70099998 0.28999999
19.025 -7.177 -0.70099998 0.40000001
19.046 -7.1160002 -0.70099998 0.38999999
19.046 -7.0479999 -0.69999999 0.46000001
16.487 -6.0679998 -0.57800001 0.23
16.365999 -5.9650002 -0.57099998 0.41
16.298 -5.882 -0.56699997 0.38999999
16.222 -5.7969999 -0.56300002 0.37
16.201 -5.7319999 -0.56099999 0.47
16.462 -5.7670002 -0.57200003 0.38999999
7.2820001 -2.51 -0.139 0.18000001
7.2950001 -2.5020001 -0.139 0.17
7.296 -2.4760001 -0.139 0.38999999
7.3319998 -2.4630001 -0.14 0.2
7.349 -2.4430001 -0.141 0.20999999
7.3639998 -2.4219999 -0.141 0.19
7.3239999 -2.3840001 -0.139 0.38999999
16.834 -5.4260001 -0.583 0.19
7.3660002 -2.372 -0.141 0.14
17.084999 -5.448 -0.59399998 0.38999999
19.218 -6.066 -0.69300002 0.36000001
19.229 -6.0029998 -0.69199997 0.34
19.242001 -5.941 -0.69199997 0.37
19.259001 -5.8790002 -0.69199997 0.37
19.267 -5.816 -0.69199997 0.34
19.277 -5.7859998 -0.69199997 0.37
19.297001 -5.7259998 -0.69199997 0.40000001
19.635 -5.7589998 -0.70599997 0.43000001
20.499001 -5.9439998 -0.74599999 0.16
20.955 -6.006 -0.76599997 0.36000001
20.952 -5.934 -0.76499999 0.30000001
20.941999 -5.8600001 -0.764 0.34
20.983999 -5.836 -0.76499999 0.41999999
21.146999 -5.8099999 -0.77200001 0.23
23.655001 -6.4229999 -0.88700002 0.36000001
23.691 -6.3520002 -0.88700002 0.38
23.733999 -6.2839999 -0.88800001 0.36000001
23.796 -6.2210002 -0.88999999 0.34
23.899 -6.1669998 -0.89399999 0.40000001
24.000999 -6.1539998 -0.898 0.14
27.018 -6.8400002 -1.036 0.47999999
27.024 -6.7519999 -1.035 0.22
30.49 -7.5190001 -1.193 0.25
30.49 -7.4180002 -1.192 0.20999999
30.521 -7.3239999 -1.192 0.30000001
30.728001 -7.2719998 -1.201 0.19
31.249001 -7.2919998 -1.224 0
34.407001 -7.974 -1.367 0
34.43 -7.8660002 -1.367 0
34.476002 -7.7620001 -1.368 0
34.526001 -7.6599998 -1.369 0
34.573002 -7.5560002 -1.37 0
34.622002 -7.4530001 -1.372 0
34.675999 -7.3509998 -1.373 0
34.667999 -7.2919998 -1.372 0
34.542 -7.1529999 -1.365 0
34.741001 -7.0799999 -1.373 0
34.902 -6.9990001 -1.38 0
34.957001 -6.8959999 -1.381 0
35.006001 -6.7909999 -1.382 0
35.069 -6.6890001 -1.3839999 0
35.104 -6.6389999 -1.385 0
35.169998 -6.5370002 -1.387 0
35.201 -6.428 -1.388 0
35.27 -6.3260002 -1.39 0
35.327 -6.2220001 -1.392 0
35.366001 -6.1149998 -1.393 0
35.327999 -6.0510001 -1.391 0.059999999
19.407 -3.1240001 -0.671 0.99000001
19.417999 -3.063 -0.671 0.99000001
19.398001 -2.9979999 -0.66900003 0.99000001
19.360001 -2.9300001 -0.667 0.74000001
19.302 -2.8900001 -0.66399997 0
35.443001 -5.2140002 -1.39 0
35.479 -5.1059999 -1.391 0
35.502998 -4.9949999 -1.391 0
35.571999 -4.8909998 -1.393 0
35.592999 -4.7800002 -1.3940001 0.059999999
23.547001 -2.9649999 -0.852 0.99000001
23.549999 -2.891 -0.852 0.99000001
23.551001 -2.816 -0.85100001 0.99000001
23.558001 -2.7420001 -0.85100001 0.99000001
23.846001 -2.7 -0.86400002 0.74000001
28.450001 -3.0899999 -1.069 0.99000001
28.412001 -2.9960001 -1.067 0.99000001
28.652 -2.9300001 -1.077 0.74000001
28.525999 -2.8269999 -1.071 0
36.029999 -3.4630001 -1.406 0
36.097 -3.355 -1.409 0
36.146999 -3.2449999 -1.411 0
36.196999 -3.135 -1.4119999 0
36.227001 -3.0799999 -1.414 0
36.261002 -2.9679999 -1.415 0
36.313999 -2.858 -1.4170001 0
36.349998 -2.7460001 -1.418 0
36.375 -2.6329999 -1.418 0
36.403 -2.52 -1.419 0
36.450001 -2.408 -1.421 0
36.448002 -2.3510001 -1.421 0
36.497002 -2.2390001 -1.423 0
36.521999 -2.125 -1.424 0
36.563 -2.0120001 -1.425 0
36.620998 -1.9 -1.427 0
36.68 -1.788 -1.4299999 0
36.741001 -1.733 -1.432 0
36.773998 -1.619 -1.434 0
36.813 -1.505 -1.4349999 0
36.847 -1.39 -1.436 0
36.880001 -1.275 -1.438 0
36.938999 -1.161 -1.4400001 0
36.911999 -0.92799997 -1.439 0
36.909 -0.87 -1.438 0
36.900002 -0.75400001 -1.438 0
36.896 -0.63800001 -1.438 0
36.914001 -0.52200001 -1.438 0
36.924999 -0.40599999 -1.439 0
36.970001 -0.29100001 -1.441 0
36.965 -0.175 -1.441 0
36.980999 -0.117 -1.441 0
37.005001 -0 -1.442 0
33.106998 0.046999998 -1.459 0
33.111 0.15099999 -1.459 0
33.110001 0.255 -1.459 0
33.117001 0.359 -1.459 0
33.139999 0.463 -1.461 0
33.127998 0.56699997 -1.46 0
33.134998 0.671 -1.46 0
33.134998 0.72299999 -1.461 0
33.148998 0.82800001 -1.461 0
33.172001 0.93300003 -1.4630001 0
33.191002 1.038 -1.464 0
33.217999 1.143 -1.465 0
33.251999 1.249 -1.467 0
33.273998 1.354 -1.4680001 0
33.294998 1.408 -1.47 0
33.325001 1.5140001 -1.471 0
33.32 1.619 -1.471 0
33.320999 1.724 -1.472 0
33.365002 1.831 -1.474 0
33.390999 1.938 -1.476 0
33.438 2.046 -1.479 0.12
33.525002 2.1040001 -1.483 0.2
33.456001 2.2049999 -1.48 0
33.547001 2.3169999 -1.485 0
33.570999 2.425 -1.4859999 0
33.659 2.5380001 -1.4910001 0
33.759998 2.652 -1.497 0
33.835999 2.7650001 -1.501 0
33.879002 2.822 -1.503 0
33.949001 2.9360001 -1.507 0
34.009998 3.0480001 -1.511 0
34.092999 3.164 -1.516 0
34.153 3.2780001 -1.5190001 0
34.234001 3.3940001 -1.524 0
34.269001 3.507 -1.526 0
34.327 3.5669999 -1.529 0
34.368999 3.681 -1.5319999 0
34.415001 3.7950001 -1.535 0
34.450001 3.9089999 -1.5369999 0
34.505001 4.0250001 -1.541 0
34.557999 4.1409998 -1.544 0
34.641998 4.2610002 -1.549 0
34.728001 4.3280001 -1.554 0
34.785999 4.4460001 -1.557 0
34.834999 4.5630002 -1.5599999 0
34.93 4.6880002 -1.566 0
34.981998 4.8070002 -1.569 0
35.035999 4.9260001 -1.573 0
35.111 5.0489998 -1.577 0
35.271 5.1290002 -1.586 0
35.307999 5.2480001 -1.589 0
35.391998 5.3740001 -1.594 0
35.5 5.5050001 -1.6 0
35.589001 5.6329999 -1.6059999 0
35.653999 5.7579999 -1.61 0
35.748001 5.8889999 -1.6160001 0
35.842999 6.02 -1.6210001 0
35.922001 6.092 -1.626 0
35.987999 6.2189999 -1.63 0
36.039001 6.3449998 -1.6339999 0
36.077999 6.4689999 -1.637 0
36.104 6.5910001 -1.6390001 0
36.141998 6.7150002 -1.642 0
36.18 6.8400002 -1.645 0
36.255001 6.9130001 -1.65 0
36.334999 7.0469999 -1.655 0
36.459999 7.1900001 -1.6619999 0
36.563 7.3299999 -1.669 0
36.662998 7.4699998 -1.675 0
36.747002 7.6069999 -1.681 0
36.805 7.7399998 -1.6849999 0
36.889999 7.8179998 -1.6900001 0
36.903 7.9419999 -1.692 0
36.974998 8.0799999 -1.697 0
37.02 8.2110004 -1.7 0
36.993999 8.3280001 -1.7 0
37.001999 8.4519997 -1.702 0
37.146999 8.5459995 -1.71 0
37.213001 8.6850004 -1.715 0
37.286999 8.8260002 -1.72 0
37.362 8.9680004 -1.726 0
37.418999 9.1059999 -1.73 0
37.465 9.2419996 -1.734 0
37.528999 9.3830004 -1.739 0
37.596001 9.5249996 -1.744 0
37.669998 9.6070004 -1.748 0
37.724998 9.7480001 -1.753 0
37.791 9.8909998 -1.758 0
37.900002 10.047 -1.765 0
37.974998 10.195 -1.771 0
38.078999 10.352 -1.778 0
38.161999 10.503 -1.784 0
38.275002 10.599 -1.79 0
38.375999 10.757 -1.7970001 0
38.495998 10.921 -1.806 0
38.640999 11.094 -1.8150001 0
38.814999 11.276 -1.826 0
39.009998 11.466 -1.8380001 0
39.546001 11.759 -1.868 0.1
39.398998 11.782 -1.8609999 0
39.152 11.842 -1.85 0
39.028 11.939 -1.846 0
38.945 12.047 -1.8430001 0
38.874001 12.159 -1.842 0
38.759998 12.257 -1.8380001 0
38.679001 12.366 -1.835 0
38.598999 12.407 -1.832 0
38.533001 12.519 -1.831 0
38.484001 12.637 -1.83 0
38.374001 12.735 -1.826 0
38.272999 12.835 -1.823 0
38.183998 12.938 -1.821 0
38.111 13.047 -1.819 0
38.091999 13.108 -1.819 0
38.078999 13.237 -1.821 0
38.179001 13.407 -1.8279999 0
38.387001 13.615 -1.841 0.11
38.375999 13.747 -1.8430001 0.090000004
38.237 13.833 -1.8380001 0.14
38.092999 13.917 -1.8329999 0.27000001
37.942001 13.929 -1.826 0.25
37.865002 14.036 -1.824 0.27000001
37.792 14.144 -1.822 0.25999999
37.776001 14.273 -1.824 0.19
37.758999 14.403 -1.825 0.15000001
37.647999 14.496 -1.822 0.13
37.533001 14.587 -1.818 0.17
37.521999 14.651 -1.819 0.28999999
37.477001 14.769 -1.819 0.27000001
37.403 14.876 -1.817 0.11
37.358002 14.994 -1.818 0.16
37.293999 15.104 -1.817 0.28
37.276001 15.234 -1.818 0.11
37.298 15.38 -1.822 0.14
37.278999 15.441 -1.822 0.13
37.252998 15.567 -1.824 0.16
37.162998 15.667 -1.821 0
35.381001 15.045 -1.727 0
35.346001 15.162 -1.728 0
35.417 15.324 -1.734 0
35.452999 15.472 -1.739 0.029999999
36.678001 16.076 -1.807 0
36.522999 16.146 -1.801 0.1
36.804001 16.408001 -1.8200001 0
36.805 16.548 -1.823 0
36.757 16.665001 -1.823 0
33.799999 15.45 -1.6619999 0
33.655998 15.512 -1.6569999 0
33.723999 15.608 -1.6619999 0
33.754002 15.751 -1.6670001 0
33.794998 15.9 -1.6720001 0
33.938999 16.098 -1.682 0
37.257 17.818001 -1.87 0
37.411999 18.037001 -1.882 0
37.348 18.150999 -1.881 0
37.383999 18.240999 -1.885 0
37.418999 18.403999 -1.89 0
36.143002 17.917 -1.822 0
36.098999 18.037001 -1.823 0
36.172001 18.216 -1.83 0
37.345001 18.955 -1.899 0.11
37.398998 19.129999 -1.906 0
37.313999 19.160999 -1.902 0.13
37.220001 19.26 -1.901 0
37.165001 19.379999 -1.901 0.12
27.958 14.684 -1.382 0.22
27.913 14.772 -1.382 0.19
27.895 14.875 -1.3839999 0.2
28.004999 15.047 -1.393 0.27000001
26.937 14.527 -1.3329999 0.14
27.072001 14.71 -1.3430001 0.38
27.392 14.995 -1.364 0.17
27.25 15.029 -1.359 0.31999999
27.384001 15.216 -1.369 0.25
27.427 15.352 -1.375 0.14
25.601 14.434 -1.272 0.55000001
26.996 15.279 -1.354 0.23
25.816999 14.717 -1.289 0.15000001
25.610001 14.706 -1.279 0.5
25.555 14.781 -1.279 0.23
25.438 14.82 -1.275 0.23999999
25.291 14.841 -1.2690001 0.28999999
25.261999 14.931 -1.27 0.31999999
25.183001 14.938 -1.267 0.31999999
25.240999 15.079 -1.273 0.30000001
25.176001 15.148 -1.272 0.28999999
25.120001 15.222 -1.271 0.38
25.138 15.342 -1.275 0.30000001
25.216 15.498 -1.283 0.33000001
25.167 15.577 -1.283 0.33000001
25.047001 15.612 -1.278 0.34999999
25.202999 15.764 -1.289 0.34
25.407 16.003 -1.304 0.25
25.239 16.007999 -1.2970001 0.22
25.233999 16.117001 -1.3 0.34999999
25.304001 16.274 -1.307 0.37
25.298 16.382 -1.3099999 0.28999999
25.597 16.634001 -1.329 0.27000001
25.542999 16.712999 -1.329 0.28
25.549 16.830999 -1.3329999 0.25999999
25.471001 16.895 -1.331 0.22
25.402 16.965 -1.33 0.25999999
25.43 17.099001 -1.335 0.30000001
25.431 17.216 -1.3380001 0.2
25.496 17.319 -1.344 0.22
25.664 17.551001 -1.358 0.19
25.732 17.716999 -1.365 0.25999999
25.690001 17.806999 -1.3660001 0.25999999
25.584 17.853001 -1.363 0.28999999
25.579 17.969 -1.3660001 0.34999999
25.552999 18.070999 -1.368 0.16
28.408001 20.160999 -1.546 0
28.056 20.042999 -1.528 0
27.788 19.983999 -1.515 0
36.245998 26.25 -2.043 0
36.238998 26.419001 -2.0480001 0
27.523001 20.190001 -1.51 0
27.733999 20.479 -1.527 0
36.145 26.875999 -2.0580001 0
24.959 18.854 -1.367 0.34999999
24.804001 18.860001 -1.3609999 0.38999999
24.638 18.856001 -1.354 0.34999999
24.475 18.853001 -1.348 0.38999999
24.323999 18.858999 -1.342 0.37
24.271 18.879 -1.34 0.43000001
24.268999 19 -1.344 0.27000001
24.941999 19.653999 -1.391 0.30000001
24.924999 19.768999 -1.3940001 0.31999999
24.921 19.893 -1.398 0.36000001
24.954 20.049 -1.404 0.34999999
24.712999 19.983 -1.392 0.23999999
25.004 20.283001 -1.413 0.28
25.041 20.444 -1.42 0.34999999
25.028999 20.566 -1.423 0.27000001
25.028999 20.698 -1.427 0.34
25.039 20.839001 -1.432 0.34
24.912001 20.865999 -1.428 0.27000001
24.860001 20.955999 -1.429 0.14
24.723 20.907 -1.4220001 0.15000001
24.531 20.877001 -1.414 0
24.287001 20.801001 -1.402 0
23.945 20.638 -1.3839999 0
23.795 20.639999 -1.378 0
23.27 20.312 -1.347 0
23.148001 20.334 -1.3430001 0
23.125 20.378 -1.344 0
23.099001 20.485001 -1.347 0
23.099001 20.615 -1.351 0
22.966 20.625999 -1.346 0
22.504999 20.34 -1.3200001 0
22.388 20.362 -1.316 0
22.278999 20.389999 -1.313 0
22.160999 20.347 -1.307 0.059999999
22.037001 20.361 -1.303 0
22.052 20.504 -1.308 0
21.929001 20.518 -1.304 0
21.674 20.407 -1.291 0
21.622999 20.488001 -1.2920001 0
21.436001 20.438 -1.284 0
21.424999 20.493 -1.285 0
21.440001 20.636 -1.291 0.050000001
19.266001 18.775 -1.147 0.14
19.167999 18.797001 -1.145 0.40000001
19.059999 18.808001 -1.141 0.38999999
18.948 18.816 -1.137 0.41
18.862 18.789 -1.133 0.31999999
18.738001 18.783001 -1.1289999 0.47
18.636999 18.799999 -1.126 0.27000001
18.51 18.790001 -1.1210001 0.58999997
18.445999 18.841999 -1.12 0.31999999
18.441999 18.957001 -1.124 0.34999999
18.436001 19.070999 -1.128 0.31
18.462 19.158001 -1.132 0.31999999
18.464001 19.281 -1.137 0.31999999
18.461 19.399 -1.141 0.31999999
18.466 19.527 -1.146 0.31999999
18.452 19.636 -1.149 0.28999999
18.447001 19.754999 -1.154 0.31999999
18.448999 19.882 -1.158 0.31999999
18.445999 20.004 -1.163 0.34
18.473 20.097 -1.1670001 0.34999999
18.473 20.224001 -1.1720001 0.34
18.471001 20.35 -1.176 0.33000001
18.472 20.481001 -1.181 0.33000001
18.457001 20.594 -1.1849999 0.31999999
18.448 20.714001 -1.189 0.36000001
10.195 11.502 -0.56800002 0.47
18.507 20.979 -1.201 0.17
18.485001 21.087 -1.204 0.37
18.472 21.207001 -1.209 0.38
18.466999 21.336 -1.2130001 0.37
18.461 21.465 -1.2180001 0.34
18.455 21.596001 -1.223 0.38999999
18.455 21.733 -1.228 0.34999999
18.483999 21.837 -1.233 0.36000001
18.48 21.972 -1.238 0.38
18.479 22.112 -1.243 0.38
18.466999 22.239 -1.248 0.38999999
18.462999 22.377001 -1.253 0.38999999
18.455999 22.511999 -1.258 0.38
18.452 22.652 -1.263 0.38999999
18.48 22.76 -1.2690001 0.38
18.478001 22.903999 -1.274 0.38999999
18.472 23.044001 -1.279 0.40000001
18.469 23.190001 -1.285 0.40000001
18.462999 23.332001 -1.29 0.38999999
18.462 23.483 -1.296 0.38
18.457001 23.629 -1.302 0.38
18.485001 23.742001 -1.307 0.38
18.476999 23.886999 -1.313 0.38
18.474001 24.038 -1.319 0.41999999
18.483 24.207001 -1.326 0.25999999
18.434999 24.302 -1.3279999 0.52999997
18.304001 24.288 -1.324 0.40000001
18.18 24.281 -1.319 0
18.377001 24.625 -1.339 0
18.921 25.521999 -1.392 0.15000001
18.812 25.542999 -1.3890001 0
18.712 25.575001 -1.388 0
18.643 25.65 -1.3890001 0
18.636999 25.812 -1.395 0
18.658001 26.013 -1.404 0
18.716999 26.181999 -1.4119999 0
18.684 26.309 -1.4170001 0.07
9.9230003 14.234 -0.66799998 0.61000001
9.8439999 14.216 -0.66500002 0.27000001
9.9160004 14.418 -0.67500001 0.34
9.8809996 14.464 -0.676 0.41
9.7469997 14.316 -0.66600001 0.44999999
9.6660004 14.292 -0.66299999 0.31999999
9.5200005 14.171 -0.65399998 0.36000001
8.9659996 13.436 -0.60799998 0.33000001
8.9130001 13.447 -0.60699999 0.33000001
8.868 13.472 -0.60600001 0.41999999
8.8400002 13.521 -0.60799998 0.36000001
9.1210003 14.001 -0.63599998 0.38
9.0679998 14.014 -0.63499999 0.28999999
9.6070004 14.955 -0.68900001 0.34999999
9.5600004 14.985 -0.68900001 0.36000001
8.809 13.9 -0.62300003 0.25
9.0970001 14.456 -0.65399998 0.38999999
9.3059998 14.893 -0.67799997 0.28
8.9630003 14.393 -0.648 0.40000001
8.9940004 14.545 -0.65499997 0.28999999
8.8909998 14.48 -0.64999998 0.23
8.882 14.567 -0.653 0.56
9.0059996 14.877 -0.67000002 0.33000001
8.4910002 14.122 -0.62400001 0.25
8.7609997 14.678 -0.65499997 0.28
8.4569998 14.217 -0.62699997 0.28
8.2810001 14.022 -0.61400002 0.34999999
8.3039999 14.162 -0.62099999 0.30000001
8.3850002 14.405 -0.634 0.40000001
8.1949997 14.181 -0.61900002 0.36000001
8.0649996 14.055 -0.61000001 0.34999999
8.1660004 14.338 -0.625 0.33000001
8.1059999 14.335 -0.62300003 0.33000001
8.0649996 14.317 -0.62199998 0.38
8.007 14.318 -0.62 0.31999999
7.9840002 14.383 -0.62300003 0.44
7.802 14.159 -0.60799998 0.25999999
7.7820001 14.228 -0.611 0.36000001
7.7979999 14.364 -0.61699998 0.27000001
7.7589998 14.401 -0.61799997 0.34
7.7270002 14.396 -0.61699998 0.34
7.6290002 14.319 -0.611 0.27000001
7.677 14.52 -0.62099999 0.47
7.592 14.47 -0.61699998 0.33000001
7.5799999 14.557 -0.62099999 0.47999999
7.54 14.593 -0.62099999 0.28999999
7.474 14.576 -0.61900002 0.34
7.4580002 14.602 -0.62 0.30000001
7.4640002 14.729 -0.62599999 0.36000001
7.3410001 14.599 -0.61699998 0.37
7.3889999 14.811 -0.62800002 0.38
7.3080001 14.765 -0.62400001 0.31999999
7.3150001 14.897 -0.63 0.23
7.428 15.249 -0.648 0.57999998
7.4000001 15.251 -0.648 0.27000001
15.441 32.146 -1.587 0.18000001
12.301 25.805 -1.232 0.23999999
12.204 25.811001 -1.23 0.31999999
12.123 25.849001 -1.23 0.34999999
12.054 25.913 -1.2309999 0.18000001
15.108 32.764 -1.608 0.13
15.155 33.001999 -1.62 0
14.946 32.818001 -1.607 0
6.552 14.845 -0.611 0.43000001
6.5029998 14.86 -0.611 0.30000001
6.4699998 14.848 -0.61000001 0.61000001
6.5279999 15.111 -0.62300003 0
6.4109998 14.969 -0.61400002 0
11.507 27.155001 -1.277 0
11.496 27.368999 -1.2869999 0.050000001
11.467 27.542 -1.294 0
13.964 33.854 -1.635 0
13.896 33.839001 -1.633 0
12.52 31.037001 -1.477 0.1
12.289 30.742001 -1.459 0.30000001
12.188 30.767 -1.4579999 0.30000001
12.058 30.722 -1.454 0
10.686 27.471001 -1.276 0
11.525 29.913 -1.406 0.039999999
9.1059999 24.184999 -1.094 0.50999999
9.0279999 24.208 -1.094 0.31999999
8.9350004 24.188999 -1.091 0.54000002
8.8570004 24.214001 -1.091 0.34
8.7650003 24.195999 -1.089 0.56999999
8.7270002 24.209999 -1.089 0.34
8.6359997 24.195999 -1.086 0.47999999
8.5439997 24.177999 -1.084 0.57999998
9.0120001 26.025999 -1.179 0.66000003
8.941 26.089001 -1.181 0
10.132 29.879999 -1.381 0
10.069 29.847 -1.378 0.12
10.058 30.127001 -1.391 0.2
10.777 32.979 -1.538 0.31999999
11.003 34.034 -1.592 0.19
10.902 34.087002 -1.5930001 0.27000001
10.784 34.087002 -1.592 0.23999999
10.717 34.060001 -1.589 0.33000001
10.604 34.076 -1.5880001 0.34999999
9.4700003 30.764 -1.413 0.23
9.3450003 30.700001 -1.408 0.36000001
9.2309999 30.67 -1.405 0.14
9.9300003 33.379002 -1.545 0.2
8.323 28.289 -1.277 0.19
8.2309999 28.302999 -1.276 0.31
8.184 28.306999 -1.276 0.16
9.5240002 33.349998 -1.538 0.22
9.4180002 33.375999 -1.538 0.46000001
9.3179998 33.423 -1.539 0.23999999
9.3000002 33.77 -1.5549999 0.23
9.2670002 34.069 -1.569 0.31
9.1540003 34.075001 -1.568 0.31
9.0880003 34.042999 -1.566 0.34
8.8959999 33.75 -1.549 0.27000001
8.7790003 33.734001 -1.5470001 0.2
8.6689997 33.745998 -1.546 0.5
8.5839996 33.858002 -1.55 0.18000001
8.4779997 33.887001 -1.55 0.18000001
8.4090004 34.063999 -1.558 0.5
8.1370001 33.185001 -1.512 0.20999999
8.033 33.673 -1.535 0.56
7.9650002 33.859001 -1.543 0.17
7.9000001 34.064999 -1.552 0.31999999
7.7849998 34.053001 -1.55 0.28
7.6350002 33.888 -1.541 0
7.5679998 33.834999 -1.5369999 0
7.441 33.766998 -1.533 0.12
5.1739998 24.167999 -1.038 0.27000001
5.0929999 24.159 -1.036 0.5
5.0170002 24.173 -1.036 0.37
4.9359999 24.167 -1.035 0.5
4.8969998 24.165001 -1.035 0.37
4.816 24.157 -1.033 0.47999999
4.7410002 24.176001 -1.034 0.37
4.6570001 24.149 -1.031 0.54000002
4.586 24.191 -1.033 0.60000002
4.5050001 24.18 -1.0319999 0.23999999
6.2199998 34.032001 -1.533 0.31999999
6.1079998 34.021999 -1.5319999 0.27000001
6.052 34.016998 -1.531 0.18000001
5.941 34.014999 -1.53 0.30000001
5.7259998 33.401001 -1.498 0.2
5.7189999 34 -1.528 0.28999999
5.612 34.021999 -1.528 0.31
5.5029998 34.023998 -1.527 0.31
5.3940001 34.025002 -1.526 0.34
5.3369999 34.014 -1.525 0.2
4.3449998 28.245001 -1.2309999 0.28
4.2600002 28.280001 -1.232 0.44999999
4.1739998 28.311001 -1.233 0.30000001
4.8150001 33.423 -1.492 0.15000001
4.75 33.716999 -1.506 0.49000001
4.6420002 33.723999 -1.506 0.20999999
4.6259999 34.005001 -1.52 0.31999999
4.4899998 33.797001 -1.508 0.31
4.3759999 33.75 -1.505 0.25
4.296 33.971001 -1.516 0.23
4.1929998 34.012001 -1.517 0.31
4.0830002 34.004002 -1.516 0.31
3.9749999 34.006001 -1.516 0.31
3.9200001 33.994999 -1.515 0.31
3.8110001 33.988998 -1.5140001 0.23
3.6949999 33.910999 -1.5089999 0.18000001
3.336 33.549 -1.489 0.69
3.243 33.691002 -1.4960001 0
3.168 33.455002 -1.484 0
3.062 33.465 -1.484 0.07
3 33.962002 -1.508 0.15000001
2.846 33.416 -1.48 0.28999999
2.7390001 33.396999 -1.479 0.34
2.6659999 33.817001 -1.5 0.20999999
2.573 33.993 -1.508 0.31
2.5190001 33.988998 -1.508 0.30000001
2.411 33.979 -1.507 0.23
2.303 33.973999 -1.506 0.31999999
2.164 33.480999 -1.4809999 0.2
2.0669999 33.620998 -1.488 0.23
0.83999997 14.955 -0.54900002 0.38
0.79100001 14.927 -0.54699999 0.36000001
0.76599997 14.885 -0.54500002 0.5
0.72000003 14.909 -0.546 0.25999999
0.67299998 14.909 -0.546 0.61000001
0.99699998 24.132 -1.0089999 0.23
0.921 24.129 -1.0089999 0.52999997
0.84600002 24.139999 -1.0089999 0.38999999
0.76899999 24.132 -1.0089999 0.52999997
0.73100001 24.132 -1.0089999 0.40000001
0.65499997 24.120001 -1.008 0.54000002
0.579 24.1 -1.007 0.58999997
0.68000001 33.046001 -1.456 0.25999999
0.40799999 28.250999 -1.215 0.51999998
0.31900001 28.226 -1.214 0.67000002
0.26499999 33.043999 -1.456 0.27000001
0.214 33.273998 -1.467 0.36000001
0.11 33.292999 -1.4680001 0.25
0.0049999999 33.381001 -1.473 0.38
-0.102 33.874001 -1.497 0.31999999
-0.20900001 33.959999 -1.502 0.16
-0.315 33.963001 -1.502 0.38999999
-0.368 33.950001 -1.501 0.23999999
-0.47499999 33.951 -1.501 0.28999999
-0.58200002 33.960999 -1.502 0.27000001
-0.68900001 33.959 -1.502 0.28
-0.79500002 33.952999 -1.502 0.22
-0.88499999 33.347 -1.471 0
-1.0039999 33.806 -1.495 0
-1.056 33.768002 -1.493 0
-1.163 33.784 -1.494 0
-1.27 33.794998 -1.494 0
-1.377 33.821999 -1.4960001 0
-1.596 33.943001 -1.503 0.17
-1.671 33.325001 -1.472 0.49000001
-1.774 33.284 -1.47 0.19
-1.825 33.263 -1.469 0.14
-1.927 33.216999 -1.467 0.14
-2.073 33.873001 -1.5 0.17
-2.1800001 33.872002 -1.501 0.27000001
-2.2909999 33.943001 -1.505 0.25999999
-2.398 33.936001 -1.505 0.2
-2.5050001 33.928001 -1.505 0.44999999
-2.559 33.942001 -1.505 0.23
-2.665 33.925999 -1.505 0.16
-2.2980001 28.176001 -1.216 0.34
-2.3800001 28.087 -1.212 0.38
-2.9879999 33.937 -1.507 0.18000001
-3.0680001 33.632999 -1.492 0.27000001
-3.1730001 33.623001 -1.492 0.31999999
-3.2279999 33.633999 -1.493 0.23
-2.9790001 30.08 -1.314 0.25
-3.0739999 30.072001 -1.314 0.22
-3.155 29.933001 -1.308 0.46000001
-3.2149999 29.618 -1.2920001 0.15000001
-2.6900001 24.115 -1.015 0.19
-2.766 24.108 -1.015 0.31999999
-2.803 24.096001 -1.015 0.51999998
-2.8800001 24.103001 -1.015 0.38
-2.9579999 24.110001 -1.016 0.51999998
-3.0350001 24.110001 -1.017 0.40000001
-3.1110001 24.101 -1.017 0.51999998
-3.1889999 24.110001 -1.018 0.38999999
-3.263 24.09 -1.017 0.51999998
-3.3410001 24.094 -1.018 0.38999999
-3.382 24.108 -1.0190001 0.50999999
-3.457 24.096001 -1.0190001 0.38999999
-3.5339999 24.091 -1.0190001 0.50999999
-3.6140001 24.108999 -1.021 0.38
-3.688 24.09 -1.02 0.50999999
-3.767 24.096001 -1.021 0.38999999
-3.845 24.098 -1.022 0.51999998
-3.8800001 24.073999 -1.021 0.44
-3.967 24.134001 -1.025 0.56999999
-5.7010002 33.950001 -1.525 0.19
-5.8639998 34.257 -1.541 0.19
-6.0560002 34.094002 -1.535 0
-4.3790002 24.254 -1.034 0
-4.415 24.235001 -1.033 0
-4.4970002 24.249001 -1.035 0
-4.573 24.238001 -1.035 0
-5.1269999 26.695 -1.161 0
-5.2049999 26.653 -1.16 0
-4.809 24.233 -1.0369999 0.050000001
-4.974 24.455 -1.05 0
-5.0050001 24.219999 -1.038 0
-5.0869999 24.232 -1.04 0
-5.1700001 24.247 -1.041 0
-5.244 24.221001 -1.041 0
-5.3239999 24.224001 -1.0420001 0
-5.4050002 24.228001 -1.043 0
-5.4819999 24.215 -1.043 0
-5.5240002 24.224001 -1.044 0
-5.6040001 24.224001 -1.045 0
-3.628 15.079 -0.57499999 0.27000001
-3.7260001 15.273 -0.58600003 0.57999998
-8.4219999 33.921001 -1.551 0.20999999
-3.9230001 15.753 -0.61199999 0.19
-3.77 14.945 -0.57099998 0.28999999
-3.7590001 14.705 -0.55900002 0.20999999
-3.7880001 14.628 -0.55500001 0.56999999
-3.8239999 14.581 -0.55400002 0.30000001
-4.0089998 14.9 -0.57099998 0.46000001
-3.9449999 14.572 -0.55500001 0.41
-4.0739999 14.863 -0.56999999 0.19
-3.9349999 14.185 -0.53600001 0.44999999
-4.1370001 14.555 -0.55599999 0.58999997
-4.0229998 13.99 -0.528 0.2
-4.0320001 13.856 -0.52100003 0.44
-4.1059999 13.947 -0.52700001 0.31999999
-4.25 14.35 -0.54799998 0.38999999
-4.296 14.343 -0.54799998 0.34999999
-4.3319998 14.296 -0.54699999 0.2
-4.3319998 14.14 -0.53899997 0.38
-4.3390002 14.004 -0.53299999 0.43000001
-4.3590002 13.916 -0.52899998 0.31
-4.3600001 13.767 -0.52200001 0.44
-4.5100002 14.162 -0.54299998 0.41999999
-4.8540001 15.073 -0.59200001 0.41
-4.8979998 15.046 -0.59100002 0.25
-4.7589998 14.467 -0.56099999 0.22
-4.7940001 14.422 -0.56 0.61000001
-4.908 14.609 -0.56999999 0.36000001
-4.9190001 14.492 -0.565 0.28999999
-8.1099997 23.719 -1.0549999 0.41
-8.1739998 23.664 -1.054 0.28
-4.9650002 14.26 -0.55500001 0.18000001
-5.0689998 14.41 -0.56400001 0.54000002
-5.1209998 14.415 -0.565 0.34
-5.381 14.995 -0.597 0.15000001
-8.6079998 23.705 -1.063 0.60000002
-8.6560001 23.723 -1.064 0.18000001
-5.25 14.277 -0.56 0.50999999
-5.2490001 14.139 -0.55400002 0.17
-5.1389999 13.713 -0.53200001 0.41
-5.2509999 13.878 -0.542 0.38999999
-5.7210002 14.973 -0.60100001 0.20999999
-5.7719998 14.894 -0.59899998 0.19
-12.881 32.845001 -1.568 0.16
-12.878 32.536999 -1.553 0.27000001
-12.913 32.330002 -1.544 0.22
-12.914 32.041 -1.531 0.2
-12.922 31.771 -1.5190001 0.30000001
-12.942 31.535999 -1.508 0.25
-12.952 31.281 -1.4960001 0.23999999
-12.905 31.030001 -1.484 0.22
-12.744 30.375 -1.45 0.2
-12.766 30.162001 -1.441 0.37
-12.92 30.261 -1.449 0.12
-12.205 28.344 -1.346 0.25
-12.412 28.575001 -1.3609999 0
-13.235 30.207001 -1.452 0
-12.519 28.454 -1.357 0
-12.546 28.275999 -1.35 0
-12.586 28.127001 -1.344 0
-12.597 27.916 -1.334 0.1
-12.656 27.813 -1.331 0.12
-12.763 27.816 -1.3329999 0.36000001
-12.858 27.792 -1.334 0.23999999
-13.322 28.441999 -1.373 0.19
-13.634 28.871 -1.4 0.16
-13.888 29.169001 -1.419 0
-13.57 28.274 -1.3710001 0.11
-13.793 28.507999 -1.387 0
-13.791 28.278 -1.376 0
-13.405 27.27 -1.322 0
-13.959 28.282 -1.38 0.16
-7.2090001 14.52 -0.611 0.2
-7.1469998 14.283 -0.59899998 0.23
-6.8979998 13.681 -0.56599998 0.23
-6.8829999 13.545 -0.56 0.41999999
-7.2519999 14.158 -0.59500003 0.22
-6.993 13.55 -0.56199998 0.57999998
-7.5840001 14.523 -0.61900002 0.44999999
-7.6620002 14.559 -0.62300003 0.33000001
-7.6290002 14.387 -0.61400002 0.46000001
-7.6059999 14.236 -0.60699999 0.18000001
-12.923 23.969 -1.164 0.41
-13.019 23.966999 -1.166 0.41
-13.114 23.962999 -1.168 0.38999999
-13.173 23.981001 -1.17 0.38999999
-13.272 23.981001 -1.173 0.40000001
-13.356 23.955 -1.174 0.44999999
-13.46 23.965 -1.177 0.34
-13.561 23.968 -1.179 0.40000001
-13.654 23.955999 -1.181 0.38999999
-13.713 23.971001 -1.183 0.38999999
-13.814 23.973 -1.186 0.38
-13.915 23.974001 -1.188 0.38999999
-14.011 23.965 -1.1900001 0.47
-14.111 23.964001 -1.193 0.37
-14.204 23.948999 -1.1950001 0.47999999
-14.315 23.964001 -1.198 0.28999999
-14.399 23.934 -1.199 0.58999997
-14.473 23.971001 -1.202 0.41999999
-17.697001 29.093 -1.506 0.25
-17.938 29.280001 -1.521 0.28
-18.087 29.316999 -1.526 0.40000001
-18.215 29.318001 -1.529 0.31999999
-18.341999 29.316 -1.533 0.41
-18.466999 29.311001 -1.536 0.38999999
-18.542 29.327 -1.539 0.38999999
-18.674 29.330999 -1.5420001 0.34
-18.795 29.318001 -1.545 0.44999999
-18.934 29.330999 -1.549 0.19
-9.7609997 15.041 -0.69700003 0.47999999
-9.7840004 14.973 -0.69499999 0.41
-9.8050003 14.902 -0.69199997 0.28999999
-9.7869997 14.825 -0.68900001 0.47999999
-9.8070002 14.755 -0.68599999 0.37
-9.8290005 14.687 -0.68400002 0.41
-9.8450003 14.612 -0.68099999 0.44
-9.8710003 14.551 -0.67900002 0.34
-9.8940001 14.487 -0.67699999 0.43000001
-9.9099998 14.413 -0.67500001 0.41
-9.934 14.352 -0.67299998 0.37
-9.934 14.304 -0.671 0.41
-9.9589996 14.245 -0.66900003 0.41999999
-9.9890003 14.192 -0.66799998 0.38999999
-10.006 14.122 -0.66600001 0.43000001
-10.05 14.09 -0.66600001 0.23999999
-10.064 14.016 -0.66299999 0.58999997
-10.229 14.151 -0.67299998 0.19
-28.384001 39.060001 -2.221 0
-28.513 38.979 -2.221 0
-28.657 38.919998 -2.223 0
-21.228001 28.653 -1.587 0.059999999
-21.250999 28.497 -1.581 0.22
-21.296 28.371 -1.5779999 0.16
-18.164 24.046 -1.3099999 0.33000001
-18.188999 24.002001 -1.309 0.17
-18.256001 23.933001 -1.308 0.27000001
-18.362 23.915001 -1.3099999 0.51999998
-18.492001 23.929001 -1.3150001 0.20999999
-11.613 14.946 -0.74699998 0.61000001
-18.719 23.910999 -1.321 0.30000001
-18.836 23.905001 -1.325 0.38999999
-18.955999 23.902 -1.3279999 0.37
-19.031 23.919001 -1.331 0.44999999
-19.146999 23.910999 -1.335 0.34
-12.035 14.948 -0.75999999 0.41
-12.12 14.957 -0.76300001 0.38
-12.21 14.971 -0.76700002 0.27000001
-12.252 14.927 -0.76599997 0.54000002
-12.342 14.94 -0.76999998 0.28999999
-12.405 14.969 -0.773 0.41
-12.452 14.93 -0.773 0.44999999
-12.515 14.91 -0.77399999 0.36000001
