# .PCD v0.7 - Point Cloud Data file format
VERSION 0.7
FIELDS x y z intensity
SIZE 4 4 4 4
TYPE F F F F
COUNT 1 1 1 1
WIDTH 1414
HEIGHT 1
VIEWPOINT 0 0 0 1 0 0 0
POINTS 1414
DATA ascii
6.5229998 -3.158 -1.691 0.090000004
6.5570002 -3.1489999 -1.698 0.15000001
6.5489998 -3.1199999 -1.693 0.050000001
6.5630002 -3.1010001 -1.694 0.16
6.5669999 -3.0780001 -1.693 0.050000001
6.579 -3.0710001 -1.694 0.16
6.585 -3.049 -1.694 0.2
6.586 -3.0239999 -1.691 0.090000004
6.6020002 -3.007 -1.693 0.16
6.5939999 -2.9779999 -1.688 0.22
6.6069999 -2.9590001 -1.689 0.22
6.6090002 -2.9349999 -1.687 0.25
6.6079998 -2.9219999 -1.686 0.31
6.6139998 -2.9000001 -1.6849999 0.23
6.6350002 -2.8840001 -1.688 0.36000001
6.6389999 -2.8610001 -1.687 0.34
6.6529999 -2.8429999 -1.688 0.31999999
6.6570001 -2.819 -1.687 0.31999999
6.6680002 -2.799 -1.687 0.30000001
6.6789999 -2.7920001 -1.689 0.37
6.6750002 -2.766 -1.686 0.30000001
6.6859999 -2.7449999 -1.686 0.36000001
6.698 -2.7260001 -1.687 0.34
6.7069998 -2.7049999 -1.687 0.28999999
6.71 -2.681 -1.686 0.33000001
6.723 -2.6619999 -1.687 0.36000001
6.7290001 -2.6530001 -1.688 0.31
6.7319999 -2.6289999 -1.686 0.38
6.7350001 -2.6059999 -1.6849999 0.34
6.7449999 -2.586 -1.6849999 0.28
6.7509999 -2.5639999 -1.6849999 0.36000001
6.7540002 -2.5409999 -1.683 0.31999999
6.7709999 -2.523 -1.686 0.38
6.7880001 -2.517 -1.689 0.34999999
6.7919998 -2.494 -1.688 0.34
6.8049998 -2.4749999 -1.6900001 0.23
6.8070002 -2.451 -1.688 0.13
6.842 -2.4400001 -1.6950001 0.16
6.802 -2.401 -1.683 0.050000001
6.8260002 -2.3859999 -1.687 0.16
6.8119998 -2.369 -1.682 0.050000001
6.836 -2.3529999 -1.687 0.16
6.8379998 -2.3299999 -1.6849999 0.050000001
6.862 -2.3139999 -1.6900001 0.16
6.8600001 -2.289 -1.687 0.19
6.8540001 -2.263 -1.684 0.090000004
6.8629999 -2.2420001 -1.684 0.090000004
6.868 -2.2320001 -1.6849999 0.090000004
6.8699999 -2.2090001 -1.683 0.090000004
6.8709998 -2.1849999 -1.682 0.079999998
6.8850002 -2.1659999 -1.684 0.079999998
6.8940001 -2.145 -1.684 0.090000004
6.895 -2.122 -1.683 0.090000004
6.9000001 -2.099 -1.682 0.079999998
6.8990002 -2.0880001 -1.681 0.079999998
6.8979998 -2.0639999 -1.679 0.090000004
6.9229999 -2.0469999 -1.684 0.090000004
6.9130001 -2.0209999 -1.6799999 0.079999998
6.9190001 -1.999 -1.6799999 0.079999998
6.9330001 -1.979 -1.682 0.16
6.941 -1.9579999 -1.682 0.28
6.9369998 -1.9450001 -1.6799999 0.30000001
6.928 -1.919 -1.677 0.28999999
6.9369998 -1.899 -1.677 0.31
6.9419999 -1.876 -1.677 0.30000001
6.9359999 -1.851 -1.674 0.30000001
6.9380002 -1.829 -1.673 0.30000001
6.9549999 -1.8099999 -1.676 0.30000001
6.967 -1.801 -1.678 0.34
6.9520001 -1.774 -1.673 0.28
6.9580002 -1.752 -1.673 0.2
6.9710002 -1.732 -1.675 0.33000001
6.9970002 -1.715 -1.6799999 0.23
6.9990001 -1.692 -1.679 0.2
6.993 -1.668 -1.677 0.18000001
6.9910002 -1.656 -1.676 0.18000001
6.9910002 -1.633 -1.674 0.18000001
7.0050001 -1.613 -1.677 0.17
7.0009999 -1.589 -1.674 0.16
7.0079999 -1.567 -1.675 0.039999999
7.0300002 -1.549 -1.679 0.07
7.0040002 -1.52 -1.671 0.039999999
7.0159998 -1.511 -1.674 0.079999998
7.0300002 -1.4910001 -1.676 0.079999998
7.0100002 -1.464 -1.67 0.039999999
7.0339999 -1.446 -1.675 0.07
7.0229998 -1.421 -1.671 0.039999999
7.0159998 -1.396 -1.668 0
7.0359998 -1.377 -1.6720001 0
7.053 -1.369 -1.676 0.059999999
7.0500002 -1.346 -1.674 0.039999999
7.0500002 -1.323 -1.673 0
7.0619998 -1.302 -1.675 0
7.0599999 -1.279 -1.673 0
7.0619998 -1.256 -1.673 0
7.1009998 -1.24 -1.681 0
7.072 -1.224 -1.674 0
7.0819998 -1.202 -1.675 0
7.0910001 -1.181 -1.677 0
7.0869999 -1.1569999 -1.675 0.029999999
7.098 -1.136 -1.677 0.039999999
7.1110001 -1.1160001 -1.679 0.029999999
7.0999999 -1.091 -1.675 0.029999999
7.092 -1.0779999 -1.673 0.029999999
7.112 -1.059 -1.677 0.039999999
7.1100001 -1.035 -1.676 0.029999999
7.0999999 -1.011 -1.6720001 0
7.118 -0.991 -1.676 0
7.1209998 -0.96899998 -1.676 0
7.1259999 -0.94599998 -1.677 0
7.1389999 -0.93699998 -1.679 0.07
7.131 -0.91299999 -1.677 0.039999999
7.1290002 -0.88999999 -1.676 0.039999999
7.1440001 -0.86900002 -1.678 0
7.152 -0.847 -1.6799999 0
7.1430001 -0.82300001 -1.677 0
7.1729999 -0.80400002 -1.684 0
7.1240001 -0.787 -1.671 0
7.1279998 -0.76499999 -1.6720001 0
7.177 -0.74699998 -1.683 0
7.1329999 -0.72000003 -1.6720001 0
7.1490002 -0.699 -1.675 0
7.1820002 -0.67900002 -1.683 0
7.138 -0.653 -1.671 0
7.1420002 -0.63099998 -1.6720001 0.029999999
7.152 -0.62 -1.674 0.029999999
7.1370001 -0.59600002 -1.67 0.029999999
7.1750002 -0.57700002 -1.679 0
7.1500001 -0.55199999 -1.6720001 0
7.1420002 -0.52899998 -1.67 0
7.177 -0.509 -1.678 0
7.178 -0.486 -1.678 0
7.1589999 -0.47400001 -1.673 0
7.1589999 -0.45100001 -1.673 0
7.151 -0.428 -1.67 0
7.1539998 -0.40599999 -1.671 0
7.1550002 -0.38299999 -1.671 0
7.1599998 -0.361 -1.6720001 0
7.165 -0.33899999 -1.673 0
7.1599998 -0.32699999 -1.671 0
7.1609998 -0.30500001 -1.671 0
7.1599998 -0.28200001 -1.671 0
7.165 -0.25999999 -1.6720001 0
7.1750002 -0.237 -1.674 0.059999999
7.1680002 -0.215 -1.6720001 0.039999999
7.171 -0.192 -1.673 0.07
7.184 -0.18099999 -1.676 0.039999999
7.1789999 -0.15899999 -1.675 0
7.1760001 -0.13600001 -1.674 0.07
7.165 -0.113 -1.671 0.039999999
7.1750002 -0.090999998 -1.673 0.039999999
7.171 -0.068000004 -1.6720001 0.07
7.1810002 -0.046 -1.675 0.039999999
7.165 -0.034000002 -1.671 0
7.1459999 -0.012 -1.666 0
6.8860002 0.0099999998 -1.6720001 0.25
6.8800001 0.032000002 -1.67 0.23
6.8779998 0.054000001 -1.67 0.2
6.8779998 0.075000003 -1.67 0.25
6.8779998 0.097000003 -1.67 0.19
6.8740001 0.118 -1.669 0.25
6.881 0.14 -1.671 0.18000001
6.855 0.161 -1.664 0.25
6.8800001 0.17299999 -1.671 0.20999999
6.8779998 0.19400001 -1.67 0.12
6.862 0.215 -1.666 0.20999999
6.8740001 0.237 -1.67 0.18000001
6.8639998 0.259 -1.6670001 0.25999999
6.881 0.28099999 -1.6720001 0.2
6.8759999 0.29100001 -1.671 0.22
6.881 0.31299999 -1.6720001 0.18000001
6.8629999 0.33399999 -1.668 0.23999999
6.8709998 0.35600001 -1.67 0.1
6.862 0.377 -1.668 0.19
6.8530002 0.39899999 -1.666 0.11
6.8709998 0.421 -1.671 0.18000001
6.8709998 0.43200001 -1.671 0.11
6.8559999 0.45300001 -1.668 0.20999999
6.8559999 0.47400001 -1.668 0.11
6.888 0.498 -1.677 0.16
6.8439999 0.51700002 -1.666 0.050000001
6.8569999 0.53899997 -1.67 0.17
6.8520002 0.56099999 -1.669 0.11
6.8460002 0.58200002 -1.668 0.19
6.8449998 0.59299999 -1.668 0.050000001
6.8509998 0.61500001 -1.67 0.17
6.8449998 0.63599998 -1.669 0.2
6.8449998 0.65799999 -1.669 0.1
6.8330002 0.67799997 -1.6670001 0.090000004
6.8270001 0.699 -1.666 0.090000004
6.8369999 0.722 -1.669 0.19
6.8369999 0.73299998 -1.669 0.19
6.8330002 0.75400001 -1.669 0.1
6.8369999 0.77600002 -1.67 0.18000001
6.823 0.796 -1.6670001 0.050000001
6.8140001 0.81699997 -1.666 0.18000001
6.8169999 0.83899999 -1.6670001 0.11
6.8130002 0.86000001 -1.6670001 0.2
6.8249998 0.87300003 -1.67 0.17
6.8049998 0.89200002 -1.666 0.25999999
6.8210001 0.91600001 -1.671 0.19
6.8010001 0.935 -1.666 0.12
6.7940001 0.95599997 -1.665 0.2
6.803 0.97899997 -1.668 0.17
6.7839999 0.99800003 -1.664 0.28
6.783 1.0089999 -1.664 0.2
6.783 1.03 -1.665 0.25
6.7839999 1.052 -1.666 0.19
6.7610002 1.071 -1.661 0.25
6.7729998 1.094 -1.665 0.19
6.7659998 1.115 -1.664 0.23999999
6.7719998 1.138 -1.6670001 0.19
6.7470002 1.145 -1.66 0.23999999
6.7420001 1.166 -1.66 0.23
6.757 1.1900001 -1.665 0.2
6.7360001 1.2079999 -1.66 0.27000001
6.7420001 1.2309999 -1.663 0.22
6.7459998 1.2539999 -1.665 0.20999999
6.7259998 1.272 -1.661 0.23999999
6.7150002 1.281 -1.658 0.23
6.7199998 1.304 -1.661 0.25999999
6.7140002 1.324 -1.66 0.25999999
6.7119999 1.346 -1.661 0.27000001
6.71 1.367 -1.6619999 0.18000001
6.6859999 1.385 -1.656 0.059999999
6.6760001 1.404 -1.655 0.12
6.6739998 1.415 -1.655 0.14
6.6729999 1.437 -1.656 0.20999999
6.665 1.457 -1.655 0.36000001
6.6490002 1.475 -1.652 0.36000001
6.6479998 1.497 -1.653 0.36000001
6.6360002 1.516 -1.651 0.38999999
6.6389999 1.539 -1.653 0.30000001
6.632 1.548 -1.652 0.54000002
6.6290002 1.5700001 -1.652 0.31
6.6279998 1.591 -1.653 0.16
6.6100001 1.609 -1.65 0.31999999
6.612 1.631 -1.652 0.25
6.6129999 1.654 -1.653 0.23999999
6.5999999 1.673 -1.651 0.18000001
6.5879998 1.681 -1.649 0.28999999
6.5869999 1.702 -1.65 0.25
6.5869999 1.724 -1.651 0.19
6.5780001 1.744 -1.65 0.25999999
6.5799999 1.767 -1.652 0.25
6.5799999 1.789 -1.654 0.16
6.5570002 1.8049999 -1.649 0.28
6.5510001 1.814 -1.648 0.23
6.5689998 1.841 -1.655 0.22
6.5450001 1.857 -1.65 0.25
6.5409999 1.878 -1.65 0.25
6.5440001 1.901 -1.653 0.2
6.5229998 1.9170001 -1.649 0.25999999
6.5170002 1.938 -1.649 0.23
6.5359998 1.955 -1.655 0.18000001
6.5079999 1.969 -1.649 0.25999999
6.507 1.9910001 -1.65 0.25
6.5050001 2.0120001 -1.651 0.19
6.4889998 2.03 -1.649 0.27000001
6.4990001 2.0550001 -1.653 0.23
6.4970002 2.0769999 -1.654 0.18000001
6.4770002 2.0929999 -1.651 0.28
6.4650002 2.0999999 -1.648 0.23999999
6.4629998 2.1229999 -1.65 0.20999999
6.4590001 2.1429999 -1.65 0.13
6.4569998 2.1659999 -1.652 0.20999999
6.46 2.1889999 -1.654 0.2
6.4380002 2.204 -1.65 0.23999999
6.4380002 2.227 -1.652 0.18000001
6.4390001 2.2379999 -1.653 0.23999999
6.4330001 2.2590001 -1.654 0.22
6.4120002 2.2739999 -1.65 0.22
6.415 2.2980001 -1.653 0.19
6.4029999 2.316 -1.651 0.25
6.408 2.3410001 -1.655 0.18000001
6.3930001 2.359 -1.653 0.25
6.3969998 2.3710001 -1.655 0.19
6.3800001 2.388 -1.652 0.25
6.3779998 2.4100001 -1.654 0.2
6.3509998 2.4230001 -1.648 0.22
6.3629999 2.45 -1.654 0.18000001
6.348 2.467 -1.652 0.25
6.348 2.4790001 -1.653 0.18000001
6.3400002 2.4990001 -1.653 0.25
6.3410001 2.5220001 -1.655 0.18000001
6.3210001 2.5369999 -1.652 0.23999999
6.316 2.5580001 -1.653 0.19
6.3060002 2.5769999 -1.652 0.25
6.2870002 2.5929999 -1.649 0.22
6.2940001 2.618 -1.653 0.2
6.2789998 2.6240001 -1.65 0.25
6.27 2.6440001 -1.65 0.22
6.2779999 2.6700001 -1.655 0.18000001
6.256 2.684 -1.651 0.27000001
6.2420001 2.701 -1.649 0.20999999
6.2459998 2.7260001 -1.653 0.17
6.2340002 2.744 -1.652 0.27000001
6.217 2.7479999 -1.648 0.23999999
6.2150002 2.7709999 -1.65 0.2
6.2119999 2.793 -1.652 0.27000001
6.191 2.8069999 -1.648 0.23999999
6.1960001 2.8329999 -1.652 0.2
6.178 2.848 -1.65 0.25999999
6.1690001 2.868 -1.65 0.25
6.1659999 2.878 -1.65 0.2
6.1560001 2.8970001 -1.65 0.25999999
6.131 2.908 -1.645 0.23999999
6.1370001 2.9349999 -1.65 0.19
6.1279998 2.954 -1.65 0.25999999
6.1059999 2.9679999 -1.646 0.23999999
6.1079998 2.9920001 -1.649 0.18000001
6.1009998 3.0009999 -1.649 0.27000001
6.0999999 3.0239999 -1.651 0.20999999
6.0799999 3.0380001 -1.648 0.17
6.0799999 3.062 -1.651 0.28999999
6.053 3.072 -1.646 0.25
6.0409999 3.0899999 -1.645 0.25999999
6.0380001 3.1129999 -1.647 0.18000001
6.0300002 3.1199999 -1.646 0.27000001
6.02 3.1389999 -1.646 0.25
6.0149999 3.161 -1.648 0.2
5.9970002 3.175 -1.645 0.27000001
5.9970002 3.1989999 -1.648 0.25
5.987 3.2179999 -1.648 0.25999999
5.9889998 3.2309999 -1.65 0.18000001
5.9629998 3.2420001 -1.646 0.27000001
5.96 3.2639999 -1.648 0.23999999
5.9549999 3.286 -1.649 0.16
5.9320002 3.2980001 -1.646 0.28999999
5.9310002 3.3210001 -1.648 0.25
5.9099998 3.3340001 -1.645 0.17
5.9050002 3.3559999 -1.647 0.28999999
5.9039998 3.368 -1.648 0.23
5.8920002 3.385 -1.648 0.2
5.875 3.4000001 -1.646 0.27000001
5.8709998 3.4219999 -1.648 0.25
5.8449998 3.4319999 -1.643 0.27000001
5.8470001 3.4579999 -1.647 0.18000001
5.836 3.4760001 -1.647 0.25999999
5.8309999 3.4860001 -1.647 0.25
5.8119998 3.4990001 -1.645 0.17
5.8070002 3.5209999 -1.647 0.25999999
5.7859998 3.533 -1.6440001 0.22
5.7969999 3.5650001 -1.65 0.2
5.7789998 3.579 -1.648 0.25
5.7680001 3.5969999 -1.648 0.18000001
5.7620001 3.6059999 -1.648 0.25
5.7459998 3.6210001 -1.647 0.22
5.7420001 3.6440001 -1.649 0.20999999
5.7280002 3.6600001 -1.648 0.25
5.723 3.6819999 -1.65 0.18000001
5.6999998 3.6930001 -1.647 0.25
5.6880002 3.711 -1.647 0.19
5.6869998 3.723 -1.648 0.23
5.6739998 3.74 -1.648 0.19
5.6589999 3.7550001 -1.647 0.23
5.665 3.7850001 -1.652 0.2
5.6409998 3.7950001 -1.649 0.22
5.6339998 3.816 -1.65 0.2
5.6209998 3.8329999 -1.65 0.23999999
5.6110001 3.839 -1.649 0.19
5.5879998 3.849 -1.645 0.23999999
5.598 3.882 -1.652 0.20999999
5.5770001 3.8929999 -1.649 0.12
5.553 3.9030001 -1.646 0.20999999
5.5539999 3.9289999 -1.65 0.2
5.5349998 3.9419999 -1.648 0.27000001
5.526 3.9489999 -1.647 0.22
5.5229998 3.973 -1.65 0.23999999
5.5079999 3.9890001 -1.649 0.25
5.487 3.9990001 -1.646 0.25
5.4710002 4.0139999 -1.645 0.20999999
5.4629998 4.0349998 -1.647 0.2
5.4450002 4.0489998 -1.645 0.25
5.4380002 4.0560002 -1.645 0.23
5.4359999 4.0809999 -1.648 0.17
5.4180002 4.0949998 -1.647 0.25999999
5.3899999 4.0999999 -1.642 0.23
5.3940001 4.1300001 -1.647 0.18000001
5.3779998 4.1440001 -1.646 0.27000001
5.3559999 4.1539998 -1.643 0.23
5.3629999 4.1729999 -1.648 0.20999999
5.342 4.184 -1.645 0.23999999
5.3119998 4.1880002 -1.64 0.23
5.3060002 4.211 -1.642 0.19
5.3039999 4.2360001 -1.646 0.25999999
5.277 4.2410002 -1.641 0.25
5.2709999 4.2639999 -1.6440001 0.2
5.2540002 4.2639999 -1.64 0.27000001
5.2360001 4.277 -1.6390001 0.23999999
5.2249999 4.2950001 -1.64 0.17
5.2220001 4.3200002 -1.643 0.28999999
5.1939998 4.3249998 -1.638 0.25
5.1859999 4.3460002 -1.64 0.25999999
5.184 4.3720002 -1.6440001 0.23
5.158 4.3639998 -1.638 0.18000001
5.1550002 4.3889999 -1.641 0.28
5.1409998 4.4050002 -1.641 0.25
5.1149998 4.4109998 -1.637 0.27000001
5.0999999 4.4260001 -1.637 0.25999999
5.099 4.4530001 -1.641 0.16
5.0749998 4.46 -1.638 0.30000001
5.0770001 4.4759998 -1.641 0.25
5.053 4.4829998 -1.637 0.25999999
5.0370002 4.4980001 -1.637 0.25999999
5.0320001 4.5209999 -1.64 0.23999999
5.0100002 4.5300002 -1.637 0.17
4.9959998 4.546 -1.637 0.28999999
4.9829998 4.5630002 -1.638 0.25
4.9759998 4.5710001 -1.638 0.27000001
4.9559999 4.5809999 -1.636 0.27000001
4.9559999 4.6100001 -1.641 0.25999999
4.9419999 4.6269999 -1.641 0.25
4.921 4.6360002 -1.6390001 0.2
4.9120002 4.6560001 -1.641 0.28999999
4.9029999 4.677 -1.643 0.31
4.8930001 4.6820002 -1.642 0.41
4.8709998 4.691 -1.6390001 0.58999997
4.8600001 4.71 -1.641 0.34
4.8429999 4.723 -1.64 0.47
4.8319998 4.7420001 -1.641 0.38
4.8049998 4.7449999 -1.637 0.63999999
4.8080001 4.7779999 -1.643 0.34
4.7740002 4.7589998 -1.6339999 0.51999998
4.763 4.7779999 -1.635 0.5
4.756 4.802 -1.638 0.31999999
4.7280002 4.803 -1.633 0.28
4.717 4.822 -1.635 0.28
4.7150002 4.8499999 -1.64 0.25999999
4.6859999 4.8509998 -1.635 0.28999999
4.684 4.8639998 -1.637 0.27000001
4.6849999 4.8959999 -1.643 0.25
4.6570001 4.8979998 -1.638 0.25999999
4.6300001 4.9000001 -1.6339999 0.27000001
4.6209998 4.921 -1.636 0.33000001
4.586 4.915 -1.6289999 0.31999999
4.5599999 4.9180002 -1.625 0.28999999
4.539 4.9260001 -1.623 0.28999999
4.5110002 4.9120002 -1.615 0.28999999
4.4819999 4.9109998 -1.61 0.28999999
4.46 4.9169998 -1.607 0.31999999
4.4310002 4.9169998 -1.602 0.33000001
4.3990002 4.9120002 -1.595 0.30000001
4.3829999 4.9260001 -1.595 0.33000001
4.3429999 4.9120002 -1.586 0.30000001
4.3330002 4.9159999 -1.585 0.31999999
4.3109999 4.9229999 -1.582 0.31999999
4.277 4.914 -1.575 0.31999999
4.2519999 4.9180002 -1.571 0.31
4.2319999 4.9250002 -1.569 0.31
4.1919999 4.9099998 -1.5599999 0.31999999
4.1789999 4.9109998 -1.558 0.30000001
4.165 4.9260001 -1.558 0.34
4.1240001 4.908 -1.548 0.27000001
4.0960002 4.9060001 -1.543 0.31
4.0890002 4.9289999 -1.546 0.33000001
4.052 4.9169998 -1.538 0.27000001
4.0219998 4.9109998 -1.531 0.34999999
4.0110002 4.9130001 -1.53 0.31
3.984 4.9120002 -1.525 0.31
3.9690001 4.9250002 -1.525 0.34
3.9530001 4.9369998 -1.525 0.31
3.9289999 4.9390001 -1.522 0.31
3.914 4.9510002 -1.522 0.31999999
3.9070001 4.974 -1.525 0.30000001
3.885 4.9790001 -1.523 0.28999999
3.8789999 4.9879999 -1.524 0.28999999
3.8699999 5.0079999 -1.526 0.30000001
3.849 5.0139999 -1.524 0.30000001
3.832 5.0250001 -1.524 0.31
3.813 5.0320001 -1.522 0.25
3.7920001 5.0380001 -1.52 0.15000001
3.858 5.158 -1.556 0.18000001
4.2589998 5.7080002 -1.733 0.20999999
4.3049998 5.8070002 -1.761 0.23999999
4.3049998 5.8449998 -1.7690001 0.28
4.289 5.862 -1.77 0.25
4.277 5.8829999 -1.772 0.30000001
4.2639999 5.9039998 -1.775 0.22
4.257 5.9330001 -1.78 0.22
4.2270002 5.9120002 -1.771 0.31
4.2030001 5.9169998 -1.768 0.25
4.1830001 5.9289999 -1.768 0.20999999
4.1609998 5.9369998 -1.766 0.25
4.1370001 5.9419999 -1.7640001 0.2
4.1139998 5.9489999 -1.762 0.25
4.085 5.948 -1.757 0.22
4.079 5.9590001 -1.7589999 0.18000001
4.0549998 5.9640002 -1.756 0.27000001
4.0289998 5.967 -1.753 0.25
4.0050001 5.9710002 -1.751 0.2
3.977 5.9689999 -1.7460001 0.28
3.95 5.9710002 -1.743 0.23999999
3.9319999 5.9829998 -1.743 0.2
3.9089999 5.9699998 -1.737 0.28
3.8829999 5.9710002 -1.733 0.23
3.859 5.9749999 -1.7309999 0.19
3.826 5.9640002 -1.724 0.27000001
3.7980001 5.961 -1.719 0.23
3.7739999 5.9650002 -1.716 0.19
3.753 5.974 -1.715 0.27000001
3.727 5.9530001 -1.707 0.23999999
3.7090001 5.967 -1.7079999 0.18000001
3.684 5.9679999 -1.705 0.27000001
3.651 5.9569998 -1.698 0.23999999
3.6340001 5.9699998 -1.698 0.2
3.6059999 5.967 -1.694 0.25999999
3.572 5.9530001 -1.686 0.23999999
3.5610001 5.9549999 -1.6849999 0.18000001
3.53 5.947 -1.679 0.27000001
3.503 5.9439998 -1.675 0.25
3.477 5.9419999 -1.671 0.25
3.448 5.9359999 -1.666 0.27000001
3.4200001 5.9299998 -1.661 0.27000001
3.4059999 5.9489999 -1.664 0.27000001
3.3889999 5.941 -1.659 0.27000001
3.3659999 5.9450002 -1.6569999 0.28
3.3329999 5.9299998 -1.65 0.30000001
3.3099999 5.9320002 -1.647 0.28999999
3.286 5.9330001 -1.6440001 0.27000001
3.2720001 5.9510002 -1.647 0.20999999
3.2449999 5.9460001 -1.642 0.23999999
3.237 5.9549999 -1.643 0
3.2049999 5.9400001 -1.636 0
3.217 6.007 -1.653 0
3.4649999 6.5640001 -1.811 0.19
3.444 6.5749998 -1.811 0.23
3.437 6.6110001 -1.819 0.27000001
3.418 6.6259999 -1.8200001 0.28999999
3.4000001 6.6149998 -1.8150001 0.34
3.401 6.6690001 -1.8279999 0.25999999
3.3840001 6.6869998 -1.83 0.25999999
3.369 6.7090001 -1.8329999 0.34999999
3.339 6.7030001 -1.8279999 0.25
3.3169999 6.711 -1.8279999 0.40000001
3.3150001 6.7600002 -1.839 0.25
3.29 6.737 -1.831 0.34
3.2620001 6.7340002 -1.827 0.27000001
3.2449999 6.7509999 -1.829 0.34999999
3.2160001 6.7449999 -1.824 0.27000001
3.2060001 6.7800002 -1.831 0.33000001
3.188 6.7950001 -1.8329999 0.34
3.152 6.7750001 -1.824 0.28
3.1500001 6.7979999 -1.829 0.28
3.1229999 6.7969999 -1.826 0.28
3.1040001 6.8099999 -1.827 0.28
3.0810001 6.8179998 -1.827 0.28999999
3.056 6.8189998 -1.824 0.28999999
3.0350001 6.829 -1.824 0.25
3.023 6.8610001 -1.831 0.25
3.03 6.9050002 -1.842 0.28
3.0109999 6.9219999 -1.844 0.37
2.9660001 6.8759999 -1.8279999 0.19
2.9549999 6.9120002 -1.836 0.40000001
2.931 6.9159999 -1.834 0.30000001
2.9170001 6.9429998 -1.839 0.30000001
2.8959999 6.954 -1.84 0.27000001
2.865 6.9400001 -1.8329999 0.22
2.8629999 6.967 -1.84 0.28999999
2.845 6.9850001 -1.842 0.44999999
2.8169999 6.98 -1.8380001 0.31999999
2.7920001 6.9809999 -1.836 0.23
2.7780001 7.0079999 -1.841 0.34
2.7579999 7.0219998 -1.8430001 0.27000001
2.7320001 7.0219998 -1.84 0.27000001
2.7060001 6.9860001 -1.829 0.23
2.677 6.9770002 -1.824 0.31
2.6589999 6.9959998 -1.827 0.23
2.6500001 7.039 -1.837 0.23999999
2.631 7.0539999 -1.839 0.28
2.599 7.0370002 -1.832 0.18000001
2.5899999 7.0799999 -1.841 0.47
2.5699999 7.0619998 -1.835 0.25
2.5420001 7.052 -1.83 0.20999999
2.513 7.0419998 -1.825 0.27000001
2.4909999 7.0489998 -1.825 0.25
2.4690001 7.059 -1.826 0.25
2.448 7.0689998 -1.826 0.27000001
2.427 7.0799999 -1.827 0.27000001
2.424 7.1090002 -1.834 0.25999999
2.3989999 7.1079998 -1.832 0.25
2.3699999 7.0949998 -1.826 0.33000001
2.3499999 7.1100001 -1.8279999 0.28999999
2.3340001 7.1360002 -1.8329999 0.36000001
2.3069999 7.1300001 -1.83 0.25999999
2.2880001 7.1459999 -1.832 0.28999999
2.277 7.152 -1.8329999 0.2
2.2590001 7.1739998 -1.837 0.40000001
2.233 7.1680002 -1.8329999 0.20999999
2.2119999 7.1799998 -1.835 0.30000001
2.188 7.1820002 -1.8329999 0.22
2.1600001 7.1739998 -1.829 0.27000001
2.1489999 7.2179999 -1.839 0.23999999
2.128 7.23 -1.841 0.18000001
2.119 7.2420001 -1.8430001 0.28999999
2.096 7.2470002 -1.8430001 0.23
2.0710001 7.2459998 -1.841 0.28
2.0510001 7.2620001 -1.8430001 0.23
2.03 7.276 -1.845 0.25999999
2.006 7.277 -1.844 0.34
1.982 7.2789998 -1.8430001 0.30000001
1.971 7.2820001 -1.8430001 0.25999999
1.939 7.257 -1.834 0.27000001
1.909 7.237 -1.827 0.28999999
1.886 7.2410002 -1.827 0.30000001
1.864 7.25 -1.8279999 0.25999999
1.84 7.2490001 -1.826 0.28
1.816 7.2509999 -1.825 0.23
1.801 7.2399998 -1.821 0.28
1.791 7.2950001 -1.834 0.22
1.781 7.3530002 -1.849 0.23
1.753 7.3400002 -1.8430001 0.31999999
1.72 7.3060002 -1.8329999 0.27000001
1.696 7.3039999 -1.831 0.18000001
1.6849999 7.362 -1.845 0.27000001
1.673 7.3610001 -1.844 0.20999999
1.654 7.3850002 -1.849 0.25
1.622 7.3499999 -1.8380001 0.2
1.589 7.3119998 -1.827 0.16
1.574 7.3530002 -1.836 0.20999999
1.553 7.369 -1.839 0.22
1.528 7.3639998 -1.837 0.23999999
1.517 7.3699999 -1.8380001 0.22
1.488 7.3449998 -1.83 0.20999999
1.472 7.3870001 -1.84 0.23
1.451 7.401 -1.842 0.20999999
1.434 7.4400001 -1.852 0.31999999
1.4069999 7.4239998 -1.846 0.28
1.386 7.4400001 -1.849 0.28999999
1.3559999 7.408 -1.839 0.25
1.35 7.4400001 -1.848 0.36000001
1.322 7.4219999 -1.841 0.25
1.284 7.342 -1.819 0.28999999
1.258 7.3309999 -1.8150001 0.19
1.237 7.3439999 -1.818 0.23999999
1.211 7.3330002 -1.814 0.23999999
1.187 7.3309999 -1.812 0.11
1.177 7.342 -1.8150001 0.20999999
1.159 7.3779998 -1.823 0.19
1.136 7.3839998 -1.824 0.27000001
1.114 7.3909998 -1.825 0.25
1.089 7.3829999 -1.822 0.2
1.0650001 7.3829999 -1.821 0.25999999
1.044 7.401 -1.825 0.20999999
1.028 7.3699999 -1.816 0.12
1.005 7.3759999 -1.817 0.2
0.98299998 7.3839998 -1.818 0.11
0.958 7.3779998 -1.816 0.2
0.935 7.3790002 -1.8150001 0.11
0.91600001 7.414 -1.824 0.18000001
0.889 7.388 -1.816 0.22
0.87900001 7.401 -1.819 0.19
0.85600001 7.4060001 -1.8200001 0.23
0.83099997 7.3990002 -1.817 0.18000001
0.80800003 7.4000001 -1.817 0.23
0.78399998 7.402 -1.817 0.19
0.75999999 7.3969998 -1.8150001 0.23999999
0.73799998 7.4130001 -1.818 0.19
0.71399999 7.4000001 -1.814 0.25
0.70099998 7.3909998 -1.812 0.22
0.68000001 7.4130001 -1.817 0.2
0.65499997 7.395 -1.812 0.25
0.62800002 7.3590002 -1.802 0.19
0.60699999 7.3860002 -1.808 0.23
0.57999998 7.3449998 -1.7970001 0.22
0.56900001 7.3439999 -1.7970001 0.20999999
0.55000001 7.4099998 -1.813 0.25
0.52499998 7.381 -1.8049999 0.19
0.50300002 7.4029999 -1.811 0.25
0.48100001 7.415 -1.813 0.23
0.458 7.4200001 -1.814 0.19
0.43399999 7.4099998 -1.811 0.27000001
0.41 7.4130001 -1.812 0.25
0.40000001 7.4349999 -1.817 0.23999999
0.37599999 7.4169998 -1.812 0.17
0.352 7.4200001 -1.813 0.28999999
0.329 7.4190001 -1.812 0.25
0.30500001 7.4120002 -1.8099999 0.23999999
0.28200001 7.4130001 -1.8099999 0.18000001
0.259 7.414 -1.8099999 0.28999999
0.24699999 7.4109998 -1.809 0.25
0.22400001 7.4109998 -1.809 0.25
0.20100001 7.4310002 -1.814 0.23999999
0.177 7.4159999 -1.8099999 0.18000001
0.154 7.415 -1.8099999 0.28
0.131 7.421 -1.811 0.25
0.107 7.4180002 -1.8099999 0.25
0.096000001 7.4330001 -1.814 0.25
0.071999997 7.4180002 -1.8099999 0.19
0.048999999 7.414 -1.809 0.28999999
0.026000001 7.4130001 -1.809 0.25
0.0020000001 7.4169998 -1.8099999 0.23
-0.021 7.4299998 -1.813 0.20999999
-0.044 7.4029999 -1.806 0.27000001
-0.056000002 7.335 -1.789 0.23
-0.079000004 7.3930001 -1.804 0.19
-0.103 7.4180002 -1.8099999 0.28
-0.126 7.3979998 -1.8049999 0.23
-0.149 7.4109998 -1.809 0.25
-0.17200001 7.4089999 -1.808 0.25999999
-0.19599999 7.4200001 -1.811 0.27000001
-0.219 7.4109998 -1.809 0.25999999
-0.23100001 7.4130001 -1.8099999 0.27000001
-0.25400001 7.4219999 -1.812 0.25999999
-0.27700001 7.408 -1.809 0.28
-0.301 7.414 -1.811 0.25999999
-0.324 7.421 -1.813 0.27000001
-0.34799999 7.4200001 -1.813 0.27000001
-0.37099999 7.4169998 -1.812 0.27000001
-0.38299999 7.4239998 -1.814 0.25999999
-0.40599999 7.4190001 -1.813 0.25
-0.42899999 7.4159999 -1.813 0.18000001
-0.45199999 7.4070001 -1.811 0.28999999
-0.47600001 7.415 -1.813 0.25
-0.49900001 7.4109998 -1.813 0.27000001
-0.523 7.421 -1.816 0.27000001
-0.53399998 7.4070001 -1.812 0.27000001
-0.55800003 7.4190001 -1.816 0.25999999
-0.58099997 7.4130001 -1.8150001 0.27000001
-0.60399997 7.4070001 -1.814 0.28
-0.62800002 7.4169998 -1.817 0.25
-0.65100002 7.415 -1.817 0.18000001
-0.67400002 7.4070001 -1.8150001 0.28999999
-0.68300003 7.3790002 -1.808 0.23
-0.70599997 7.369 -1.806 0.23999999
-0.73400003 7.415 -1.819 0.20999999
-0.75599998 7.3990002 -1.8150001 0.28
-0.77899998 7.3969998 -1.8150001 0.23
-0.80400002 7.4099998 -1.819 0.27000001
-0.82800001 7.4130001 -1.821 0.27000001
-0.85100001 7.4070001 -1.8200001 0.25999999
-0.86199999 7.4050002 -1.8200001 0.27000001
-0.88599998 7.408 -1.821 0.27000001
-0.91000003 7.4089999 -1.822 0.25999999
-0.93300003 7.4060001 -1.822 0.27000001
-0.95899999 7.421 -1.827 0.25
-0.98100001 7.4099998 -1.825 0.18000001
-1.0039999 7.4070001 -1.825 0.28
-1.015 7.4029999 -1.824 0.25
-1.041 7.4169998 -1.829 0.23999999
-1.063 7.401 -1.825 0.18000001
-1.086 7.401 -1.826 0.28999999
-1.11 7.3979998 -1.826 0.25
-1.133 7.3920002 -1.826 0.2
-1.1569999 7.3979998 -1.8279999 0.28
-1.169 7.4000001 -1.829 0.25
-1.192 7.3930001 -1.8279999 0.2
-1.217 7.4000001 -1.831 0.27000001
-1.239 7.3889999 -1.829 0.23999999
-1.262 7.3850002 -1.829 0.2
-1.28 7.3499999 -1.821 0.23
-1.307 7.3670001 -1.827 0.19
-1.318 7.3610001 -1.826 0.23999999
-1.334 7.3150001 -1.8150001 0.23
-1.3609999 7.336 -1.821 0.19
-1.385 7.335 -1.822 0.36000001
-1.4069999 7.3270001 -1.821 0.23999999
-1.444 7.395 -1.84 0.2
-1.465 7.3769999 -1.837 0.23
-1.49 7.382 -1.839 0.19
-1.503 7.3870001 -1.841 0.23
-1.526 7.382 -1.841 0.19
-1.55 7.3800001 -1.842 0.22
-1.575 7.3839998 -1.844 0.19
-1.598 7.381 -1.845 0.22
-1.6210001 7.3740001 -1.844 0.19
-1.645 7.3709998 -1.845 0.22
-1.656 7.368 -1.845 0.2
-1.682 7.3740001 -1.848 0.12
-1.702 7.3540001 -1.844 0.20999999
-1.727 7.3579998 -1.846 0.17
-1.755 7.375 -1.853 0.25999999
-1.778 7.368 -1.852 0.23
-1.802 7.3660002 -1.853 0.17
-1.823 7.402 -1.864 0.28999999
-1.8430001 7.382 -1.86 0.25
-1.87 7.3930001 -1.864 0.27000001
-1.8940001 7.3909998 -1.865 0.25999999
-1.911 7.3600001 -1.859 0.2
-1.938 7.3670001 -1.862 0.27000001
-1.943 7.2940001 -1.844 0.23
-1.961 7.3130002 -1.85 0.15000001
-1.9809999 7.296 -1.847 0.30000001
-2.006 7.2969999 -1.849 0.2
-2.0339999 7.309 -1.854 0.23
-2.0539999 7.2940001 -1.852 0.20999999
-2.0910001 7.3369999 -1.865 0.22
-2.1329999 7.3979998 -1.883 0.23
-2.1489999 7.4089999 -1.887 0.38999999
-2.1700001 7.395 -1.885 0.34
-2.1930001 7.388 -1.885 0.23
-2.224 7.4050002 -1.892 0.30000001
-2.2550001 7.4239998 -1.899 0.37
-2.2869999 7.447 -1.9069999 0.28999999
-2.29 7.3730001 -1.8890001 0.28999999
-2.296 7.3119998 -1.874 0.25999999
-2.3139999 7.3270001 -1.8789999 0.2
-2.3329999 7.3070002 -1.876 0.43000001
-2.3640001 7.3249998 -1.883 0.34
-2.3859999 7.316 -1.882 0.28
-2.4070001 7.3010001 -1.88 0.34
-2.425 7.2810001 -1.877 0.28999999
-2.4530001 7.2880001 -1.881 0.25999999
-2.4619999 7.2750001 -1.878 0.25999999
-2.4809999 7.2579999 -1.876 0.34
-2.5150001 7.283 -1.885 0.37
-2.543 7.289 -1.8890001 0.34
-2.553 7.243 -1.878 0.28
-2.5680001 7.2129998 -1.872 0.31
-2.585 7.1900001 -1.868 0.28
-2.602 7.2010002 -1.872 0.28
-2.6240001 7.1929998 -1.872 0.28
-2.6429999 7.1739998 -1.869 0.31
-2.6670001 7.1690001 -1.87 0.28999999
-2.7179999 7.237 -1.891 0.27000001
-2.7520001 7.2589998 -1.9 0.27000001
-2.7620001 7.2160001 -1.89 0.28
-2.793 7.2290001 -1.896 0.25
-2.7939999 7.1989999 -1.8890001 0.16
-2.8 7.1469998 -1.877 0.20999999
-2.8269999 7.1490002 -1.88 0.16
-2.878 7.2119999 -1.9 0.40000001
-2.898 7.198 -1.899 0.28999999
-2.918 7.1810002 -1.897 0.27000001
-2.924 7.131 -1.885 0.38
-2.9219999 7.0939999 -1.876 0.20999999
-2.9649999 7.1350002 -1.89 0.34999999
-2.9860001 7.1220002 -1.8890001 0.36000001
-3 7.0929999 -1.8839999 0.31999999
-3.016 7.0689998 -1.88 0.27000001
-3.04 7.0630002 -1.881 0.25
-3.079 7.0929999 -1.892 0.28999999
-3.112 7.1389999 -1.906 0.31999999
-3.1270001 7.112 -1.901 0.28
-3.1440001 7.0900002 -1.898 0.22
-3.164 7.0760002 -1.897 0.38999999
-3.1860001 7.0640001 -1.896 0.37
-3.198 7.033 -1.89 0.31999999
-3.2119999 7.0050001 -1.885 0.28999999
-3.2160001 6.9850001 -1.881 0.25999999
-3.2320001 6.9619999 -1.877 0.19
-3.243 6.927 -1.87 0.47
-3.276 6.9419999 -1.877 0.34
-3.313 6.9629998 -1.886 0.30000001
-3.3610001 7.0079999 -1.902 0.27000001
-3.3800001 6.9910002 -1.9 0.28999999
-3.3940001 6.9920001 -1.902 0.27000001
-3.428 7.006 -1.91 0.37
-3.448 6.9920001 -1.909 0.31999999
-3.4519999 6.9439998 -1.898 0.2
-3.4809999 6.947 -1.902 0.30000001
-3.4960001 6.9229999 -1.898 0.31999999
-3.5220001 6.9200001 -1.9 0.38999999
-3.5510001 6.9229999 -1.904 0.40000001
-3.5480001 6.8920002 -1.897 0.23
-3.579 6.8979998 -1.902 0.23999999
-3.598 6.881 -1.9 0.2
-3.619 6.8699999 -1.9 0.51999998
-3.642 6.8600001 -1.901 0.28999999
-3.684 6.888 -1.913 0.30000001
-3.6989999 6.8629999 -1.909 0.34
-3.721 6.8790002 -1.915 0.25999999
-3.767 6.9120002 -1.928 0.34999999
-3.7750001 6.8740001 -1.921 0.31999999
-3.766 6.8080001 -1.904 0.23999999
-3.776 6.7740002 -1.898 0.33000001
-3.802 6.7719998 -1.901 0.28
-3.8369999 6.7839999 -1.908 0.31
-3.8369999 6.7589998 -1.902 0.34
-3.8410001 6.717 -1.893 0.34999999
-3.8610001 6.7030001 -1.893 0.28999999
-3.882 6.691 -1.893 0.28999999
-3.902 6.677 -1.892 0.30000001
-3.9230001 6.665 -1.892 0.28999999
-3.9489999 6.6609998 -1.895 0.28999999
-3.9679999 6.645 -1.8940001 0.27000001
-4.027 6.7199998 -1.919 0.28
-4.0349998 6.6859999 -1.9119999 0.37
-4.059 6.678 -1.914 0.30000001
-4.086 6.6760001 -1.9170001 0.34999999
-4.0960002 6.645 -1.911 0.23
-4.1360002 6.6630001 -1.921 0.44999999
-4.158 6.652 -1.921 0.23
-4.165 6.6399999 -1.92 0.31
-4.1989999 6.6469998 -1.926 0.090000004
-4.2210002 6.6350002 -1.926 0
-4.125 6.4390001 -1.87 0
-3.806 5.8959999 -1.706 0.02
-3.8199999 5.8779998 -1.704 0.12
-3.855 5.8899999 -1.711 0.20999999
-3.859 5.8759999 -1.709 0.23999999
-3.8900001 5.8829999 -1.715 0.25999999
-3.9189999 5.8870001 -1.72 0.27000001
-3.938 5.8759999 -1.72 0.30000001
-3.97 5.8829999 -1.727 0.30000001
-4.0019999 5.8909998 -1.733 0.30000001
-4.02 5.8769999 -1.733 0.30000001
-4.0380001 5.8839998 -1.737 0.28999999
-4.0630002 5.881 -1.74 0.28999999
-4.0879998 5.8769999 -1.743 0.28
-4.1160002 5.8790002 -1.747 0.27000001
-4.1550002 5.8940001 -1.756 0.25
-4.1789999 5.8889999 -1.7589999 0.17
-4.2160001 5.9029999 -1.767 0.28999999
-4.243 5.901 -1.771 0.25
-4.257 5.902 -1.773 0.25999999
-4.2870002 5.9039998 -1.778 0.19
-4.3169999 5.9060001 -1.783 0.28
-4.3330002 5.8899999 -1.7819999 0.23
-4.3699999 5.901 -1.791 0.18000001
-4.4050002 5.9089999 -1.798 0.27000001
-4.4330001 5.9070001 -1.802 0.22
-4.4429998 5.902 -1.802 0.17
-4.4699998 5.8990002 -1.806 0.28999999
-4.4959998 5.8959999 -1.809 0.23999999
-4.5279999 5.8979998 -1.8150001 0.2
-4.5489998 5.8870001 -1.816 0.27000001
-4.5419998 5.8410001 -1.8049999 0.23999999
-4.605 5.8829999 -1.824 0.27000001
-4.6170001 5.8800001 -1.825 0.25999999
-4.6550002 5.8899999 -1.8329999 0.27000001
-4.6820002 5.8860002 -1.837 0.27000001
-4.7119999 5.8870001 -1.842 0.2
-4.7319999 5.8730001 -1.842 0.25999999
-4.7509999 5.8579998 -1.842 0.23
-4.7859998 5.8639998 -1.85 0.2
-4.7930002 5.8540001 -1.849 0.25
-4.8109999 5.8390002 -1.849 0.25
-4.855 5.855 -1.859 0.25
-4.881 5.849 -1.862 0.25999999
-4.9130001 5.8499999 -1.868 0.28
-4.9850001 5.8979998 -1.8890001 0.31999999
-5.0009999 5.8790002 -1.888 0.43000001
-4.9679999 5.803 -1.868 0.27000001
-4.973 5.7909999 -1.8660001 0.27000001
-4.9809999 5.7639999 -1.862 0.31999999
-4.9770002 5.7210002 -1.853 0.19
-4.96 5.6659999 -1.839 0.28999999
-4.494 5.0970001 -1.648 0.2
-4.427 4.9889998 -1.615 0.20999999
-4.454 4.9879999 -1.62 0.33000001
-4.4460001 4.9629998 -1.614 0.31999999
-4.4679999 4.9569998 -1.6160001 0.30000001
-4.4850001 4.9439998 -1.617 0.30000001
-4.4980001 4.927 -1.6160001 0.31999999
-4.5159998 4.9159999 -1.617 0.30000001
-4.539 4.9099998 -1.62 0.30000001
-4.552 4.8930001 -1.619 0.31999999
-4.5560002 4.882 -1.617 0.28999999
-4.5780001 4.8740001 -1.62 0.31
-4.5999999 4.8670001 -1.622 0.34999999
-4.6259999 4.8639998 -1.626 0.33000001
-4.6570001 4.8660002 -1.632 0.34999999
-4.6760001 4.8559999 -1.6339999 0.31999999
-4.7090001 4.8590002 -1.64 0.31
-4.73 4.8649998 -1.645 0.34
-4.7519999 4.8579998 -1.648 0.33000001
-4.777 4.8520002 -1.651 0.31999999
-4.8049998 4.8509998 -1.656 0.34
-4.829 4.8439999 -1.659 0.33000001
-4.8600001 4.8449998 -1.666 0.34
-4.8990002 4.8530002 -1.674 0.31999999
-4.9060001 4.8460002 -1.674 0.33000001
-4.941 4.849 -1.681 0.33000001
-4.9710002 4.849 -1.687 0.34
-4.993 4.8400002 -1.689 0.31999999
-5.02 4.835 -1.693 0.36000001
-5.0609999 4.8449998 -1.7029999 0.30000001
-5.079 4.8309999 -1.704 0.31
-5.1110001 4.8309999 -1.71 0.34
-5.1459999 4.849 -1.719 0.31
-5.1690001 4.8400002 -1.722 0.30000001
-5.1989999 4.8369999 -1.728 0.34999999
-5.2340002 4.8400002 -1.735 0.30000001
-5.2540002 4.8280001 -1.737 0.34
-5.2870002 4.8280001 -1.743 0.31999999
-5.3130002 4.8210001 -1.747 0.28999999
-5.3150001 4.8080001 -1.745 0.28999999
-5.3369999 4.7979999 -1.747 0.28
-5.3569999 4.7849998 -1.749 0.28
-5.369 4.7649999 -1.748 0.27000001
-5.3779998 4.743 -1.7460001 0.27000001
-5.3990002 4.7309999 -1.748 0.20999999
-5.4109998 4.7119999 -1.747 0.2
-5.427 4.711 -1.75 0.5
-5.4590001 4.7090001 -1.756 0.46000001
-5.4580002 4.678 -1.75 0.41999999
-5.4619999 4.652 -1.747 0.60000002
-5.4970002 4.652 -1.7539999 0.31999999
-5.4850001 4.6129999 -1.745 0.52999997
-5.526 4.618 -1.7539999 0.30000001
-5.5219998 4.599 -1.75 0.61000001
-5.539 4.5840001 -1.751 0.47999999
-5.5479999 4.5619998 -1.749 0.28
-5.5780001 4.5580001 -1.7539999 0.27000001
-5.5780001 4.5279999 -1.749 0.28
-5.5830002 4.5029998 -1.7460001 0.30000001
-5.6040001 4.4920001 -1.749 0.28999999
-5.6170001 4.473 -1.748 0.27000001
-5.6269999 4.467 -1.749 0.25
-5.638 4.447 -1.748 0.27000001
-5.6599998 4.4349999 -1.751 0.28999999
-5.6750002 4.4180002 -1.751 0.28
-5.6950002 4.4050002 -1.753 0.27000001
-5.7069998 4.3860002 -1.753 0.25
-5.724 4.3699999 -1.7539999 0.30000001
-5.7340002 4.3639998 -1.755 0.28999999
-5.7449999 4.3429999 -1.7539999 0.28
-5.7550001 4.323 -1.753 0.28999999
-5.776 4.3109999 -1.755 0.25
-5.7849998 4.289 -1.7539999 0.27000001
-5.8000002 4.2719998 -1.7539999 0.27000001
-5.8390002 4.2719998 -1.762 0.25
-5.8330002 4.2540002 -1.758 0.20999999
-5.8319998 4.2249999 -1.7539999 0.27000001
-5.8579998 4.2160001 -1.758 0.23999999
-5.868 4.1950002 -1.757 0.25
-5.8979998 4.1890001 -1.762 0.23
-5.9159999 4.1739998 -1.7640001 0.17
-5.914 4.1440001 -1.7589999 0.30000001
-5.9169998 4.1329999 -1.758 0.23
-5.9390001 4.1209998 -1.761 0.17
-5.9520001 4.1020002 -1.761 0.28999999
-5.9710002 4.0879998 -1.763 0.25
-5.994 4.0760002 -1.766 0.2
-5.9949999 4.0489998 -1.762 0.28
-6.0209999 4.039 -1.766 0.23
-6.0209999 4.0250001 -1.7640001 0.18000001
-6.033 4.006 -1.7640001 0.27000001
-6.0489998 3.9890001 -1.765 0.23
-6.0760002 3.98 -1.77 0.20999999
-6.0770001 3.9530001 -1.766 0.25
-6.0929999 3.9360001 -1.767 0.20999999
-6.1149998 3.9230001 -1.77 0.18000001
-6.119 3.8989999 -1.768 0.25999999
-6.1290002 3.891 -1.7690001 0.22
-6.1440001 3.8740001 -1.77 0.18000001
-6.151 3.852 -1.768 0.27000001
-6.1750002 3.8399999 -1.772 0.2
-6.1799998 3.816 -1.77 0.25
-6.2010002 3.802 -1.772 0.18000001
-6.211 3.7809999 -1.772 0.13
-6.2020001 3.7620001 -1.767 0.2
-6.2350001 3.756 -1.774 0.2
-6.237 3.73 -1.771 0.23999999
-6.2449999 3.7090001 -1.77 0.22
-6.2719998 3.698 -1.774 0.20999999
-6.2719998 3.6719999 -1.771 0.23999999
-6.2919998 3.6570001 -1.773 0.22
-6.2930002 3.6440001 -1.772 0.17
-6.3060002 3.625 -1.772 0.25999999
-6.322 3.608 -1.774 0.22
-6.3330002 3.5880001 -1.774 0.2
-6.3340001 3.563 -1.771 0.23
-6.369 3.556 -1.778 0.19
-6.369 3.529 -1.774 0.25
-6.369 3.516 -1.773 0.23
-6.3920002 3.503 -1.776 0.18000001
-6.3889999 3.4749999 -1.772 0.25999999
-6.4050002 3.4579999 -1.774 0.23
-6.4260001 3.444 -1.777 0.19
-6.4299998 3.4200001 -1.775 0.25999999
-6.4380002 3.398 -1.774 0.23
-6.448 3.3900001 -1.775 0.19
-6.4530001 3.3670001 -1.774 0.27000001
-6.474 3.352 -1.777 0.23
-6.4899998 3.335 -1.778 0.18000001
-6.4899998 3.309 -1.775 0.27000001
-6.5 3.289 -1.775 0.25
-6.5180001 3.2720001 -1.777 0.2
-6.5139999 3.257 -1.775 0.27000001
-6.5419998 3.2449999 -1.78 0.20999999
-6.54 3.2190001 -1.776 0.12
-6.553 3.2 -1.777 0.20999999
-6.5890002 3.1919999 -1.785 0
-6.5910001 3.1670001 -1.7819999 0
-6.618 3.155 -1.788 0
-7.0349998 2.1059999 -1.791 0
-7.0359998 2.082 -1.789 0
-7.04 2.0599999 -1.789 0
-7.0630002 2.0420001 -1.793 0.059999999
-7.0679998 2.02 -1.793 0.16
-7.0689998 1.9960001 -1.791 0.090000004
-7.0679998 1.984 -1.79 0.090000004
-7.0799999 1.9630001 -1.7920001 0.18000001
-7.092 1.942 -1.793 0.11
-7.1110001 1.924 -1.7970001 0.18000001
-7.0960002 1.896 -1.791 0.20999999
-7.1170001 1.877 -1.795 0.18000001
-7.1170001 1.853 -1.794 0.23
-7.1160002 1.841 -1.793 0.2
-7.1149998 1.817 -1.791 0.25
-7.1279998 1.7970001 -1.793 0.23
-7.1279998 1.773 -1.791 0.2
-7.1329999 1.75 -1.791 0.25999999
-7.1459999 1.73 -1.793 0.23999999
-7.1630001 1.71 -1.796 0.19
-7.145 1.694 -1.791 0.27000001
-7.1560001 1.673 -1.7920001 0.25
-7.171 1.652 -1.795 0.2
-7.1719999 1.6289999 -1.794 0.27000001
-7.177 1.6059999 -1.794 0.23999999
-7.1799998 1.5829999 -1.793 0.25999999
-7.191 1.562 -1.795 0.27000001
-7.1890001 1.55 -1.794 0.25
-7.1999998 1.529 -1.795 0.25999999
-7.2010002 1.505 -1.794 0.25999999
-7.2090001 1.483 -1.795 0.27000001
-7.2270002 1.4630001 -1.799 0.23999999
-7.2150002 1.437 -1.794 0.30000001
-7.2249999 1.416 -1.796 0.27000001
-7.243 1.396 -1.799 0.25999999
-7.2519999 1.386 -1.801 0.28999999
-7.257 1.363 -1.801 0.28
-7.2649999 1.341 -1.802 0.27000001
-7.244 1.313 -1.796 0.2
-7.25 1.291 -1.796 0.30000001
-7.2750001 1.272 -1.802 0
-7.2930002 1.251 -1.8049999 0.1
-7.2849998 1.238 -1.803 0.13
-7.27 1.212 -1.798 0.28999999
-7.283 1.191 -1.8 0.20999999
-7.3080001 1.1720001 -1.806 0.25
-7.3039999 1.147 -1.804 0.22
-7.2979999 1.123 -1.801 0.27000001
-7.3150001 1.102 -1.8049999 0.25
-7.3239999 1.092 -1.807 0.25999999
-7.316 1.067 -1.804 0.18000001
-7.3309999 1.046 -1.807 0.28999999
-7.3239999 1.021 -1.804 0.23
-7.3309999 0.99900001 -1.8049999 0.2
-7.3439999 0.977 -1.808 0.27000001
-7.3429999 0.95300001 -1.807 0.25
-7.3559999 0.94300002 -1.8099999 0.20999999
-7.3439999 0.91799998 -1.806 0.25
-7.349 0.89600003 -1.806 0.23
-7.3590002 0.87300003 -1.808 0.18000001
-7.3730001 0.852 -1.811 0.25999999
-7.3759999 0.82800001 -1.811 0.18000001
-7.3649998 0.80400002 -1.808 0.23
-7.3699999 0.79299998 -1.809 0.25
-7.382 0.76999998 -1.811 0.23
-7.3649998 0.745 -1.806 0.23
-7.4000001 0.72500002 -1.8150001 0.20999999
-7.3759999 0.69999999 -1.808 0.22
-7.3800001 0.67699999 -1.808 0.18000001
-7.3930001 0.65399998 -1.811 0.23999999
-7.3940001 0.64300001 -1.811 0.20999999
-7.3790002 0.61799997 -1.807 0.22
-7.4039998 0.597 -1.813 0.2
-7.3909998 0.57200003 -1.809 0.22
-7.402 0.55000001 -1.811 0.2
-7.3979998 0.52600002 -1.8099999 0.23
-7.4070001 0.50300002 -1.812 0.18000001
-7.4029999 0.47999999 -1.8099999 0.25
-7.4169998 0.46900001 -1.814 0.16
-7.4029999 0.44499999 -1.8099999 0.25999999
-7.4159999 0.42199999 -1.813 0.22
-7.4120002 0.39899999 -1.811 0.11
-7.401 0.375 -1.808 0.20999999
-7.408 0.352 -1.8099999 0.11
-7.4089999 0.32800001 -1.8099999 0.20999999
-7.414 0.317 -1.811 0.20999999
-7.4130001 0.294 -1.8099999 0.23999999
-7.427 0.271 -1.814 0.20999999
-7.4029999 0.24699999 -1.807 0.12
-7.4130001 0.22400001 -1.8099999 0.20999999
-7.4239998 0.20100001 -1.812 0.2
-7.414 0.177 -1.8099999 0.25
-7.4089999 0.16500001 -1.808 0.22
-7.4359999 0.14300001 -1.8150001 0.19
-7.414 0.119 -1.809 0.28
-7.4099998 0.094999999 -1.808 0.23
-7.4299998 0.071999997 -1.813 0.17
-7.4109998 0.048999999 -1.808 0.25999999
-7.4109998 0.026000001 -1.808 0.23
-7.4380002 0.014 -1.8150001 0.23
-7.4180002 -0.0089999996 -1.8099999 0.18000001
-7.4200001 -0.033 -1.811 0.28999999
-7.414 -0.056000002 -1.809 0.25
-7.4120002 -0.079000004 -1.809 0.2
-7.4120002 -0.102 -1.809 0.27000001
-7.4190001 -0.126 -1.811 0.23999999
-7.415 -0.149 -1.8099999 0.2
-7.4169998 -0.161 -1.8099999 0.25999999
-7.4159999 -0.184 -1.8099999 0.23
-7.427 -0.208 -1.813 0.23
-7.4130001 -0.23100001 -1.8099999 0.18000001
-7.4159999 -0.25400001 -1.811 0.28
-7.408 -0.27700001 -1.809 0.23999999
-7.4070001 -0.30000001 -1.809 0.25999999
-7.4159999 -0.31200001 -1.811 0.19
-7.3969998 -0.33500001 -1.807 0.25999999
-7.3979998 -0.35800001 -1.807 0.25
-7.4109998 -0.382 -1.811 0.2
-7.4000001 -0.405 -1.808 0.28
-7.3959999 -0.428 -1.808 0.22
-7.401 -0.45199999 -1.809 0.25
-7.402 -0.463 -1.8099999 0.22
-7.401 -0.48699999 -1.8099999 0.25
-7.4029999 -0.50999999 -1.811 0.20999999
-7.3839998 -0.53200001 -1.806 0.12
-7.3959999 -0.55599999 -1.8099999 0.20999999
-7.3940001 -0.57999998 -1.8099999 0.20999999
-7.3860002 -0.602 -1.808 0.23999999
-7.3909998 -0.61400002 -1.8099999 0.19
-7.3779998 -0.63700002 -1.807 0.23
-7.381 -0.66000003 -1.808 0.20999999
-7.375 -0.68300003 -1.807 0.11
-7.3670001 -0.70599997 -1.806 0.19
-7.3629999 -0.72899997 -1.8049999 0.11
-7.3649998 -0.75199997 -1.806 0.19
-7.3470001 -0.77399999 -1.802 0.22
-7.3559999 -0.79799998 -1.8049999 0.2
-7.342 -0.81999999 -1.802 0.23
-7.3520002 -0.833 -1.8049999 0.19
-7.3340001 -0.85399997 -1.801 0.23
-7.3449998 -0.87900001 -1.8049999 0.20999999
-7.323 -0.89899999 -1.8 0.22
-7.3470001 -0.926 -1.807 0.22
-7.3319998 -0.94700003 -1.804 0.23
-7.3309999 -0.97100002 -1.804 0.18000001
-7.3200002 -0.98100001 -1.802 0.23
-7.336 -1.007 -1.807 0.2
-7.3140001 -1.027 -1.802 0.20999999
-7.3260002 -1.052 -1.806 0.18000001
-7.3070002 -1.073 -1.802 0.23999999
-7.3130002 -1.097 -1.804 0.18000001
-7.3060002 -1.12 -1.803 0.25
-7.3080001 -1.143 -1.8049999 0.20999999
-7.2969999 -1.153 -1.802 0.23
-7.3049998 -1.178 -1.8049999 0.19
-7.2859998 -1.199 -1.801 0.23999999
-7.2930002 -1.223 -1.804 0.20999999
-7.27 -1.243 -1.799 0.22
-7.2800002 -1.268 -1.803 0.23
-7.2779999 -1.291 -1.803 0.23
-7.2719998 -1.302 -1.802 0.25
-7.256 -1.323 -1.799 0.22
-7.256 -1.346 -1.8 0.25999999
-7.2690001 -1.372 -1.8049999 0.25
-7.2470002 -1.392 -1.8 0.23
-7.2389998 -1.414 -1.799 0.25
-7.2329998 -1.436 -1.799 0.17
-7.2150002 -1.4450001 -1.795 0.28
-7.224 -1.47 -1.798 0.23999999
-7.2249999 -1.494 -1.8 0.16
-7.2179999 -1.516 -1.799 0.28999999
-7.1950002 -1.535 -1.794 0.23999999
-7.1989999 -1.5599999 -1.7970001 0.2
-7.1919999 -1.582 -1.796 0.27000001
-7.1919999 -1.5930001 -1.7970001 0.23999999
-7.198 -1.619 -1.8 0.27000001
-7.191 -1.641 -1.799 0.25999999
-7.1820002 -1.6619999 -1.798 0.27000001
-7.1789999 -1.6849999 -1.799 0.28
-7.177 -1.709 -1.8 0.25
-7.1810002 -1.734 -1.802 0.25999999
-7.1729999 -1.744 -1.801 0.27000001
-7.1919999 -1.772 -1.807 0.25
-7.1960001 -1.7970001 -1.8099999 0.27000001
-7.1789999 -1.817 -1.807 0.27000001
-7.1789999 -1.841 -1.808 0.27000001
-7.1799998 -1.865 -1.8099999 0.28999999
-7.1609998 -1.8839999 -1.807 0.19
-7.1500001 -1.905 -1.8049999 0.25
-7.1630001 -1.921 -1.8099999 0.5
-7.1350002 -1.938 -1.804 0
-7.1659999 -1.97 -1.814 0
-6.7950001 -3.0910001 -1.822 0
-6.802 -3.1070001 -1.826 0.02
-6.7940001 -3.1289999 -1.826 0.12
-6.7789998 -3.148 -1.825 0.16
-6.7750001 -3.1719999 -1.826 0.1
-6.7490001 -3.1860001 -1.822 0.2
-6.7579999 -3.2160001 -1.827 0.11
-6.7360001 -3.2320001 -1.824 0.20999999
-6.7360001 -3.2449999 -1.825 0.18000001
-6.7270002 -3.267 -1.826 0.25999999
-6.7140002 -3.286 -1.825 0.23
-6.7119999 -3.3110001 -1.827 0.18000001
-6.698 -3.3310001 -1.826 0.27000001
-6.6789999 -3.3469999 -1.824 0.25
-6.6799998 -3.375 -1.827 0.25999999
-6.6729999 -3.3840001 -1.827 0.28999999
-6.671 -3.4089999 -1.829 0.28999999
-6.6609998 -3.4300001 -1.829 0.27000001
-6.6570001 -3.4549999 -1.831 0.28999999
-6.6350002 -3.47 -1.8279999 0.28999999
-6.631 -3.4949999 -1.83 0.28999999
-6.6290002 -3.52 -1.8329999 0.28999999
-6.6170001 -3.527 -1.831 0.28999999
-6.6110001 -3.55 -1.832 0.28999999
-6.5960002 -3.569 -1.831 0.28999999
-6.586 -3.5910001 -1.832 0.30000001
-6.573 -3.6110001 -1.831 0.30000001
-6.5599999 -3.6300001 -1.831 0.27000001
-6.552 -3.6530001 -1.832 0.28999999
-6.552 -3.6659999 -1.8329999 0.31999999
-6.533 -3.6830001 -1.831 0.30000001
-6.5229998 -3.704 -1.832 0.31
-6.5149999 -3.727 -1.8329999 0.31
-6.5100002 -3.7509999 -1.835 0.28
-6.4949999 -3.7690001 -1.834 0.28999999
-6.4780002 -3.7869999 -1.832 0.28999999
-6.4710002 -3.8099999 -1.834 0.31999999
-6.4629998 -3.819 -1.8329999 0.30000001
-6.4580002 -3.8440001 -1.835 0.30000001
-6.4460001 -3.8640001 -1.835 0.30000001
-6.4250002 -3.8789999 -1.8329999 0.28999999
-6.4219999 -3.904 -1.835 0.30000001
-6.4159999 -3.928 -1.837 0.28
-6.402 -3.948 -1.837 0.31
-6.3920002 -3.9560001 -1.836 0.28
-6.3730001 -3.9719999 -1.834 0.28999999
-6.3660002 -3.9949999 -1.835 0.28999999
-6.3470001 -4.0100002 -1.8329999 0.28999999
-6.3390002 -4.0339999 -1.835 0.28999999
-6.3309999 -4.0570002 -1.836 0.30000001
-6.3099999 -4.0710001 -1.834 0.28999999
-6.3119998 -4.086 -1.836 0.28999999
-6.289 -4.0999999 -1.8329999 0.28999999
-6.283 -4.1240001 -1.835 0.28999999
-6.2709999 -4.145 -1.836 0.31
-6.25 -4.1589999 -1.8329999 0.31
-6.2389998 -4.1799998 -1.834 0.31999999
-6.2290001 -4.2010002 -1.835 0.31999999
-6.2160001 -4.2210002 -1.835 0.28999999
-6.211 -4.2319999 -1.835 0.30000001
-6.1939998 -4.2490001 -1.834 0.31
-6.1700001 -4.2610002 -1.831 0.28999999
-6.158 -4.2810001 -1.831 0.36000001
-6.132 -4.2919998 -1.827 0.30000001
-6.1279998 -4.3179998 -1.83 0.37
-6.0900002 -4.3200002 -1.823 0.30000001
-6.0599999 -4.3130002 -1.8150001 0.36000001
-6.0240002 -4.316 -1.808 0.33000001
-5.9949999 -4.3239999 -1.803 0.34
-5.954 -4.323 -1.795 0.33000001
-5.9239998 -4.3299999 -1.789 0.31999999
-5.8829999 -4.329 -1.78 0.34
-5.8559999 -4.323 -1.774 0.28999999
-5.8179998 -4.323 -1.766 0.34
-5.7820001 -4.3249998 -1.7589999 0.28999999
-5.744 -4.3249998 -1.751 0.31999999
-5.71 -4.3280001 -1.744 0.31
-5.6700001 -4.3260002 -1.7359999 0.31999999
-5.638 -4.3299999 -1.73 0.34999999
-5.612 -4.3379998 -1.726 0.34
-5.5949998 -4.3379998 -1.722 0.34
-5.573 -4.3499999 -1.719 0.30000001
-5.5580001 -4.3660002 -1.719 0.28999999
-5.5349998 -4.3769999 -1.716 0.30000001
-5.5250001 -4.3959999 -1.717 0.28999999
-5.5120001 -4.415 -1.717 0.30000001
-5.4970002 -4.4310002 -1.717 0.31
-5.4699998 -4.4239998 -1.71 0.27000001
-5.4530001 -4.4390001 -1.709 0.28999999
-5.4349999 -4.4520001 -1.7079999 0.31
-5.4099998 -4.461 -1.704 0.37
-5.3920002 -4.474 -1.7029999 0.38999999
-5.3720002 -4.4860001 -1.701 0.40000001
-5.3670001 -4.5100002 -1.704 0.30000001
-5.3520002 -4.5120001 -1.701 0.41999999
-5.3319998 -4.5240002 -1.699 0.38
-5.3060002 -4.5310001 -1.6950001 0.40000001
-5.302 -4.5560002 -1.699 0.34999999
-5.3070002 -4.5890002 -1.705 0.40000001
-5.2880001 -4.6020002 -1.704 0.28999999
-5.2600002 -4.6069999 -1.699 0.46000001
-5.244 -4.6079998 -1.696 0.38
-5.211 -4.6079998 -1.6900001 0.40000001
-5.1890001 -4.618 -1.687 0.40000001
-5.1570001 -4.619 -1.681 0.38999999
-5.1300001 -4.6230001 -1.677 0.37
-5.1339998 -4.6560001 -1.683 0.33000001
-5.1209998 -4.6729999 -1.684 0.38
-5.1059999 -4.6750002 -1.681 0.40000001
-5.1110001 -4.7090001 -1.688 0.36000001
-5.0799999 -4.71 -1.682 0.44999999
-5.0689998 -4.7290001 -1.684 0.34
-5.0440001 -4.7360001 -1.6799999 0.41
-5.0570002 -4.7779999 -1.6900001 0.37
-5.0159998 -4.7690001 -1.681 0.36000001
-5.0209999 -4.789 -1.6849999 0.36000001
-4.9780002 -4.7779999 -1.675 0.40000001
-4.9699998 -4.8000002 -1.678 0.38
-4.9530001 -4.8150001 -1.677 0.31
-4.9349999 -4.8270001 -1.676 0.36000001
-4.9299998 -4.8520002 -1.6799999 0.41
-4.9190001 -4.8720002 -1.681 0.33000001
-4.914 -4.882 -1.682 0.38999999
-4.901 -4.9000001 -1.683 0.31
-4.888 -4.9190001 -1.684 0.36000001
-4.8460002 -4.9060001 -1.674 0.38
-4.8340001 -4.9260001 -1.676 0.37
-4.8130002 -4.9349999 -1.674 0.34
-4.7610002 -4.9130001 -1.66 0.44999999
-4.789 -4.9569998 -1.673 0.34999999
-4.7909999 -4.9899998 -1.6799999 0.34
-4.756 -4.9850001 -1.673 0.37
-4.7220001 -4.9809999 -1.666 0.41999999
-4.6849999 -4.973 -1.6569999 0.36000001
-4.664 -4.9819999 -1.655 0.37
-4.6680002 -5.0180001 -1.663 0.38
-4.6550002 -5.0349998 -1.664 0.40000001
-4.6420002 -5.0370002 -1.6619999 0.31999999
-4.6110001 -5.0359998 -1.656 0.36000001
-4.6069999 -5.0630002 -1.661 0.40000001
-4.5900002 -5.0760002 -1.66 0.41999999
-4.585 -5.1020002 -1.665 0.25999999
-4.5619998 -5.1090002 -1.6619999 0.5
-4.5409999 -5.118 -1.66 0.33000001
-4.5549998 -5.1490002 -1.669 0.37
