# .PCD v0.7 - Point Cloud Data file format
VERSION 0.7
FIELDS x y z intensity
SIZE 4 4 4 4
TYPE F F F F
COUNT 1 1 1 1
WIDTH 1478
HEIGHT 1
VIEWPOINT 0 0 0 1 0 0 0
POINTS 1478
DATA ascii
10.121 -5.1999998 -1.546 0.37
10.174 -5.1869998 -1.552 0.25
10.254 -5.1869998 -1.563 0.20999999
10.253 -5.1669998 -1.561 0.57999998
10.368 -5.184 -1.5779999 0.28
10.468 -5.1929998 -1.5930001 0.22
10.505 -5.171 -1.596 0.41999999
10.523 -5.138 -1.597 0.34
10.555 -5.1129999 -1.599 0.46000001
10.585 -5.0869999 -1.602 0.44999999
10.615 -5.0799999 -1.605 0.28999999
10.709 -5.085 -1.619 0.44999999
10.727 -5.052 -1.619 0.43000001
10.766 -5.0289998 -1.623 0.34999999
10.825 -5.0149999 -1.63 0.38999999
10.874 -4.9970002 -1.636 0.51999998
10.887 -4.961 -1.635 0.28
10.909 -4.9510002 -1.638 0.38
10.933 -4.9200001 -1.6390001 0.31999999
10.95 -4.8870001 -1.64 0.28999999
10.98 -4.8590002 -1.642 0.34
10.99 -4.822 -1.641 0.28999999
11.016 -4.7919998 -1.643 0.30000001
11.031 -4.757 -1.643 0.30000001
11.031 -4.737 -1.642 0.30000001
11.039 -4.6989999 -1.64 0.30000001
11.064 -4.6690001 -1.642 0.31999999
11.068 -4.6300001 -1.64 0.27000001
11.097 -4.6009998 -1.643 0.34999999
11.11 -4.5650001 -1.643 0.31999999
11.126 -4.5310001 -1.643 0.30000001
11.115 -4.506 -1.64 0.27000001
11.143 -4.4770002 -1.642 0.30000001
11.172 -4.448 -1.645 0.36000001
11.177 -4.4089999 -1.643 0.28
11.209 -4.381 -1.646 0.31999999
11.206 -4.3400002 -1.643 0.28
11.234 -4.3099999 -1.646 0.34999999
11.247 -4.2950001 -1.647 0.25999999
11.273 -4.2639999 -1.649 0.31999999
11.279 -4.2259998 -1.648 0.25999999
11.311 -4.197 -1.651 0.33000001
11.305 -4.1550002 -1.648 0.30000001
11.328 -4.1230001 -1.649 0.28999999
11.359 -4.0939999 -1.652 0.25999999
11.362 -4.0749998 -1.652 0.30000001
11.378 -4.04 -1.652 0.28
11.4 -4.0079999 -1.654 0.31
11.392 -3.9649999 -1.65 0.28999999
11.412 -3.9319999 -1.652 0.27000001
11.419 -3.8940001 -1.651 0.25
11.425 -3.8559999 -1.65 0.34
11.433 -3.839 -1.65 0.28999999
11.443 -3.802 -1.65 0.27000001
11.442 -3.7620001 -1.648 0.28
11.458 -3.727 -1.648 0.25999999
11.475 -3.6930001 -1.649 0.28999999
11.481 -3.655 -1.648 0.27000001
11.498 -3.6210001 -1.649 0.28999999
11.517 -3.6070001 -1.651 0.27000001
11.526 -3.5699999 -1.651 0.28
11.522 -3.529 -1.649 0.30000001
11.539 -3.4949999 -1.65 0.27000001
11.55 -3.4590001 -1.65 0.28999999
11.566 -3.424 -1.65 0.28
11.579 -3.388 -1.651 0.28
11.575 -3.3670001 -1.649 0.25999999
11.591 -3.332 -1.65 0.28999999
11.619 -3.3010001 -1.653 0.27000001
11.61 -3.2590001 -1.65 0.31999999
11.637 -3.227 -1.653 0.25
11.651 -3.1919999 -1.653 0.27000001
11.655 -3.154 -1.652 0.27000001
11.67 -3.138 -1.654 0.30000001
11.67 -3.099 -1.652 0.31999999
11.685 -3.063 -1.653 0.27000001
11.703 -3.029 -1.654 0.30000001
11.708 -2.9909999 -1.654 0.28999999
11.704 -2.951 -1.652 0.25999999
11.725 -2.9170001 -1.653 0.28999999
11.724 -2.878 -1.652 0.28999999
11.723 -2.858 -1.651 0.34
11.747 -2.825 -1.653 0.25
11.747 -2.7850001 -1.652 0.33000001
11.761 -2.75 -1.653 0.23999999
11.777 -2.7149999 -1.654 0.31
11.792 -2.6789999 -1.655 0.28999999
11.794 -2.641 -1.654 0.27000001
11.798 -2.622 -1.654 0.28
11.805 -2.585 -1.654 0.28999999
11.824 -2.55 -1.656 0.27000001
11.828 -2.5120001 -1.655 0.28999999
11.84 -2.4760001 -1.656 0.28
11.848 -2.4389999 -1.656 0.28
11.863 -2.4030001 -1.6569999 0.28999999
11.877 -2.3859999 -1.658 0.31
11.886 -2.349 -1.659 0.28
11.899 -2.313 -1.66 0.30000001
11.912 -2.277 -1.66 0.30000001
11.913 -2.2379999 -1.66 0.27000001
11.934 -2.2030001 -1.6619999 0.33000001
11.943 -2.1860001 -1.663 0.30000001
11.931 -2.145 -1.66 0.30000001
11.951 -2.1099999 -1.6619999 0.23999999
11.95 -2.0710001 -1.66 0.28
11.968 -2.0350001 -1.6619999 0.31999999
11.966 -1.9960001 -1.661 0.28999999
11.961 -1.957 -1.659 0.27000001
11.961 -1.918 -1.658 0.28999999
11.97 -1.9 -1.659 0.31
11.968 -1.8609999 -1.658 0.28999999
11.984 -1.825 -1.66 0.30000001
11.995 -1.789 -1.66 0.28999999
11.983 -1.748 -1.658 0.28999999
11.983 -1.71 -1.6569999 0.34999999
11.985 -1.691 -1.6569999 0.25
11.983 -1.652 -1.656 0.31
11.968 -1.612 -1.653 0.16
11.975 -1.574 -1.653 0.30000001
11.992 -1.538 -1.655 0.34
11.979 -1.498 -1.652 0.28
11.995 -1.462 -1.654 0.34
11.992 -1.424 -1.653 0.31
11.992 -1.405 -1.652 0.30000001
12.007 -1.368 -1.654 0.27000001
12.001 -1.329 -1.652 0.25999999
12.011 -1.2920001 -1.653 0.31999999
12.023 -1.255 -1.654 0.27000001
12.019 -1.217 -1.653 0.25
12.032 -1.1799999 -1.655 0.33000001
12.032 -1.161 -1.654 0.28999999
12.042 -1.124 -1.655 0.30000001
12.03 -1.084 -1.653 0.31
12.031 -1.046 -1.653 0.31999999
12.044 -1.0089999 -1.654 0.25999999
12.051 -0.972 -1.655 0.28
12.054 -0.93400002 -1.655 0.28999999
12.057 -0.91500002 -1.655 0.28999999
12.052 -0.87699997 -1.654 0.28
12.063 -0.83899999 -1.655 0.30000001
12.062 -0.801 -1.654 0.28
12.062 -0.76300001 -1.654 0.28999999
12.068 -0.72600001 -1.655 0.27000001
12.071 -0.70700002 -1.655 0.28
12.064 -0.66799998 -1.653 0.28999999
12.076 -0.63099998 -1.655 0.28
12.086 -0.59299999 -1.656 0.28999999
12.083 -0.55500001 -1.656 0.30000001
12.069 -0.51599997 -1.653 0.30000001
12.075 -0.479 -1.654 0.28999999
12.084 -0.44100001 -1.655 0.27000001
12.087 -0.42199999 -1.655 0.28999999
12.086 -0.384 -1.655 0.28999999
12.085 -0.34599999 -1.655 0.28
12.084 -0.308 -1.654 0.30000001
12.091 -0.27000001 -1.655 0.30000001
12.07 -0.23199999 -1.652 0.27000001
12.085 -0.19400001 -1.654 0.31999999
12.077 -0.175 -1.653 0.30000001
12.087 -0.13699999 -1.654 0.25
12.082 -0.098999999 -1.653 0.31
12.086 -0.061000001 -1.654 0.30000001
12.086 -0.023 -1.654 0.28999999
11.147 0.0060000001 -1.645 0.27000001
11.129 0.023 -1.642 0.23999999
11.123 0.057999998 -1.641 0.2
11.139 0.093000002 -1.6440001 0.27000001
11.133 0.12800001 -1.643 0.23
11.146 0.163 -1.645 0.2
11.142 0.198 -1.6440001 0.25
11.139 0.233 -1.6440001 0.2
11.158 0.26899999 -1.647 0.23999999
11.142 0.28600001 -1.645 0.23
11.139 0.32100001 -1.6440001 0.18000001
11.146 0.35600001 -1.646 0.25999999
11.127 0.391 -1.643 0.22
11.127 0.426 -1.643 0.20999999
11.146 0.461 -1.646 0.25
11.134 0.49599999 -1.645 0.2
11.145 0.514 -1.646 0.25
11.128 0.54799998 -1.6440001 0.2
11.142 0.58399999 -1.646 0.23
11.138 0.61900002 -1.646 0.2
11.146 0.65399998 -1.648 0.12
11.13 0.68900001 -1.646 0.20999999
11.12 0.72299999 -1.6440001 0.2
11.148 0.74299997 -1.649 0.23999999
11.126 0.77600002 -1.646 0.18000001
11.132 0.81199998 -1.647 0.25
11.123 0.84600002 -1.646 0.18000001
11.134 0.88200003 -1.648 0.23999999
11.129 0.917 -1.648 0.2
11.134 0.95300001 -1.649 0.22
11.105 0.96799999 -1.645 0.18000001
11.118 1.0039999 -1.647 0.25
11.122 1.04 -1.649 0.20999999
11.119 1.075 -1.649 0.12
11.106 1.109 -1.647 0.20999999
11.102 1.143 -1.647 0.2
11.103 1.179 -1.648 0.25
11.091 1.1950001 -1.646 0.20999999
11.073 1.228 -1.6440001 0.19
11.091 1.266 -1.647 0.27000001
11.083 1.3 -1.647 0.23999999
11.071 1.334 -1.646 0.19
11.077 1.37 -1.647 0.25999999
11.07 1.404 -1.647 0.25
11.07 1.4220001 -1.647 0.20999999
11.062 1.456 -1.646 0.14
11.045 1.489 -1.645 0.33000001
11.05 1.526 -1.646 0.37
11.042 1.5599999 -1.646 0.38999999
11.037 1.594 -1.646 0.34
11.032 1.6289999 -1.646 0.43000001
11.027 1.646 -1.645 0.43000001
11.018 1.6799999 -1.645 0.41
10.862 1.691 -1.62 0.07
11.013 1.75 -1.646 0.16
11.021 1.7869999 -1.648 0.18000001
11.033 1.825 -1.651 0.27000001
11.019 1.858 -1.649 0.23
11.009 1.874 -1.648 0.2
11.007 1.909 -1.649 0.27000001
11.001 1.944 -1.649 0.25
10.987 1.977 -1.647 0.19
11.011 2.017 -1.652 0.27000001
10.995 2.05 -1.651 0.23
10.999 2.086 -1.652 0.2
11.009 2.1059999 -1.655 0.25
11.002 2.141 -1.655 0.19
11.011 2.178 -1.6569999 0.25
11.012 2.2149999 -1.658 0.2
11.003 2.2490001 -1.658 0.11
10.99 2.2820001 -1.6569999 0.2
10.992 2.319 -1.659 0.11
10.994 2.3369999 -1.66 0.18000001
10.993 2.3729999 -1.661 0.23
10.981 2.4070001 -1.66 0.19
10.974 2.441 -1.66 0.22
10.968 2.4760001 -1.66 0.1
10.954 2.5090001 -1.659 0.17
10.943 2.543 -1.659 0.050000001
10.944 2.5610001 -1.66 0.17
10.959 2.6010001 -1.663 0.11
10.924 2.6289999 -1.659 0.19
10.931 2.6670001 -1.6619999 0.11
10.913 2.6989999 -1.66 0.18000001
10.905 2.733 -1.66 0.050000001
10.894 2.767 -1.66 0.17
10.895 2.8039999 -1.661 0.050000001
10.883 2.819 -1.66 0.17
10.885 2.8559999 -1.6619999 0.11
10.863 2.8870001 -1.66 0.2
10.871 2.925 -1.6619999 0.1
10.86 2.9590001 -1.6619999 0.18000001
10.853 2.994 -1.6619999 0.11
10.83 3.0239999 -1.66 0.18000001
10.846 3.0469999 -1.664 0.1
10.831 3.079 -1.663 0.18000001
10.828 3.1159999 -1.664 0.20999999
10.821 3.1500001 -1.664 0.1
10.801 3.181 -1.663 0.18000001
10.808 3.22 -1.666 0.11
10.781 3.2490001 -1.663 0.19
10.797 3.2720001 -1.666 0.11
10.775 3.303 -1.664 0.2
10.795 3.346 -1.669 0.11
10.769 3.375 -1.6670001 0.2
10.768 3.4119999 -1.668 0.11
10.748 3.4430001 -1.6670001 0.2
10.757 3.4649999 -1.669 0.11
10.733 3.494 -1.6670001 0.2
10.748 3.536 -1.6720001 0.11
10.717 3.563 -1.668 0.2
10.72 3.602 -1.671 0.11
10.7 3.632 -1.669 0.2
10.705 3.6719999 -1.6720001 0.11
10.686 3.7030001 -1.671 0.2
10.695 3.7249999 -1.673 0.11
10.666 3.753 -1.67 0.18000001
10.681 3.7950001 -1.675 0.11
10.654 3.823 -1.6720001 0.19
10.66 3.8640001 -1.675 0.11
10.622 3.888 -1.671 0.19
10.63 3.9289999 -1.674 0.11
10.619 3.9430001 -1.673 0.19
10.632 3.9860001 -1.678 0.11
10.61 4.0159998 -1.676 0.18000001
10.618 4.0570002 -1.6799999 0.11
10.585 4.0830002 -1.676 0.18000001
10.594 4.125 -1.6799999 0.2
10.592 4.1620002 -1.682 0.1
10.587 4.1799998 -1.682 0.19
10.585 4.217 -1.684 0.11
10.557 4.2449999 -1.682 0.18000001
10.575 4.29 -1.687 0.11
10.547 4.3179998 -1.684 0.18000001
10.551 4.3579998 -1.688 0.11
10.528 4.388 -1.686 0.19
10.529 4.4070001 -1.687 0.11
10.493 4.4310002 -1.683 0.19
10.508 4.4759998 -1.689 0.11
10.479 4.5029998 -1.686 0.18000001
10.465 4.5359998 -1.686 0.22
10.442 4.5650001 -1.684 0.16
10.433 4.5999999 -1.6849999 0.23
10.409 4.6090002 -1.683 0.17
10.402 4.645 -1.684 0.23999999
10.368 4.6690001 -1.6799999 0.18000001
10.366 4.7069998 -1.683 0.23999999
10.342 4.7350001 -1.681 0.2
10.327 4.7680001 -1.681 0.23999999
10.317 4.803 -1.682 0.22
10.302 4.816 -1.681 0.17
10.311 4.8590002 -1.6849999 0.25999999
10.301 4.8940001 -1.686 0.2
10.276 4.9219999 -1.684 0.12
10.261 4.954 -1.684 0.18000001
10.254 4.9910002 -1.686 0.19
10.238 5.0229998 -1.686 0.23999999
10.214 5.0310001 -1.683 0.38
10.204 5.066 -1.684 0.37
10.186 5.0970001 -1.683 0.38999999
10.172 5.1300001 -1.684 0.44999999
10.179 5.1739998 -1.688 0.2
10.18 5.2150002 -1.691 0.25
10.16 5.2449999 -1.6900001 0.23999999
10.15 5.2600002 -1.6900001 0.18000001
10.151 5.3010001 -1.693 0.27000001
10.132 5.3319998 -1.693 0.20999999
10.115 5.3639998 -1.693 0.22
10.118 5.4060001 -1.696 0.23
10.102 5.4380002 -1.697 0.19
10.094 5.4749999 -1.698 0.25
10.077 5.4860001 -1.697 0.19
10.077 5.527 -1.7 0.25
10.064 5.5609999 -1.701 0.18000001
10.049 5.5939999 -1.701 0.23
10.043 5.632 -1.7029999 0.17
10.024 5.6630001 -1.7029999 0.23999999
10.018 5.7010002 -1.705 0.2
10.009 5.717 -1.705 0.12
9.9860001 5.7449999 -1.704 0.19
9.9829998 5.7859998 -1.707 0.1
9.9659996 5.8179998 -1.707 0.18000001
9.9530001 5.8520002 -1.7079999 0.050000001
9.9379997 5.8860002 -1.709 0.17
9.9370003 5.927 -1.712 0.2
9.934 5.947 -1.7130001 0.1
9.9090004 5.974 -1.712 0.18000001
9.9049997 6.0139999 -1.715 0.2
9.8889999 6.0469999 -1.716 0.1
9.8690004 6.0770001 -1.715 0.19
9.8540001 6.1110001 -1.716 0.2
9.8570004 6.1560001 -1.72 0.1
9.8339996 6.1630001 -1.7180001 0.19
9.8280001 6.2020001 -1.72 0.11
9.8149996 6.237 -1.721 0.18000001
9.7969999 6.2690001 -1.722 0.12
9.7819996 6.303 -1.723 0.18000001
9.7790003 6.3449998 -1.726 0.23
9.7510004 6.3699999 -1.724 0.18000001
9.7469997 6.3899999 -1.726 0.23
9.7290001 6.421 -1.726 0.18000001
9.7119999 6.454 -1.726 0.23
9.6850004 6.48 -1.725 0.19
9.6789999 6.52 -1.728 0.23999999
9.6599998 6.552 -1.728 0.19
9.6499996 6.5890002 -1.73 0.25
9.6409998 6.605 -1.7309999 0.18000001
9.6260004 6.6399999 -1.732 0.23999999
9.6040001 6.6690001 -1.732 0.19
9.5909996 6.7049999 -1.733 0.23
9.5799999 6.7420001 -1.735 0.18000001
9.566 6.7779999 -1.737 0.25
9.5500002 6.8109999 -1.737 0.2
9.5459995 6.8309999 -1.739 0.23
9.526 6.862 -1.739 0.19
9.5170002 6.901 -1.742 0.22
9.4949999 6.9310002 -1.742 0.2
9.4779997 6.9640002 -1.742 0.23
9.4530001 6.9920001 -1.742 0.18000001
9.4469995 7.033 -1.745 0.23
9.4230003 7.0380001 -1.742 0.18000001
9.415 7.079 -1.745 0.23
9.401 7.1139998 -1.747 0.2
9.3859997 7.1500001 -1.748 0.12
9.3610001 7.177 -1.748 0.19
9.3430004 7.21 -1.749 0.11
9.3260002 7.244 -1.75 0.19
9.3210001 7.263 -1.751 0.050000001
9.3039999 7.2979999 -1.753 0.17
9.2889996 7.3330002 -1.7539999 0.050000001
9.2489996 7.349 -1.751 0.17
9.2410002 7.3899999 -1.7539999 0.050000001
9.224 7.4239998 -1.755 0.16
9.21 7.46 -1.757 0.050000001
9.2030001 7.4780002 -1.758 0.16
9.1899996 7.5159998 -1.76 0.18000001
9.1709995 7.5489998 -1.761 0.18000001
9.1470003 7.5780001 -1.761 0.090000004
9.125 7.6069999 -1.761 0.19
9.1099997 7.6440001 -1.763 0.1
9.0799999 7.6669998 -1.762 0.2
9.0799999 7.6919999 -1.7640001 0.11
9.0530005 7.7179999 -1.7640001 0.19
9.0480003 7.763 -1.768 0.11
9.0129995 7.7820001 -1.766 0.2
9.0089998 7.829 -1.77 0.11
8.967 7.8410001 -1.766 0.19
8.9569998 7.882 -1.7690001 0.11
8.9280005 7.882 -1.766 0.2
8.9239998 7.928 -1.77 0.11
8.8929996 7.9510002 -1.7690001 0.2
8.8640003 7.9749999 -1.768 0.2
8.8590002 8.0220003 -1.773 0.25
8.8149996 8.0319996 -1.7690001 0.20999999
8.7910004 8.0609999 -1.7690001 0.18000001
8.8000002 8.0950003 -1.774 0.27000001
8.7530003 8.1020002 -1.7690001 0.23999999
8.7299995 8.132 -1.7690001 0.18000001
8.7290001 8.1829996 -1.775 0.25999999
8.6990004 8.2060003 -1.774 0.23
8.6759996 8.2360001 -1.774 0.25999999
8.658 8.2700005 -1.776 0.25999999
8.6459999 8.2849998 -1.776 0.25999999
8.6330004 8.3249998 -1.779 0.27000001
8.5950003 8.3409996 -1.777 0.25
8.5509996 8.3500004 -1.773 0.28999999
8.5229998 8.375 -1.772 0.41
8.5080004 8.4130001 -1.775 0.33000001
8.474 8.4329996 -1.773 0.41999999
8.4750004 8.46 -1.776 0.44
8.4619999 8.5010004 -1.78 0.28
8.4329996 8.5240002 -1.779 0.25
8.4029999 8.5480003 -1.778 0.25999999
8.3830004 8.5810003 -1.78 0.25999999
8.342 8.5939999 -1.777 0.25
8.3000002 8.6040001 -1.773 0.28999999
8.2790003 8.6090002 -1.771 0.31
8.2189999 8.6000004 -1.7640001 0.31
8.1730003 8.6059999 -1.7589999 0.31999999
8.1280003 8.6129999 -1.755 0.31999999
8.0690002 8.6040001 -1.748 0.28999999
8.0319996 8.6190004 -1.7460001 0.33000001
7.9879999 8.625 -1.742 0.31999999
7.9419999 8.6029997 -1.734 0.30000001
7.902 8.6129999 -1.7309999 0.31999999
7.855 8.6160002 -1.726 0.31
7.8039999 8.6140003 -1.721 0.31999999
7.7579999 8.618 -1.716 0.31
7.7140002 8.6230001 -1.712 0.31999999
7.6609998 8.618 -1.706 0.30000001
7.6389999 8.6210003 -1.704 0.33000001
7.5929999 8.6230001 -1.699 0.31
7.5419998 8.6199999 -1.694 0.28
7.506 8.6330004 -1.691 0.34
7.4530001 8.6260004 -1.6849999 0.31999999
7.4089999 8.6300001 -1.681 0.31999999
7.3660002 8.6339998 -1.677 0.31999999
7.3369999 8.6269999 -1.673 0.31999999
7.2940001 8.632 -1.669 0.31999999
7.2620001 8.6490002 -1.668 0.28999999
7.237 8.6750002 -1.669 0.31999999
7.204 8.6899996 -1.6670001 0.30000001
7.1729999 8.7080002 -1.666 0.27000001
7.145 8.7299995 -1.666 0.20999999
7.1259999 8.7639999 -1.668 0.050000001
7.8410001 9.677 -1.853 0.07
7.9039998 9.8190002 -1.876 0.2
7.8249998 9.783 -1.864 0.19
7.77 9.7770004 -1.858 0.1
7.7490001 9.8140001 -1.86 0.18000001
7.7010002 9.816 -1.8559999 0.23
7.6810002 9.8540001 -1.859 0.18000001
7.697 9.9069996 -1.867 0.23
7.6960001 9.9700003 -1.875 0.18000001
7.6729999 10.005 -1.877 0.25
7.6479998 10.037 -1.8789999 0.23
7.6160002 10.061 -1.8789999 0.25
7.5430002 10.03 -1.868 0.11
7.4840002 10.017 -1.86 0.19
7.4590001 10.016 -1.858 0.2
7.4169998 10.025 -1.855 0.1
7.3730001 10.031 -1.852 0.18000001
7.3369999 10.048 -1.85 0.11
7.2909999 10.051 -1.847 0.2
7.2280002 10.031 -1.8380001 0.11
7.1799998 10.029 -1.8329999 0.19
7.1339998 9.9989996 -1.825 0.11
7.1269999 10.055 -1.832 0.19
7.079 10.055 -1.8279999 0.11
7.0359998 10.061 -1.824 0.18000001
6.9879999 10.058 -1.8200001 0.23
6.948 10.069 -1.817 0.19
6.8979998 10.063 -1.812 0.23
6.862 10.044 -1.806 0.19
6.822 10.055 -1.804 0.25
6.7740002 10.051 -1.8 0.18000001
6.7259998 10.048 -1.795 0.25
6.6789999 10.046 -1.79 0.22
6.6339998 10.045 -1.786 0.18000001
6.592 10.051 -1.784 0.25999999
6.5549998 10.028 -1.777 0.23999999
6.5180001 10.041 -1.776 0.18000001
6.4640002 10.026 -1.7690001 0.27000001
6.4190001 10.025 -1.765 0.25
6.3699999 10.018 -1.76 0.25999999
6.3319998 10.027 -1.758 0.27000001
6.2820001 10.018 -1.753 0.27000001
6.2649999 10.026 -1.752 0.25
6.2129998 10.012 -1.7460001 0.20999999
6.1799998 10.028 -1.745 0.28
6.1290002 10.015 -1.739 0.23
6.0929999 10.028 -1.738 0.11
6.0479999 10.025 -1.734 0
6.033 10.071 -1.739 0
6.6880002 11.21 -1.948 0.1
6.6810002 11.279 -1.956 0.16
6.6399999 11.291 -1.955 0.1
6.5970001 11.298 -1.952 0.2
6.5300002 11.264 -1.942 0.19
6.4809999 11.26 -1.938 0.18000001
6.4450002 11.281 -1.938 0.18000001
6.4070001 11.296 -1.937 0.1
6.3940001 11.314 -1.939 0.18000001
6.3579998 11.335 -1.939 0.050000001
6.303 11.32 -1.932 0.18000001
6.2550001 11.317 -1.928 0.2
6.2649999 11.42 -1.943 0.15000001
6.2620001 11.5 -1.954 0.25999999
6.2179999 11.504 -1.951 0.19
6.1589999 11.437 -1.938 0.23
6.1199999 11.452 -1.937 0.16
6.1269999 11.553 -1.951 0.27000001
6.085 11.561 -1.95 0.22
6.0349998 11.554 -1.9450001 0.23
5.973 11.522 -1.936 0.28
5.9050002 11.479 -1.925 0.2
5.8119998 11.43 -1.911 0.49000001
5.7779999 11.453 -1.9119999 0.14
5.763 11.512 -1.919 0.17
5.7249999 11.526 -1.919 0.20999999
5.684 11.535 -1.9170001 0.18000001
5.6399999 11.537 -1.914 0.23999999
5.6129999 11.528 -1.911 0.19
5.5710001 11.533 -1.909 0.23999999
5.527 11.535 -1.906 0.2
5.4860001 11.541 -1.904 0.25
5.434 11.526 -1.898 0.23
5.3930001 11.533 -1.897 0.18000001
5.3540001 11.542 -1.895 0.25999999
5.3080001 11.539 -1.892 0.2
5.2839999 11.535 -1.89 0.25
5.2340002 11.521 -1.8839999 0.18000001
5.197 11.534 -1.8839999 0.25
5.1539998 11.536 -1.881 0.23
5.1110001 11.537 -1.8789999 0.19
5.0669999 11.535 -1.876 0.25999999
5.02 11.526 -1.8710001 0.23999999
5 11.53 -1.8710001 0.18000001
4.9580002 11.531 -1.868 0.27000001
4.9120002 11.525 -1.864 0.23999999
4.868 11.522 -1.8609999 0.19
4.8299999 11.532 -1.86 0.27000001
4.7880001 11.534 -1.858 0.23999999
4.763 11.523 -1.855 0.2
4.7199998 11.524 -1.852 0.27000001
4.6750002 11.516 -1.849 0.23999999
4.638 11.529 -1.848 0.19
4.592 11.518 -1.844 0.27000001
4.5489998 11.514 -1.841 0.23
4.5089998 11.519 -1.839 0.19
4.4650002 11.515 -1.836 0.27000001
4.4359999 11.492 -1.831 0.25
4.3959999 11.495 -1.829 0.25999999
4.3540001 11.494 -1.827 0.27000001
4.3119998 11.493 -1.824 0.25999999
4.2729998 11.497 -1.822 0.25999999
4.2309999 11.494 -1.8200001 0.2
4.1919999 11.501 -1.819 0.28
4.1659999 11.486 -1.8150001 0.25
4.1300001 11.499 -1.8150001 0.20999999
4.0900002 11.5 -1.813 0.25
4.0510001 11.506 -1.812 0.2
4.0149999 11.518 -1.812 0.20999999
3.9779999 11.529 -1.812 0.090000004
3.964 11.605 -1.822 0
3.9690001 11.68 -1.834 0
3.9920001 11.871 -1.864 0.029999999
3.9979999 12.017 -1.886 0.029999999
3.98 12.087 -1.896 0.14
3.9349999 12.079 -1.892 0.11
3.891 12.074 -1.8890001 0.20999999
3.855 12.092 -1.89 0.27000001
3.8280001 12.072 -1.886 0.28
3.7850001 12.067 -1.883 0.28999999
3.7490001 12.084 -1.8839999 0.31999999
3.707 12.085 -1.882 0.31999999
3.665 12.081 -1.88 0.31999999
3.6240001 12.083 -1.878 0.31
3.582 12.083 -1.876 0.31
3.5580001 12.07 -1.873 0.30000001
3.5190001 12.077 -1.872 0.31
3.4779999 12.077 -1.8710001 0.30000001
3.4389999 12.086 -1.87 0.33000001
3.3959999 12.079 -1.867 0.33000001
3.3529999 12.071 -1.864 0.31999999
3.3150001 12.081 -1.864 0.33000001
3.276 12.086 -1.863 0.31999999
3.253 12.078 -1.8609999 0.31999999
3.211 12.073 -1.859 0.31
3.1730001 12.081 -1.858 0.28999999
3.131 12.077 -1.8559999 0.33000001
3.0910001 12.076 -1.854 0.31999999
3.0539999 12.091 -1.855 0.31999999
3.0109999 12.079 -1.852 0.28999999
2.9909999 12.08 -1.851 0.34
2.9519999 12.084 -1.85 0.31999999
2.9100001 12.078 -1.848 0.28999999
2.8729999 12.091 -1.848 0.31
2.832 12.086 -1.846 0.30000001
2.7909999 12.085 -1.844 0.28999999
2.7539999 12.096 -1.845 0.28999999
2.73 12.077 -1.841 0.28999999
2.691 12.082 -1.84 0.28
2.6500001 12.075 -1.8380001 0.27000001
2.612 12.083 -1.8380001 0.23
2.572 12.083 -1.837 0.27000001
2.529 12.066 -1.8329999 0.25
2.493 12.086 -1.834 0.23
2.474 12.09 -1.834 0.12
2.4360001 12.097 -1.834 0.2
2.401 12.119 -1.837 0.11
2.3610001 12.116 -1.835 0.18000001
2.3239999 12.131 -1.836 0.050000001
2.2869999 12.141 -1.837 0.16
2.25 12.156 -1.8380001 0.050000001
2.2119999 12.166 -1.8380001 0.16
2.194 12.176 -1.839 0.050000001
2.158 12.192 -1.841 0.17
2.119 12.195 -1.84 0.050000001
2.0799999 12.2 -1.84 0.16
2.043 12.212 -1.841 0.050000001
2.007 12.236 -1.844 0.16
1.967 12.232 -1.842 0.050000001
1.951 12.251 -1.845 0.17
1.913 12.261 -1.845 0.050000001
1.873 12.261 -1.844 0.17
1.837 12.285 -1.847 0.050000001
1.798 12.285 -1.846 0.17
1.7589999 12.288 -1.846 0.050000001
1.721 12.298 -1.847 0.17
1.701 12.298 -1.846 0.050000001
1.6619999 12.302 -1.846 0.17
1.625 12.318 -1.848 0.050000001
1.586 12.318 -1.847 0.17
1.548 12.326 -1.848 0.050000001
1.51 12.339 -1.849 0.17
1.471 12.342 -1.849 0.050000001
1.451 12.344 -1.849 0.17
1.414 12.362 -1.851 0.050000001
1.373 12.341 -1.847 0.17
1.336 12.371 -1.851 0.050000001
1.2970001 12.373 -1.85 0.17
1.26 12.397 -1.854 0.2
1.221 12.399 -1.853 0.090000004
1.202 12.407 -1.854 0.090000004
1.164 12.418 -1.855 0.090000004
1.126 12.436 -1.858 0.079999998
1.0880001 12.451 -1.86 0.079999998
1.05 12.468 -1.862 0.079999998
1.012 12.477 -1.863 0.079999998
0.96600002 12.392 -1.849 0.19
0.92799997 12.41 -1.851 0.2
0.90899998 12.424 -1.853 0.18000001
0.87099999 12.442 -1.855 0.17
0.83200002 12.449 -1.8559999 0.039999999
0.79100001 12.412 -1.85 0.16
0.75599998 12.479 -1.86 0.2
0.71899998 12.519 -1.8660001 0.1
0.67699999 12.48 -1.86 0.18000001
0.66000003 12.534 -1.868 0.1
0.62 12.522 -1.8660001 0.18000001
0.58499998 12.611 -1.88 0.19
0.54699999 12.666 -1.888 0.18000001
0.50999999 12.731 -1.898 0.18000001
0.472 12.79 -1.9069999 0.18000001
0.433 12.833 -1.914 0.18000001
0.414 12.863 -1.919 0.090000004
0.37400001 12.906 -1.925 0.16
0.33399999 12.915 -1.926 0.20999999
0.294 12.957 -1.933 0.18000001
0.25400001 12.96 -1.933 0.23
0.213 12.988 -1.938 0.18000001
0.17299999 12.993 -1.938 0.23999999
0.132 12.999 -1.939 0.18000001
0.111 13.004 -1.9400001 0.25
0.07 12.998 -1.939 0.23
0.029999999 13.01 -1.941 0.18000001
-0.011 13.024 -1.943 0.25999999
-0.052000001 13.012 -1.941 0.22
-0.093000002 13.004 -1.9400001 0.18000001
-0.114 13.021 -1.943 0.25999999
-0.154 13.007 -1.9400001 0.23
-0.19499999 13.01 -1.941 0.18000001
-0.236 13.02 -1.943 0.27000001
-0.27700001 13.013 -1.942 0.25
-0.31799999 13.01 -1.941 0.25999999
-0.359 13.011 -1.942 0.2
-0.40000001 13.014 -1.942 0.27000001
-0.41999999 13.009 -1.942 0.23
-0.46000001 12.994 -1.9400001 0.18000001
-0.50199997 13.014 -1.943 0.25999999
-0.54299998 13.006 -1.942 0.23999999
-0.583 12.987 -1.939 0.18000001
-0.625 13.009 -1.943 0.25999999
-0.66600001 13.009 -1.943 0.23
-0.68599999 13 -1.942 0.18000001
-0.727 13.009 -1.944 0.27000001
-0.76800001 13.003 -1.943 0.23999999
-0.80900002 12.999 -1.943 0.19
-0.85000002 13.006 -1.9450001 0.27000001
-0.89099997 13.003 -1.9450001 0.23999999
-0.93099999 12.994 -1.944 0.19
-0.95200002 13.003 -1.9450001 0.27000001
-0.99299997 13.002 -1.9450001 0.25
-1.034 12.996 -1.9450001 0.2
-1.076 13.009 -1.948 0.27000001
-1.1160001 12.994 -1.946 0.23999999
-1.158 13 -1.947 0.19
-1.199 13.002 -1.948 0.25999999
-1.219 12.996 -1.948 0.23
-1.26 12.992 -1.948 0.19
-1.302 13.002 -1.95 0.27000001
-1.3430001 12.998 -1.95 0.23
-1.383 12.988 -1.949 0.19
-1.427 13.005 -1.952 0.25999999
-1.467 12.993 -1.951 0.23
-1.508 12.994 -1.952 0.18000001
-1.53 13.007 -1.955 0.27000001
-1.571 13 -1.954 0.23
-1.612 12.993 -1.954 0.20999999
-1.654 13.002 -1.956 0.25
-1.693 12.983 -1.954 0.2
-1.7359999 12.995 -1.957 0.25
-1.778 12.994 -1.957 0.2
-1.798 12.991 -1.957 0.25
-1.84 12.991 -1.9579999 0.19
-1.88 12.981 -1.9579999 0.25
-1.9220001 12.985 -1.959 0.18000001
-1.9630001 12.981 -1.96 0.23999999
-2.0050001 12.982 -1.961 0.18000001
-2.046 12.974 -1.961 0.23
-2.069 12.99 -1.964 0.2
-2.1070001 12.968 -1.961 0.12
-2.1470001 12.952 -1.96 0.2
-2.1849999 12.931 -1.957 0.1
-2.224 12.917 -1.956 0.18000001
-2.257 12.869 -1.95 0.2
-2.299 12.865 -1.95 0.090000004
-2.3110001 12.821 -1.944 0.079999998
-2.3440001 12.771 -1.937 0.079999998
-2.3789999 12.736 -1.932 0.079999998
-2.4130001 12.702 -1.928 0.079999998
-2.45 12.675 -1.925 0.079999998
-2.483 12.636 -1.92 0.16
-2.517 12.597 -1.915 0.16
-2.533 12.578 -1.9119999 0.16
-2.5699999 12.558 -1.91 0.16
-2.608 12.542 -1.909 0.039999999
-2.6270001 12.435 -1.893 0.17
-2.671 12.452 -1.897 0.050000001
-2.697 12.386 -1.888 0.17
-2.7479999 12.427 -1.896 0.050000001
-2.777 12.374 -1.8890001 0.17
-2.8050001 12.408 -1.895 0.050000001
-2.8340001 12.357 -1.888 0.17
-2.878 12.371 -1.892 0.050000001
-2.9089999 12.328 -1.886 0.18000001
-2.9560001 12.353 -1.892 0.050000001
-2.9890001 12.321 -1.888 0.16
-3.03 12.321 -1.89 0.050000001
-3.0450001 12.299 -1.887 0.17
-3.0869999 12.301 -1.8890001 0.050000001
-3.1229999 12.283 -1.887 0.16
-3.161 12.27 -1.887 0.050000001
-3.1949999 12.244 -1.8839999 0.16
-3.2360001 12.242 -1.886 0.050000001
-3.2720001 12.224 -1.8839999 0.16
-3.2950001 12.232 -1.887 0.050000001
-3.3310001 12.212 -1.885 0.16
-3.372 12.213 -1.887 0.050000001
-3.4089999 12.197 -1.886 0.17
-3.4460001 12.182 -1.885 0.050000001
-3.483 12.166 -1.8839999 0.17
-3.5220001 12.157 -1.885 0.050000001
-3.5569999 12.136 -1.883 0.17
-3.5799999 12.144 -1.885 0.050000001
-3.6129999 12.115 -1.882 0.17
-3.6530001 12.109 -1.883 0.050000001
-3.6930001 12.106 -1.885 0.17
-3.7309999 12.092 -1.8839999 0.050000001
-3.766 12.073 -1.883 0.16
-3.8050001 12.063 -1.883 0.050000001
-3.819 12.043 -1.881 0.17
-3.865 12.054 -1.885 0.2
-3.8959999 12.023 -1.882 0.22
-3.9319999 12.003 -1.881 0.18000001
-3.9809999 12.024 -1.886 0.25999999
-4.0139999 12.001 -1.8839999 0.23999999
-4.0549998 11.996 -1.886 0.23999999
-4.0949998 11.99 -1.887 0.27000001
-4.1199999 12.002 -1.89 0.27000001
-4.1589999 11.993 -1.891 0.28999999
-4.2049999 12.002 -1.8940001 0.30000001
-4.2449999 11.997 -1.896 0.28999999
-4.283 11.985 -1.896 0.28
-4.322 11.973 -1.896 0.30000001
-4.3530002 12 -1.902 0.31999999
-4.3909998 11.988 -1.902 0.31
-4.4330001 11.985 -1.904 0.30000001
-4.4759998 11.986 -1.9069999 0.28999999
-4.5159998 11.979 -1.908 0.28999999
-4.5609999 11.984 -1.911 0.30000001
-4.6040001 11.984 -1.913 0.28999999
-4.6420002 11.969 -1.913 0.28
-4.664 11.969 -1.915 0.30000001
-4.711 11.979 -1.919 0.31
-4.7529998 11.975 -1.921 0.31
-4.7940001 11.969 -1.9220001 0.31999999
-4.8410001 11.978 -1.926 0.31999999
-4.8790002 11.962 -1.926 0.36000001
-4.9229999 11.962 -1.929 0.31
-4.9510002 11.978 -1.933 0.30000001
-4.9910002 11.967 -1.934 0.34
-5.0339999 11.964 -1.936 0.34
-5.079 11.965 -1.939 0.31999999
-5.1199999 11.958 -1.9400001 0.34
-5.1680002 11.965 -1.9450001 0.33000001
-5.2150002 11.971 -1.948 0.31999999
-5.237 11.97 -1.95 0.34
-5.2779999 11.962 -1.951 0.36000001
-5.3270001 11.969 -1.955 0.31999999
-5.369 11.963 -1.957 0.33000001
-5.4120002 11.959 -1.959 0.25999999
-5.4559999 11.954 -1.961 0.14
-5.4959998 11.942 -1.962 0.18000001
-5.5339999 11.927 -1.9630001 0.050000001
-5.5549998 11.924 -1.964 0
-5.553 11.822 -1.949 0
-5.5040002 11.624 -1.9170001 0.050000001
-5.487 11.495 -1.897 0.14
-5.5009999 11.431 -1.8890001 0.17
-5.5289998 11.398 -1.887 0.1
-5.5640001 11.379 -1.886 0.2
-5.5840001 11.375 -1.887 0.17
-5.6300001 11.379 -1.891 0.25999999
-5.6719999 11.374 -1.893 0.23
-5.7140002 11.368 -1.895 0.19
-5.7620001 11.373 -1.899 0.27000001
-5.8080001 11.376 -1.903 0.23999999
-5.8439999 11.358 -1.903 0.2
-5.875 11.375 -1.908 0.28
-5.9219999 11.377 -1.9119999 0.25
-5.961 11.366 -1.913 0.19
-6.0139999 11.378 -1.919 0.25999999
-6.0630002 11.384 -1.923 0.23999999
-6.1030002 11.373 -1.924 0.2
-6.1539998 11.382 -1.929 0.27000001
-6.197 11.376 -1.932 0.23999999
-6.2220001 11.379 -1.934 0.19
-6.2750001 11.39 -1.9400001 0.27000001
-6.3210001 11.389 -1.943 0.23999999
-6.3610001 11.378 -1.9450001 0.18000001
-6.4120002 11.384 -1.95 0.27000001
-6.4580002 11.382 -1.9529999 0.23
-6.5040002 11.379 -1.956 0.2
-6.5339999 11.391 -1.96 0.25
-6.5869999 11.4 -1.966 0.2
-6.6269999 11.386 -1.967 0.25
-6.677 11.389 -1.971 0.2
-6.7220001 11.385 -1.974 0.25
-6.7690001 11.382 -1.978 0.20999999
-6.816 11.379 -1.9809999 0.12
-6.8379998 11.375 -1.983 0.20999999
-6.8909998 11.383 -1.988 0.17
-6.9450002 11.39 -1.993 0.25999999
-6.9850001 11.374 -1.994 0.19
-7.0380001 11.381 -2 0.25
-7.085 11.377 -2.003 0.19
-7.1339998 11.375 -2.007 0.23
-7.1609998 11.379 -2.01 0.19
-7.1869998 11.341 -2.007 0.050000001
-7.2189999 11.314 -2.006 0.16
-7.2540002 11.289 -2.006 0.2
-7.303 11.288 -2.01 0.090000004
-7.3930001 11.347 -2.026 0.16
-7.4310002 11.328 -2.026 0.050000001
-7.4790001 11.324 -2.03 0.18000001
-7.5089998 11.33 -2.033 0.050000001
-7.5900002 11.374 -2.046 0.18000001
-7.671 11.417 -2.059 0.23999999
-7.7129998 11.403 -2.0610001 0.2
-7.7579999 11.391 -2.063 0.28999999
-7.7969999 11.372 -2.0639999 0.23
-7.8260002 11.338 -2.063 0.12
-7.8140001 11.283 -2.0539999 0.2
-7.8280001 11.228 -2.0480001 0.11
-7.835 11.163 -2.0409999 0.19
-7.8779998 11.149 -2.043 0.050000001
-7.928 11.145 -2.0469999 0.17
-8.0159998 11.194 -2.0610001 0.2
-8.1040001 11.243 -2.076 0.1
-8.1490002 11.267 -2.0829999 0.18000001
-8.1759996 11.23 -2.0810001 0.11
-8.1960001 11.183 -2.0769999 0.14
-8.2370005 11.166 -2.0780001 0.25
-8.3100004 11.19 -2.0880001 0.19
-8.3380003 11.155 -2.086 0.050000001
-8.3999996 11.165 -2.0940001 0
-8.4300003 11.167 -2.0969999 0
-7.493 9.8669996 -1.842 0.059999999
-7.5359998 9.8590002 -1.845 0.16
-7.5780001 9.849 -1.848 0.22
-7.6230001 9.8439999 -1.852 0.22
-7.6659999 9.8360004 -1.855 0.19
-7.7189999 9.8400002 -1.8609999 0.27000001
-7.7620001 9.8310003 -1.864 0.23999999
-7.802 9.849 -1.87 0.2
-7.849 9.8450003 -1.874 0.27000001
-7.8899999 9.8330002 -1.877 0.23
-7.9530001 9.8479996 -1.885 0.18000001
-8.0129995 9.8579998 -1.892 0.25999999
-8.059 9.8509998 -1.896 0.2
-8.1160002 9.8570004 -1.903 0.23999999
-8.1560001 9.8739996 -1.908 0.19
-8.2080002 9.8739996 -1.914 0.23
-8.257 9.8690004 -1.918 0.19
-8.3030005 9.8610001 -1.9220001 0.12
-8.3529997 9.8579998 -1.927 0.2
-8.4040003 9.8540001 -1.931 0.11
-8.4510002 9.8470001 -1.9349999 0.2
-8.4910002 9.8620005 -1.941 0.11
-8.5430002 9.8590002 -1.946 0.17
-8.5469999 9.8009996 -1.9400001 0.050000001
-8.6409998 9.8470001 -1.955 0.18000001
-8.6969995 9.8479996 -1.961 0.11
-8.7480001 9.842 -1.966 0.18000001
-8.8050003 9.8439999 -1.972 0.1
-8.8339996 9.8450003 -1.975 0.18000001
-8.8850002 9.8389997 -1.98 0.050000001
-8.9289999 9.8260002 -1.983 0.16
-8.9799995 9.8190002 -1.988 0.18000001
-9.0299997 9.8129997 -1.993 0.090000004
-9.073 9.7980003 -1.995 0.18000001
-9.1120005 9.7779999 -1.997 0.22
-9.1230001 9.7270002 -1.993 0.19
-9.1090002 9.6829996 -1.9859999 0.050000001
-9.1420002 9.6569996 -1.987 0.17
-9.2030001 9.6599998 -1.993 0.1
-9.2690001 9.6680002 -2.0020001 0.18000001
-9.5340004 9.8809996 -2.0550001 0.15000001
-9.5950003 9.882 -2.062 0.30000001
-9.5769997 9.8009996 -2.0510001 0.22
-9.5159998 9.7089996 -2.0339999 0.30000001
-9.4729996 9.6049995 -2.017 0.27000001
-9.4849997 9.5570002 -2.013 0.25
-9.4940004 9.5059996 -2.0079999 0.25999999
-9.5360003 9.4879999 -2.0109999 0.20999999
-9.566 9.4580002 -2.0109999 0.15000001
-9.5970001 9.4300003 -2.0109999 0.18000001
-8.7729998 8.5970001 -1.825 0.22
-8.79 8.559 -1.823 0.25
-8.8269997 8.5410004 -1.825 0.27000001
-8.868 8.5270004 -1.8279999 0.28
-8.8920002 8.4969997 -1.8279999 0.27000001
-8.927 8.4770002 -1.83 0.28999999
-8.9650002 8.46 -1.832 0.28
-8.9969997 8.4630003 -1.836 0.28999999
-9.0439997 8.4540005 -1.841 0.31999999
-9.0970001 8.4490004 -1.846 0.31999999
-9.1470003 8.4420004 -1.851 0.31
-9.2010002 8.4379997 -1.857 0.31
-9.257 8.4359999 -1.864 0.31
-9.3050003 8.427 -1.868 0.28999999
-9.3669996 8.4289999 -1.876 0.30000001
-9.4060001 8.4379997 -1.881 0.30000001
-9.4569998 8.4300003 -1.887 0.28999999
-9.5170002 8.4300003 -1.8940001 0.30000001
-9.5719995 8.4250002 -1.9 0.30000001
-9.632 8.4239998 -1.9069999 0.30000001
-9.6929998 8.4239998 -1.914 0.28999999
-9.75 8.4189997 -1.92 0.28999999
-9.7869997 8.4239998 -1.925 0.28999999
-9.8540001 8.4280005 -1.934 0.31
-9.9069996 8.4200001 -1.9400001 0.31
-9.9519997 8.4040003 -1.943 0.30000001
-10.013 8.4020004 -1.951 0.20999999
-10.074 8.3999996 -1.9579999 0.13
-10.107 8.3730001 -1.959 0.18000001
-10.143 8.3760004 -1.964 0.11
-10.166 8.3409996 -1.9630001 0.2
-10.181 8.3009996 -1.961 0.18000001
-10.197 8.2600002 -1.959 0.20999999
-10.226 8.2299995 -1.959 0.33000001
-10.259 8.2040005 -1.961 0.38
-10.297 8.1820002 -1.9630001 0.38
-10.302 8.1599998 -1.962 0.51999998
-10.368 8.1590004 -1.97 0.46000001
-10.388 8.1210003 -1.969 0.23
-10.424 8.0970001 -1.971 0.28
-10.426 8.0459995 -1.966 0.19
-10.458 8.0179996 -1.967 0.23
-10.472 7.9770002 -1.965 0.2
-10.487 7.9629998 -1.966 0.12
-10.504 7.9239998 -1.964 0.19
-10.532 7.8930001 -1.965 0.11
-10.543 7.8499999 -1.962 0.18000001
-10.585 7.829 -1.966 0.1
-10.598 7.7880001 -1.9630001 0.17
-10.632 7.7620001 -1.965 0.20999999
-10.64 7.7410002 -1.964 0.1
-10.669 7.711 -1.965 0.15000001
-10.683 7.671 -1.9630001 0.050000001
-10.714 7.6420002 -1.965 0.16
-10.738 7.6079998 -1.965 0.2
-10.76 7.573 -1.964 0.090000004
-10.792 7.5450001 -1.966 0.090000004
-10.812 7.5089998 -1.965 0.090000004
-10.819 7.4889998 -1.964 0.079999998
-10.843 7.4549999 -1.964 0.079999998
-10.86 7.4159999 -1.9630001 0.079999998
-10.889 7.3860002 -1.964 0.079999998
-10.903 7.3449998 -1.962 0.039999999
-10.916 7.3049998 -1.961 0.07
-10.937 7.2690001 -1.96 0.079999998
-10.939 7.2449999 -1.9579999 0.039999999
-10.963 7.2119999 -1.959 0.07
-10.99 7.1810002 -1.96 0.079999998
-11.005 7.1409998 -1.9579999 0.079999998
-11.02 7.1020002 -1.957 0.079999998
-11.039 7.0650001 -1.956 0.079999998
-11.058 7.0279999 -1.956 0.16
-11.074 7.0139999 -1.956 0.16
-11.089 6.9749999 -1.955 0.17
-11.1 6.9330001 -1.9529999 0.039999999
-11.111 6.8920002 -1.951 0.16
-11.14 6.8610001 -1.952 0.050000001
-11.149 6.8189998 -1.95 0.16
-11.174 6.7859998 -1.951 0.050000001
-11.168 6.7579999 -1.948 0.18000001
-11.201 6.73 -1.95 0.050000001
-11.208 6.6869998 -1.947 0.17
-11.236 6.6560001 -1.949 0.11
-11.24 6.6100001 -1.9450001 0.18000001
-11.266 6.5780001 -1.946 0.1
-11.293 6.546 -1.948 0.18000001
-11.288 6.52 -1.9450001 0.050000001
-11.295 6.4770002 -1.942 0.17
-11.322 6.4450002 -1.944 0.11
-11.327 6.401 -1.941 0.19
-11.355 6.3699999 -1.942 0.1
-11.367 6.329 -1.941 0.18000001
-11.397 6.2989998 -1.943 0.11
-11.394 6.2750001 -1.9400001 0.18000001
-11.416 6.2399998 -1.941 0.11
-11.42 6.1950002 -1.938 0.18000001
-11.444 6.1620002 -1.939 0.050000001
-11.453 6.1209998 -1.937 0.17
-11.485 6.0910001 -1.939 0.2
-11.491 6.0489998 -1.937 0.090000004
-11.517 6.0159998 -1.938 0.090000004
-11.518 5.994 -1.937 0.090000004
-11.54 5.9590001 -1.937 0.079999998
-11.543 5.915 -1.9349999 0.090000004
-11.564 5.8790002 -1.9349999 0.090000004
-11.575 5.8400002 -1.934 0.090000004
-11.584 5.7989998 -1.932 0.079999998
-11.611 5.7670002 -1.934 0.079999998
-11.612 5.744 -1.932 0.16
-11.621 5.7030001 -1.9299999 0.17
-11.624 5.6599998 -1.928 0.039999999
-11.626 5.6160002 -1.925 0.15000001
-11.649 5.5819998 -1.926 0.050000001
-11.654 5.539 -1.924 0.16
-11.68 5.507 -1.925 0.2
-11.683 5.4860001 -1.924 0.090000004
-11.692 5.4450002 -1.923 0.18000001
-11.702 5.4050002 -1.9220001 0.050000001
-11.706 5.362 -1.919 0.18000001
-11.735 5.3309999 -1.9220001 0.2
-11.752 5.2940001 -1.9220001 0.1
-11.745 5.2470002 -1.918 0.18000001
-11.759 5.2309999 -1.919 0.1
-11.766 5.1900001 -1.9170001 0.19
-11.788 5.1550002 -1.918 0.11
-11.789 5.112 -1.915 0.18000001
-11.807 5.0760002 -1.916 0.1
-11.814 5.0349998 -1.914 0.18000001
-11.835 5 -1.915 0.11
-11.834 4.9770002 -1.913 0.19
-11.855 4.9429998 -1.914 0.11
-11.859 4.901 -1.913 0.18000001
-11.88 4.8660002 -1.913 0.23
-11.892 4.8270001 -1.913 0.18000001
-11.909 4.79 -1.913 0.23
-11.942 4.7600002 -1.916 0.17
-11.931 4.7119999 -1.9119999 0.1
-11.931 4.691 -1.911 0.2
-11.946 4.6529999 -1.911 0.11
-11.959 4.6149998 -1.91 0.2
-11.975 4.5780001 -1.911 0.11
-11.999 4.5440001 -1.9119999 0.17
-12.013 4.506 -1.9119999 0.20999999
-12.032 4.4710002 -1.913 0.1
-12.028 4.448 -1.911 0.18000001
-12.057 4.415 -1.914 0.20999999
-12.069 4.3769999 -1.913 0.1
-12.075 4.336 -1.9119999 0.18000001
-12.093 4.2989998 -1.913 0.1
-12.108 4.2620001 -1.913 0.19
-12.119 4.223 -1.913 0.050000001
-12.122 4.2030001 -1.9119999 0.16
-12.15 4.1700001 -1.915 0.19
-12.15 4.1269999 -1.913 0.039999999
-12.148 4.0840001 -1.91 0.16
-12.174 4.0500002 -1.9119999 0.19
-12.168 4.006 -1.909 0.039999999
-12.161 3.983 -1.9069999 0.16
-12.183 3.947 -1.908 0.050000001
-12.193 3.908 -1.908 0.16
-12.204 3.869 -1.908 0.050000001
-12.203 3.8269999 -1.906 0.16
-12.224 3.7920001 -1.9069999 0.18000001
-12.24 3.7539999 -1.908 0.18000001
-12.248 3.7149999 -1.9069999 0.1
-12.235 3.6900001 -1.904 0.19
-12.261 3.6559999 -1.9069999 0.2
-12.265 3.615 -1.905 0.090000004
-12.282 3.5780001 -1.906 0.18000001
-12.288 3.5380001 -1.905 0.20999999
-12.287 3.4960001 -1.903 0.1
-12.294 3.4560001 -1.903 0.2
-12.309 3.4400001 -1.904 0.2
-12.328 3.4030001 -1.906 0.1
-12.323 3.3599999 -1.903 0.18000001
-12.333 3.322 -1.903 0.12
-12.323 3.277 -1.9 0.20999999
-12.343 3.2409999 -1.901 0.1
-12.347 3.201 -1.9 0.19
-12.365 3.1849999 -1.903 0.11
-12.354 3.141 -1.899 0.19
-12.374 3.1040001 -1.901 0.1
-12.383 3.0650001 -1.901 0.18000001
-12.378 3.023 -1.898 0.20999999
-12.391 2.9849999 -1.899 0.1
-12.391 2.9430001 -1.897 0.19
-12.394 2.9030001 -1.896 0.050000001
-12.389 2.881 -1.895 0.16
-12.423 2.848 -1.899 0.2
-12.424 2.8069999 -1.897 0.090000004
-12.423 2.766 -1.896 0.15000001
-12.436 2.7279999 -1.897 0.050000001
-12.436 2.687 -1.895 0.17
-12.456 2.671 -1.898 0.2
-12.453 2.6289999 -1.896 0.090000004
-12.461 2.5899999 -1.896 0.090000004
-12.471 2.552 -1.896 0.17
-12.489 2.5139999 -1.898 0.050000001
-12.477 2.471 -1.895 0.17
-12.479 2.431 -1.8940001 0.050000001
-12.483 2.391 -1.893 0.16
-12.49 2.372 -1.8940001 0.050000001
-12.494 2.332 -1.893 0.16
-12.511 2.2950001 -1.895 0.050000001
-12.502 2.253 -1.892 0.17
-12.523 2.2160001 -1.8940001 0.050000001
-12.52 2.175 -1.893 0.17
-12.527 2.135 -1.893 0.2
-12.536 2.1170001 -1.8940001 0.090000004
-12.541 2.0769999 -1.893 0.16
-12.541 2.0369999 -1.892 0.22
-12.54 1.9960001 -1.891 0.1
-12.529 1.954 -1.888 0.18000001
-12.554 1.9170001 -1.892 0.11
-12.539 1.875 -1.888 0.18000001
-12.53 1.853 -1.886 0.23
-12.551 1.816 -1.8890001 0.19
-12.565 1.778 -1.89 0
-12.56 1.697 -1.887 0.20999999
-12.54 1.654 -1.883 0.18000001
-12.523 1.612 -1.88 0.20999999
-12.52 1.591 -1.8789999 0.34
-12.519 1.551 -1.878 0.34999999
-12.52 1.512 -1.877 0.38999999
-12.536 1.474 -1.8789999 0.31999999
-12.529 1.433 -1.877 0.30000001
-12.542 1.3940001 -1.8789999 0.38999999
-12.565 1.357 -1.882 0.47
-12.578 1.318 -1.883 0.12
-12.562 1.2970001 -1.88 0.2
-12.588 1.2589999 -1.8839999 0.11
-12.574 1.2180001 -1.881 0.2
-12.583 1.179 -1.882 0.11
-12.591 1.14 -1.882 0.18000001
-12.591 1.1 -1.882 0.050000001
-12.592 1.0599999 -1.881 0.17
-12.615 1.0420001 -1.885 0.1
-12.599 1.001 -1.882 0.18000001
-12.614 0.963 -1.8839999 0.050000001
-12.611 0.92299998 -1.883 0.17
-12.608 0.88300002 -1.882 0.050000001
-12.62 0.84399998 -1.883 0.18000001
-12.625 0.80400002 -1.8839999 0.19
-12.608 0.78299999 -1.881 0.039999999
-12.623 0.74400002 -1.883 0.17
-12.629 0.70499998 -1.883 0.050000001
-12.619 0.66399997 -1.881 0.16
-12.617 0.625 -1.881 0.050000001
-12.619 0.58499998 -1.881 0.16
-12.625 0.54500002 -1.881 0.050000001
-12.622 0.52499998 -1.881 0.17
-12.637 0.486 -1.883 0.2
-12.623 0.44600001 -1.881 0.1
-12.626 0.40700001 -1.881 0.17
-12.633 0.36700001 -1.882 0.20999999
-12.63 0.32699999 -1.881 0.1
-12.627 0.287 -1.881 0.19
-12.642 0.248 -1.883 0.11
-12.623 0.228 -1.88 0.19
-12.633 0.18799999 -1.881 0.11
-12.628 0.149 -1.88 0.18000001
-12.632 0.109 -1.881 0.11
-12.63 0.068999998 -1.881 0.19
-12.637 0.029999999 -1.881 0.11
-12.627 0.0099999998 -1.88 0.18000001
-12.633 -0.029999999 -1.881 0.11
-12.623 -0.07 -1.8789999 0.2
-12.632 -0.109 -1.881 0.11
-12.648 -0.149 -1.883 0.18000001
-12.633 -0.189 -1.881 0.12
-12.625 -0.228 -1.88 0.19
-12.636 -0.26800001 -1.882 0.11
-12.625 -0.28799999 -1.88 0.18000001
-12.628 -0.32800001 -1.881 0.11
-12.627 -0.36700001 -1.881 0.18000001
-12.624 -0.40700001 -1.881 0.050000001
-12.733 -0.45100001 -1.898 0.11
-12.722 -0.49000001 -1.897 0.18000001
-12.734 -0.53100002 -1.899 0.11
-12.738 -0.57099998 -1.9 0.17
-12.723 -0.61000001 -1.897 0.050000001
-12.719 -0.64999998 -1.897 0.17
-12.73 -0.671 -1.899 0.1
-12.721 -0.71100003 -1.898 0.18000001
-12.723 -0.75099999 -1.899 0.2
-12.719 -0.79100001 -1.898 0.1
-12.712 -0.82999998 -1.898 0.18000001
-12.704 -0.87 -1.897 0.050000001
-12.697 -0.90899998 -1.896 0.17
-12.702 -0.94999999 -1.897 0.2
-12.702 -0.97000003 -1.898 0.1
-12.68 -1.008 -1.895 0.18000001
-12.698 -1.05 -1.898 0.19
-12.689 -1.089 -1.897 0.1
-12.679 -1.1289999 -1.896 0.16
-12.691 -1.17 -1.899 0.22
-12.696 -1.211 -1.9 0
-12.686 -1.23 -1.899 0.039999999
-12.68 -1.2690001 -1.898 0.090000004
-12.668 -1.308 -1.897 0.18000001
-12.658 -1.348 -1.896 0.050000001
-12.636 -1.385 -1.893 0.16
-12.653 -1.428 -1.897 0.050000001
-12.635 -1.466 -1.895 0.16
-12.646 -1.487 -1.897 0.18000001
-12.636 -1.526 -1.896 0.17
-12.623 -1.5650001 -1.895 0.17
-12.614 -1.604 -1.8940001 0.039999999
-12.607 -1.643 -1.8940001 0.16
-12.608 -1.684 -1.895 0.050000001
-12.587 -1.721 -1.892 0.16
-12.59 -1.742 -1.893 0.050000001
-12.578 -1.78 -1.892 0.16
-12.579 -1.821 -1.893 0.039999999
-12.565 -1.859 -1.892 0.17
-12.565 -1.9 -1.893 0.050000001
-12.549 -1.937 -1.891 0.17
-12.545 -1.977 -1.892 0.2
-12.548 -1.998 -1.892 0.1
-12.524 -2.0339999 -1.89 0.18000001
-12.515 -2.073 -1.8890001 0.19
-12.515 -2.1140001 -1.89 0.1
-12.49 -2.1500001 -1.887 0.19
-12.497 -2.1919999 -1.89 0.11
-12.475 -2.2279999 -1.887 0.18000001
-12.479 -2.2690001 -1.8890001 0.11
-12.464 -2.2869999 -1.887 0.19
-12.474 -2.329 -1.89 0.11
-12.461 -2.3670001 -1.8890001 0.17
-12.438 -2.4030001 -1.887 0.050000001
-12.417 -2.4400001 -1.8839999 0.17
-12.421 -2.4809999 -1.886 0.11
-12.432 -2.5239999 -1.8890001 0.17
-12.423 -2.5420001 -1.888 0.22
-12.403 -2.579 -1.887 0.1
-12.393 -2.618 -1.886 0.16
-12.371 -2.654 -1.8839999 0.050000001
-12.353 -2.6900001 -1.882 0.17
-12.36 -2.7320001 -1.885 0.050000001
-12.342 -2.7690001 -1.883 0.17
-12.343 -2.79 -1.8839999 0.18000001
-12.338 -2.829 -1.885 0.18000001
-12.318 -2.865 -1.883 0.18000001
-12.297 -2.901 -1.881 0.18000001
-12.307 -2.9449999 -1.8839999 0.17
-12.282 -2.98 -1.882 0.17
-12.263 -3.016 -1.88 0.16
-12.272 -3.0380001 -1.882 0.18000001
-12.245 -3.073 -1.88 0.17
-12.234 -3.1110001 -1.8789999 0.17
-12.233 -3.151 -1.881 0.18000001
-12.221 -3.1889999 -1.881 0.18000001
-12.204 -3.2260001 -1.8789999 0.16
-12.199 -3.266 -1.88 0.17
-12.183 -3.2820001 -1.878 0.18000001
-12.184 -3.323 -1.88 0.16
-12.158 -3.3570001 -1.878 0.039999999
-12.132 -3.391 -1.875 0.15000001
-12.137 -3.4330001 -1.878 0.2
-12.126 -3.471 -1.878 0.1
-12.1 -3.5050001 -1.875 0.18000001
-12.079 -3.52 -1.873 0.050000001
-12.087 -3.563 -1.876 0.16
-12.072 -3.5999999 -1.875 0.19
-12.06 -3.638 -1.875 0.090000004
-12.034 -3.671 -1.873 0.18000001
-12.024 -3.71 -1.873 0.11
-12.014 -3.7479999 -1.873 0.18000001
-12.016 -3.7690001 -1.875 0.20999999
-11.976 -3.7980001 -1.87 0.18000001
-11.969 -3.8369999 -1.8710001 0.23
-11.961 -3.8759999 -1.8710001 0.18000001
-11.938 -3.9100001 -1.87 0.23999999
-11.92 -3.9460001 -1.869 0.18000001
-11.915 -3.9849999 -1.87 0.25
-11.888 -3.997 -1.8660001 0.19
-11.877 -4.0349998 -1.867 0.23
-11.872 -4.0749998 -1.868 0.18000001
-11.855 -4.1110001 -1.867 0.23
-11.831 -4.1440001 -1.865 0.17
-11.816 -4.1810002 -1.865 0.25
-11.801 -4.217 -1.865 0.19
-11.792 -4.2350001 -1.865 0.23
-11.77 -4.2690001 -1.863 0.18000001
-11.793 -4.3189998 -1.869 0.25
-11.793 -4.3610001 -1.8710001 0.23
-11.764 -4.3930001 -1.869 0.18000001
-11.76 -4.4330001 -1.8710001 0.25999999
-11.718 -4.4590001 -1.8660001 0.23999999
-11.66 -4.4790001 -1.858 0.25
-11.588 -4.4720001 -1.847 0.27000001
-11.521 -4.4879999 -1.8380001 0.27000001
-11.437 -4.4959998 -1.826 0.28
-11.36 -4.507 -1.816 0.28999999
-11.267 -4.5110002 -1.802 0.28999999
-11.193 -4.5219998 -1.7920001 0.30000001
-11.127 -4.5359998 -1.783 0.28999999
-11.054 -4.527 -1.772 0.28
-10.978 -4.5359998 -1.761 0.28999999
-10.905 -4.546 -1.751 0.27000001
-10.853 -4.5640001 -1.744 0.31999999
-10.804 -4.5830002 -1.738 0.28999999
-10.782 -4.6139998 -1.737 0.27000001
-10.77 -4.6490002 -1.737 0.28
-10.739 -4.6550002 -1.733 0.2
-10.695 -4.6760001 -1.728 0.28999999
-10.648 -4.6950002 -1.723 0.40000001
-10.601 -4.7140002 -1.717 0.38999999
-10.597 -4.7519999 -1.719 0.38999999
-10.585 -4.7870002 -1.72 0.37
-10.557 -4.8150001 -1.717 0.38999999
-10.555 -4.8340001 -1.7180001 0.38
-10.522 -4.8590002 -1.715 0.34
-10.491 -4.8839998 -1.712 0.41
-10.488 -4.9229999 -1.715 0.34999999
-10.453 -4.947 -1.711 0.41
-10.435 -4.9790001 -1.711 0.36000001
-10.425 -5.0139999 -1.712 0.41999999
-10.396 -5.02 -1.7079999 0.36000001
-10.373 -5.0489998 -1.707 0.40000001
-10.343 -5.0749998 -1.704 0.38
-10.314 -5.1009998 -1.702 0.34
-10.281 -5.1240001 -1.699 0.38
-10.27 -5.1589999 -1.7 0.41
-10.264 -5.197 -1.702 0.40000001
-10.245 -5.2080002 -1.7 0.36000001
-10.22 -5.2350001 -1.698 0.38
-10.198 -5.2649999 -1.697 0.37
-10.173 -5.2919998 -1.696 0.38
-10.146 -5.3189998 -1.694 0.38
-10.129 -5.3499999 -1.694 0.38
-10.142 -5.3979998 -1.699 0.41
-10.097 -5.415 -1.694 0.38
-10.066 -5.4180002 -1.6900001 0.40000001
-10.03 -5.4400001 -1.687 0.34
-10.016 -5.473 -1.687 0.41
-10.004 -5.507 -1.688 0.34
-10.001 -5.546 -1.691 0.40000001
-9.9689999 -5.5700002 -1.688 0.38
-9.9519997 -5.6009998 -1.688 0.38999999
-9.9189997 -5.6030002 -1.684 0.34
-9.8979998 -5.6329999 -1.683 0.36000001
-9.8990002 -5.6739998 -1.687 0.38999999
-9.9099998 -5.7220001 -1.692 0.36000001
-9.9209995 -5.77 -1.697 0.38
-9.9029999 -5.802 -1.697 0.34
-9.8760004 -5.8280001 -1.696 0.37
-9.8470001 -5.8309999 -1.692 0.38
-9.823 -5.8590002 -1.691 0.38
-9.8050003 -5.8899999 -1.691 0.37
-9.7889996 -5.9229999 -1.692 0.38999999
-9.7539997 -5.9429998 -1.689 0.38999999
-9.7019997 -5.9530001 -1.682 0.36000001
-9.691 -5.9879999 -1.684 0.36000001
-9.6669998 -5.994 -1.681 0.36000001
-9.6330004 -6.0149999 -1.678 0.36000001
-9.6269999 -6.0539999 -1.681 0.38999999
-9.5950003 -6.0760002 -1.678 0.38999999
-9.566 -6.099 -1.676 0.38
-9.5349998 -6.1220002 -1.674 0.38
-9.4890003 -6.1350002 -1.669 0.38
-9.4879999 -6.1550002 -1.671 0.31999999
-9.4530001 -6.1750002 -1.668 0.43000001
-9.4289999 -6.2010002 -1.6670001 0.36000001
-9.3879995 -6.217 -1.663 0.41
-9.3389997 -6.2259998 -1.6569999 0.38999999
-9.3129997 -6.2509999 -1.656 0.34999999
-9.2980003 -6.2839999 -1.6569999 0.38
-9.29 -6.2989998 -1.6569999 0.38
-9.2770004 -6.3330002 -1.658 0.31999999
-9.2349997 -6.348 -1.654 0.41
-9.2069998 -6.3709998 -1.653 0.34
-9.1809998 -6.395 -1.651 0.41
-9.1540003 -6.4200001 -1.65 0.34
-9.1289997 -6.4450002 -1.649 0.40000001
-9.1400003 -6.474 -1.653 0.38999999
-9.0810003 -6.4749999 -1.646 0.40000001
-9.059 -6.5019999 -1.646 0.36000001
-9.0340004 -6.527 -1.645 0.38
-9.0039997 -6.5489998 -1.643 0.36000001
-8.9940004 -6.585 -1.645 0.37
-8.9560003 -6.6009998 -1.641 0.38
-8.9130001 -6.612 -1.637 0.34
-8.8979998 -6.6230001 -1.636 0.37
-8.8719997 -6.6469998 -1.635 0.41
-8.8690004 -6.6880002 -1.6390001 0.38
-8.823 -6.697 -1.6339999 0.37
-8.8009996 -6.724 -1.6339999 0.38
-8.7720003 -6.7459998 -1.632 0.40000001
-8.7399998 -6.7649999 -1.63 0.36000001
-8.7159996 -6.7680001 -1.627 0.41
-8.6870003 -6.789 -1.625 0.38
-8.6540003 -6.8080001 -1.623 0.38999999
-8.6309996 -6.8330002 -1.623 0.38999999
-8.6129999 -6.8629999 -1.624 0.38
-8.5760002 -6.8779998 -1.62 0.36000001
-8.5640001 -6.9120002 -1.622 0.38
-8.5539999 -6.927 -1.623 0.38
-8.5200005 -6.9439998 -1.62 0.38999999
-8.5 -6.9720001 -1.62 0.38
-8.4779997 -6.9980001 -1.62 0.36000001
-8.4379997 -7.0100002 -1.617 0.36000001
-8.4230003 -7.0419998 -1.618 0.41999999
-8.3800001 -7.0510001 -1.614 0.34999999
-8.3760004 -7.0710001 -1.615 0.40000001
-8.3559999 -7.098 -1.6160001 0.36000001
