# .PCD v0.7 - Point Cloud Data file format
VERSION 0.7
FIELDS x y z intensity
SIZE 4 4 4 4
TYPE F F F F
COUNT 1 1 1 1
WIDTH 1498
HEIGHT 1
VIEWPOINT 0 0 0 1 0 0 0
POINTS 1498
DATA ascii
26.971001 2.9400001 -1.665 0
26.989 3.027 -1.666 0
26.936001 3.1070001 -1.663 0
26.924 3.1919999 -1.663 0
26.924 3.277 -1.664 0
26.913 3.319 -1.664 0
26.898001 3.4030001 -1.663 0
26.907 3.49 -1.665 0
26.875999 3.572 -1.663 0
26.881001 3.6589999 -1.664 0
26.868999 3.743 -1.664 0
26.857 3.8269999 -1.664 0
26.855 3.8699999 -1.665 0
26.851 3.9560001 -1.665 0
26.85 4.0419998 -1.666 0
26.844999 4.1269999 -1.6670001 0
26.872999 4.2179999 -1.669 0
26.858 4.302 -1.669 0
26.830999 4.3839998 -1.668 0
26.816 4.4250002 -1.668 0
26.808001 4.5100002 -1.668 0
26.785999 4.5929999 -1.668 0
26.767 4.677 -1.6670001 0
26.733 4.757 -1.666 0
26.709999 4.8400002 -1.665 0
26.686001 4.9219999 -1.665 0
26.641001 4.9569998 -1.6619999 0.13
26.582001 5.119 -1.66 0.27000001
26.662001 5.2210002 -1.6670001 0.57999998
26.514 5.2789998 -1.658 0.25999999
26.514999 5.3660002 -1.659 0.25
26.455 5.4400001 -1.656 0.11
26.275 5.447 -1.6440001 0.15000001
25.92 5.4580002 -1.62 0.20999999
25.561001 5.467 -1.596 0.18000001
25.232 5.48 -1.574 0.20999999
24.903999 5.4910002 -1.553 0.18000001
24.622 5.5100002 -1.534 0.33000001
24.531 5.5710001 -1.529 0
24.458 5.5949998 -1.524 0.07
27.594999 6.4000001 -1.747 0.14
27.598 6.4920001 -1.749 0.090000004
27.613001 6.5869999 -1.751 0
27.152 6.5679998 -1.72 0
27.046 6.6329999 -1.714 0
26.809999 6.664 -1.699 0
26.458 6.6209998 -1.674 0
26.103001 6.6199999 -1.651 0
25.711 6.6069999 -1.624 0
25.427 6.6199999 -1.6059999 0
28.16 7.4229999 -1.802 0
28.023001 7.4809999 -1.793 0
27.992001 7.5669999 -1.793 0
27.955999 7.6040001 -1.791 0
27.83 7.664 -1.784 0
27.781 7.7449999 -1.7819999 0
27.73 7.8239999 -1.78 0
27.65 7.8959999 -1.776 0
27.621 7.9809999 -1.776 0
27.596001 8.0679998 -1.776 0
27.556999 8.151 -1.775 0
27.023001 8.04 -1.738 0
26.971001 8.1169996 -1.7359999 0
26.771999 8.1490002 -1.723 0
26.462 8.1450005 -1.7029999 0
26.200001 8.1549997 -1.686 0
25.858 8.1379995 -1.663 0
25.556 8.0880003 -1.642 0
25.322001 8.1009998 -1.627 0
26.855 8.6829996 -1.74 0.12
26.594 8.6920004 -1.723 0.18000001
26.323999 8.6949997 -1.705 0.17
26.056 8.698 -1.688 0.18000001
25.811001 8.7069998 -1.6720001 0.18000001
25.563 8.6680002 -1.655 0
25.332001 8.6789999 -1.64 0
25.226999 8.7309999 -1.635 0
25.219 8.8170004 -1.636 0
25.200001 8.8999996 -1.637 0
25.174 8.9799995 -1.637 0
25.138 9.0559998 -1.636 0
26.643999 9.6440001 -1.747 0
26.43 9.6610003 -1.734 0
26.171 9.6599998 -1.717 0
25.955 9.6730003 -1.704 0
25.697001 9.6689997 -1.687 0
25.455999 9.6700001 -1.671 0
25.188 9.6590004 -1.654 0
25.013 9.6370001 -1.642 0
27.275 10.605 -1.811 0.1
27.211 10.679 -1.809 0.18000001
27.177999 10.764 -1.809 0.16
27.194 10.869 -1.813 0.17
27.177999 10.962 -1.814 0
27.079 11.021 -1.809 0
26.989 11.083 -1.8049999 0
26.798 11.054 -1.7920001 0
26.622999 11.08 -1.7819999 0
26.527 11.139 -1.777 0
26.361 11.167 -1.768 0.07
26.058001 11.135 -1.748 0.079999998
25.950001 11.186 -1.742 0.090000004
25.743999 11.193 -1.729 0.14
25.540001 11.152 -1.715 0.090000004
25.32 11.151 -1.701 0.090000004
25.110001 11.153 -1.688 0
24.871 11.141 -1.673 0
24.677999 11.148 -1.661 0
26.271999 11.966 -1.784 0.13
26.139 11.955 -1.775 0.25999999
25.962999 11.973 -1.765 0.19
25.799 11.996 -1.755 0.19
25.620001 12.011 -1.745 0.22
25.42 12.015 -1.732 0.2
25.24 12.027 -1.722 0.23
25.042999 12.031 -1.709 0.18000001
24.884001 12.002 -1.699 0.23
24.702999 12.011 -1.688 0.19
24.507 12.011 -1.676 0.20999999
24.275999 11.993 -1.661 0.19
24.09 11.995 -1.649 0.30000001
23.909 12 -1.638 0.2
23.718 11.997 -1.627 0.18000001
23.562 11.965 -1.6160001 0.20999999
23.381001 11.966 -1.605 0.19
23.238001 11.985 -1.597 0.20999999
23.1 12.006 -1.589 0.19
23.032 12.063 -1.587 0.28999999
22.98 12.127 -1.586 0.2
22.875999 12.165 -1.581 0.18000001
22.739 12.184 -1.573 0.12
22.594999 12.153 -1.563 0.17
22.436001 12.158 -1.554 0.30000001
22.336 12.195 -1.549 0.25
22.118 12.167 -1.535 0.31
21.976 12.179 -1.527 0.20999999
21.834999 12.191 -1.518 0
21.740999 12.228 -1.5140001 0
23.718 13.386 -1.6720001 0
23.653 13.448 -1.67 0
23.629999 13.533 -1.671 0
23.615 13.623 -1.674 0
23.604 13.716 -1.676 0
23.596001 13.81 -1.679 0
23.58 13.901 -1.681 0
23.591 13.957 -1.684 0
23.577 14.049 -1.686 0
23.562 14.141 -1.689 0
23.555 14.237 -1.692 0
23.551001 14.336 -1.6950001 0
23.525 14.421 -1.696 0
23.507999 14.513 -1.699 0
23.52 14.571 -1.701 0
23.499001 14.661 -1.704 0
23.499001 14.763 -1.707 0
23.486 14.858 -1.71 0
23.464001 14.948 -1.712 0
23.434 15.032 -1.7130001 0
20.389999 13.174 -1.4680001 0
20.247999 13.128 -1.4579999 0
19.959999 13.12 -1.441 0
19.886999 13.162 -1.439 0
19.73 13.147 -1.429 0
19.591999 13.145 -1.421 0
19.452999 13.14 -1.413 0
19.336 13.106 -1.405 0
19.212999 13.111 -1.398 0
19.079 13.108 -1.391 0
18.959 13.113 -1.3839999 0
18.815001 13.101 -1.375 0
18.690001 13.102 -1.368 0
18.566999 13.103 -1.3609999 0
18.472 13.079 -1.355 0
18.351999 13.082 -1.349 0
18.216999 13.072 -1.341 0
17.812 13.124 -1.3200001 0
17.669001 13.062 -1.3099999 0.039999999
17.556 13.064 -1.303 0.16
17.464001 13.08 -1.299 0.14
17.422001 13.135 -1.299 0.15000001
17.370001 13.182 -1.298 0.60000002
17.355 13.257 -1.3 0.79000002
17.295 13.296 -1.299 0.25
17.280001 13.328 -1.299 0.5
17.263 13.402 -1.302 0.47999999
17.242001 13.472 -1.303 0.2
17.224001 13.634 -1.309 0.63999999
17.212 13.712 -1.312 0.54000002
17.200001 13.791 -1.3150001 0.55000001
17.208 13.842 -1.317 0.50999999
17.198999 13.924 -1.3200001 0.36000001
17.121 13.95 -1.317 0.55000001
17.221001 14.121 -1.33 0
17.236 14.225 -1.335 0
17.274 14.348 -1.3430001 0
17.318001 14.476 -1.351 0
19.43 16.289 -1.5420001 0
19.4 16.368 -1.544 0
19.43 16.497 -1.552 0
19.417 16.591999 -1.5549999 0
19.417999 16.698 -1.5599999 0
19.417 16.802999 -1.5650001 0
19.409 16.903999 -1.569 0
19.42 16.966999 -1.572 0
19.427 17.08 -1.5779999 0
20.745001 18.586 -1.714 0.1
20.660999 18.629 -1.712 0.16
20.579 18.672001 -1.71 0.16
20.533001 18.690001 -1.7079999 0.16
20.48 18.759001 -1.709 0.16
20.405001 18.809 -1.707 0.16
20.347 18.874001 -1.707 0.1
20.298 18.947001 -1.7079999 0.15000001
20.224001 18.997 -1.707 0.1
20.165001 19.062 -1.707 0.14
20.146999 19.105 -1.7079999 0.090000004
20.093 19.174 -1.709 0.15000001
20.044001 19.247999 -1.71 0.1
19.997999 19.323999 -1.711 0.15000001
19.941 19.391001 -1.712 0.090000004
19.893 19.466 -1.7130001 0.14
19.857 19.554001 -1.715 0.090000004
19.816 19.636 -1.717 0.14
19.816 19.698 -1.72 0.090000004
19.791 19.797001 -1.724 0
19.747 19.877001 -1.726 0
19.641001 19.895 -1.721 0
20.325001 20.716999 -1.795 0.13
20.231001 20.75 -1.7920001 0.1
20.122999 20.705 -1.784 0.15000001
19.448999 20.139 -1.724 0.090000004
19.316 20.128 -1.717 0.16
19.156 20.087 -1.7079999 0.30000001
19.004 20.052999 -1.699 0.19
18.879 20.048 -1.693 0.23999999
18.790001 20.079 -1.6900001 0.2
18.783001 20.135 -1.692 0.12
18.767 20.245001 -1.697 0.15000001
18.747 20.351 -1.702 0.17
18.726999 20.458 -1.706 0.18000001
18.702999 20.561001 -1.71 0.17
18.688999 20.676001 -1.715 0
18.783001 20.910999 -1.732 0.13
18.417999 20.700001 -1.704 0.46000001
18.337999 20.740999 -1.7029999 0.25
18.464001 21.016001 -1.723 0.31
18.639 21.35 -1.748 0.16
18.566999 21.403 -1.747 0.17
18.502001 21.464001 -1.748 0.20999999
18.444 21.532 -1.749 0.11
18.426001 21.718 -1.757 0.38999999
18.364 21.783001 -1.758 0.22
18.061001 21.561001 -1.733 0.31
17.941999 21.556999 -1.728 0.28999999
17.877001 21.615999 -1.728 0.28999999
17.766001 21.620001 -1.723 0.27000001
17.798 21.728001 -1.73 0.27000001
17.729 21.783001 -1.73 0.17
17.618 21.785999 -1.726 0.34999999
17.611 21.917999 -1.732 0.11
17.539 21.969999 -1.732 0.14
17.489 22.048 -1.734 0.20999999
17.422001 22.106001 -1.734 0
17.427999 22.184999 -1.739 0.12
17.347 22.226 -1.738 0.23
17.282 22.287001 -1.738 0.11
17.295 22.448 -1.748 0.17
17.011999 22.371 -1.732 0.47
16.833 22.281 -1.719 0.22
16.933001 22.486 -1.735 0.31
16.893999 22.582001 -1.738 0.30000001
16.667 22.424999 -1.72 0.28999999
16.582001 22.458 -1.719 0.25
16.452 22.427999 -1.712 0.31
16.377001 22.475 -1.711 0.23
16.323 22.549 -1.7130001 0.44
15.704 21.768 -1.645 0.25
16.167 22.556 -1.707 0.23
16.038 22.525 -1.7 0.18000001
15.769 22.296 -1.677 0.34999999
15.78 22.461 -1.686 0.18000001
15.681 22.469 -1.683 0.23
15.11 21.799 -1.623 0.25
15.073 21.818001 -1.622 0.12
13.498 19.674999 -1.4400001 0.27000001
13.43 19.708 -1.439 0.16
13.2 19.634001 -1.426 0.33000001
13.144 19.686001 -1.426 0.41999999
13.036 19.657 -1.421 0.15000001
13.001 19.671 -1.42 0.31999999
12.88 19.622 -1.413 0.15000001
12.611 19.478001 -1.3940001 0.56999999
12.642 19.662001 -1.406 0.2
12.658 19.822001 -1.416 0.33000001
12.787 20.163 -1.441 0.2
12.808 20.266001 -1.447 0.22
12.786 20.372 -1.4529999 0.20999999
12.704 20.382999 -1.45 0.25
12.612 20.379 -1.447 0.19
12.545 20.414 -1.446 0.25
12.457 20.414 -1.443 0.31
12.369 20.414 -1.4400001 0.27000001
12.282 20.415001 -1.437 0.28999999
12.23 20.400999 -1.434 0.28999999
12.15 20.412001 -1.432 0.31999999
12.059 20.406 -1.429 0.27000001
11.905 20.291 -1.416 0.28999999
11.862 20.364 -1.419 0.30000001
11.724 20.273001 -1.409 0.38
11.63 20.257 -1.405 0.25
11.589 20.259001 -1.404 0.25
11.505 20.261 -1.401 0.30000001
11.448 20.306999 -1.402 0.2
11.391 20.357 -1.403 0.16
11.328 20.395 -1.403 0.15000001
11.237 20.381001 -1.399 0.18000001
11.144 20.364 -1.395 0
11.101 20.360001 -1.393 0
11.017 20.358 -1.391 0
10.932 20.354 -1.388 0
10.851 20.357 -1.385 0
10.774 20.365999 -1.383 0
10.691 20.363001 -1.38 0
10.614 20.372999 -1.378 0
10.581 20.386 -1.378 0.12
10.511 20.409 -1.377 0.20999999
10.437 20.422001 -1.376 0
10.356 20.423 -1.373 0
10.278 20.427 -1.3710001 0.07
9.7849998 19.603001 -1.3049999 0.079999998
9.6999998 19.587 -1.302 0.16
9.6219997 19.583 -1.299 0.16
9.5769997 19.57 -1.2970001 0.17
9.4969997 19.562 -1.294 0.18000001
9.415 19.548 -1.291 0.17
9.3719997 19.618 -1.294 0.30000001
9.3470001 19.724001 -1.3 0.38
9.1969995 19.566 -1.285 0.36000001
9.1260004 19.575001 -1.284 0.23999999
9.0979996 19.594999 -1.284 0.28999999
9.0299997 19.610001 -1.283 0.31999999
8.9469995 19.591999 -1.28 0.27000001
8.8590002 19.561001 -1.275 0.20999999
8.743 19.466999 -1.266 0.18000001
8.7340002 19.611 -1.275 0.12
8.6269999 19.535999 -1.267 0.17
8.5909996 19.539 -1.266 0.44999999
8.5190001 19.540001 -1.265 0.28999999
8.4469995 19.542999 -1.263 0.27000001
8.3769999 19.551001 -1.261 0.28
8.3009996 19.542999 -1.2589999 0.28999999
8.2299995 19.545 -1.257 0.28999999
8.1590004 19.548 -1.255 0.28999999
8.1190004 19.539 -1.2539999 0.28
8.0509996 19.548 -1.252 0.27000001
7.9790001 19.549 -1.251 0.28
7.9060001 19.544001 -1.248 0.27000001
7.8390002 19.554001 -1.247 0.28999999
7.7729998 19.568001 -1.247 0.28
7.6989999 19.561001 -1.244 0.28
7.658 19.548 -1.242 0.28
7.5879998 19.548 -1.2410001 0.28
7.5219998 19.561001 -1.24 0.28
7.4559999 19.573 -1.239 0.28999999
7.3779998 19.554001 -1.2359999 0.28
7.3140001 19.569 -1.235 0.28
7.2449999 19.572001 -1.234 0.28999999
7.2049999 19.559 -1.232 0.28
7.138 19.566 -1.2309999 0.28
7.0700002 19.57 -1.229 0.27000001
7.0019999 19.573 -1.228 0.28
6.9320002 19.572001 -1.226 0.28999999
6.8670001 19.583 -1.226 0.28999999
6.7940001 19.572001 -1.223 0.28
6.73 19.586 -1.223 0.27000001
6.6929998 19.579 -1.222 0.28
6.6230001 19.576 -1.22 0.28999999
6.5570002 19.583 -1.219 0.28999999
6.4889998 19.584999 -1.217 0.28999999
6.4219999 19.587999 -1.216 0.28999999
6.3540001 19.589001 -1.215 0.28999999
6.2880001 19.594 -1.214 0.28
6.2490001 19.579 -1.212 0.28999999
6.1849999 19.589001 -1.211 0.28999999
6.1199999 19.599001 -1.211 0.28999999
6.0469999 19.582001 -1.2079999 0.28
5.9790001 19.577999 -1.206 0.28
5.9850001 19.82 -1.222 0.28
5.9380002 19.888 -1.226 0.23
5.9159999 19.93 -1.228 0.31999999
5.777 19.688 -1.21 0.18000001
5.6869998 19.611 -1.2029999 0.19
5.6199999 19.611 -1.201 0.16
5.5619998 19.642 -1.202 0.14
5.5549998 19.851999 -1.216 0.12
5.526 19.99 -1.225 0.38999999
5.461 19.877001 -1.216 0.31999999
5.316 19.591999 -1.1950001 0.23
5.2579999 19.622 -1.196 0.40000001
5.197 19.641001 -1.196 0.20999999
5.1290002 19.634001 -1.194 0.19
5.0710001 19.660999 -1.1950001 0.47
5.0100002 19.683001 -1.1950001 0.11
4.961 19.749001 -1.199 0
4.9359999 19.780001 -1.201 0
4.8899999 19.861 -1.205 0.07
4.8460002 19.952 -1.211 0.11
4.8449998 20.223 -1.229 0.31
4.7989998 20.312 -1.234 0
4.809 20.643999 -1.256 0
4.7849998 20.834 -1.2690001 0
4.8699999 21.666 -1.326 0
4.7309999 21.684 -1.325 0
4.5869999 21.676001 -1.322 0
4.4749999 21.653 -1.319 0
4.3369999 21.669001 -1.318 0
4.1939998 21.662001 -1.316 0
4.0570002 21.681999 -1.316 0
3.951 21.684 -1.314 0
3.809 21.674999 -1.312 0
3.664 21.646999 -1.308 0.13
3.5599999 21.865 -1.322 0
3.4159999 21.627001 -1.304 0
3.2739999 21.608 -1.302 0
3.1370001 21.621 -1.301 0
3.033 21.617001 -1.3 0
2.9579999 21.577 -1.296 0
2.8929999 21.606001 -1.298 0
2.823 21.601999 -1.2970001 0
2.688 21.622999 -1.2970001 0
2.585 21.625 -1.296 0
2.448 21.629 -1.296 0
2.309 21.624001 -1.294 0
2.1719999 21.627001 -1.293 0
2.069 21.625 -1.293 0
1.932 21.621 -1.291 0
1.391 16.221001 -0.91799998 0
1.336 16.173 -0.91399997 0
1.277 16.07 -0.90700001 0
0.74400002 15.556 -0.86900002 0
0.69499999 15.562 -0.87 0
0.60600001 15.774 -0.884 0
0.52399999 15.549 -0.86799997 0
0.28299999 15.759 -0.88200003 0
0.233 15.684 -0.87699997 0
0.20900001 15.728 -0.88 0
-0.113 15.741 -0.88099998 0
-0.213 15.878 -0.88999999 0
-0.26199999 15.825 -0.88700002 0
-0.31200001 15.822 -0.88700002 0
-0.36199999 15.825 -0.88700002 0
-0.412 15.854 -0.889 0
-1.087 15.506 -0.86699998 0
-1.875 21.546 -1.286 0
-5.4219999 60.629002 -3.9860001 0.029999999
-1.978 21.551001 -1.2869999 0
-5.6869998 60.389999 -3.971 0
-2.1129999 21.535999 -1.2869999 0
-5.177 51.463001 -3.3570001 0
-2.25 21.535999 -1.288 0
-5.5029998 51.459 -3.359 0
-5.6430001 51.237 -3.3440001 0
-2.421 21.532 -1.289 0.12
-2.5799999 21.724001 -1.303 0
-6.1490002 50.705002 -3.312 0
-6.3299999 50.859001 -3.3239999 0
-2.7620001 21.517 -1.29 0
-6.671 50.980999 -3.335 0.07
-2.8670001 21.533001 -1.293 0
-6.829 50.348 -3.2939999 0.11
-3.006 21.541 -1.294 0
-7.138 50.248001 -3.29 0.1
-3.1429999 21.537001 -1.295 0.14
-7.441 50.119999 -3.2839999 0.14
-3.2820001 21.539 -1.2970001 0
-3.3840001 21.527 -1.2970001 0.14
-8.0080004 50.134998 -3.2909999 0.12
-3.523 21.528999 -1.299 0.14
-8.3610001 50.318001 -3.3069999 0.11
-3.6619999 21.528 -1.3 0.14
-9.1359997 52.931 -3.494 0.11
-3.8050001 21.548 -1.303 0
-3.9100001 21.552999 -1.3049999 0
-9.7869997 53.206001 -3.52 0.11
-4.0450001 21.524 -1.3049999 0
-4.1869998 21.534 -1.307 0
-10.297 52.271999 -3.4630001 0.1
-4.2950001 21.547001 -1.3099999 0
-10.602 52.519001 -3.484 0.11
-4.4359999 21.547001 -1.311 0
-11.208 53.778999 -3.5780001 0.12
-4.5650001 21.489 -1.309 0.12
-4.6859999 21.725 -1.327 0
-4.7519999 21.537001 -1.3150001 0
-11.64 52.145 -3.474 0.11
-4.8899999 21.516001 -1.316 0
-12.327 53.638 -3.585 0.14
-5.0289998 21.502001 -1.317 0
-5.171 21.499001 -1.319 0
-5.2789998 21.504 -1.321 0
-11.411 45.984001 -3.0580001 0.13
-5.4219999 21.503 -1.324 0.28999999
-11.689 45.867001 -3.0539999 0.25
-5.5619998 21.488001 -1.325 0
-12.109 46.299999 -3.0910001 0.12
-5.7150002 21.521999 -1.33 0
-12.363 46.377998 -3.0999999 0.059999999
-5.8179998 21.500999 -1.33 0.17
-6.8119998 24.878 -1.573 0.27000001
-5.96 21.489 -1.332 0.12
-12.785 45.646 -3.059 0.12
-6.1090002 21.500999 -1.336 0.31
-6.4840002 22.554001 -1.4119999 0.23
-6.4759998 22.393999 -1.402 0.16
-6.599 22.554001 -1.415 0.43000001
-6.3649998 21.497 -1.34 0.14
-6.7309999 22.481001 -1.4119999 0.28
-6.5100002 21.490999 -1.3430001 0.18000001
-7.5949998 24.806999 -1.5829999 0.25
-6.6490002 21.462999 -1.344 0.30000001
-6.6859999 21.462 -1.345 0.15000001
-7.1479998 22.702 -1.4349999 0.38999999
-7.1929998 22.594999 -1.429 0.20999999
-7.2690001 22.59 -1.431 0.41
-7.3319998 22.540001 -1.429 0.30000001
-7.428 22.594999 -1.434 0.36000001
-7.6760001 23.106001 -1.473 0.15000001
-7.8509998 23.389999 -1.495 0.38999999
-8.2959995 24.591999 -1.584 0.11
-7.8699999 23.082001 -1.476 0.30000001
-7.9419999 23.058001 -1.476 0.18000001
-8.5369997 24.539 -1.585 0.13
-8.8959999 25.316 -1.6440001 0.33000001
-7.619 21.454 -1.364 0.15000001
-9.0380001 25.212 -1.641 0.36000001
-7.7459998 21.490999 -1.37 0.2
-8.5120001 23.393 -1.511 0.18000001
-8.0019999 21.771999 -1.3940001 0.19
-8.1190004 21.878 -1.403 0.22
-8.1009998 21.620001 -1.386 0.23
-8.8240004 23.333 -1.5140001 0.34
-8.5299997 22.341 -1.443 0.13
-8.6990004 22.676001 -1.469 0.31
-8.7189999 22.517 -1.459 0.23
-8.809 22.539 -1.4630001 0.38999999
-8.8590002 22.458 -1.459 0.30000001
-8.9589996 22.504 -1.464 0.34999999
-8.9569998 22.296 -1.451 0.23
-9.1219997 22.503 -1.4680001 0.38
-9.1429996 22.451 -1.466 0.18000001
-9.3360004 22.723 -1.488 0.50999999
-10.093 24.351999 -1.612 0.17
-9.2519999 22.121 -1.448 0.25
-9.4720001 22.448999 -1.474 0.31999999
-9.5430002 22.421 -1.474 0.18000001
-9.46 22.031 -1.447 0.31
-9.5670004 22.089001 -1.454 0.31999999
-9.5900002 22.047001 -1.452 0.23
-9.6400003 21.974001 -1.449 0.18000001
-9.6359997 21.778 -1.436 0.5
-11.097 24.878 -1.6720001 0.12
-10.059 22.356001 -1.485 0
-12.952 28.561001 -1.956 0.079999998
-10.22 22.336 -1.488 0.13
-10.601 23.076 -1.545 0.18000001
-10.408 22.468 -1.502 0.38
-10.388 22.24 -1.487 0.37
-10.503 22.302999 -1.494 0.25999999
-10.564 22.252001 -1.493 0.28999999
-10.536 22.014 -1.477 0.34999999
-10.635 22.042 -1.482 0.28
-10.78 22.254999 -1.499 0.30000001
-10.893 22.309 -1.506 0.44999999
-10.92 22.187 -1.499 0.20999999
-11.17 22.517 -1.527 0.44
-11.172 22.344 -1.517 0.2
-12.124 24.063 -1.652 0.18000001
-11.353 22.354 -1.523 0.31999999
-12.076 23.688999 -1.627 0.19
-12.166 23.681 -1.63 0.31
-12.323 23.802999 -1.642 0.17
-12.457 23.877001 -1.651 0.34999999
-12.564 23.9 -1.656 0.28999999
-12.592 23.771999 -1.649 0.2
-12.66 23.719999 -1.648 0.5
-12.661 23.542999 -1.637 0.18000001
-12.71 23.544001 -1.6390001 0.34999999
-14.751 27.131001 -1.923 0.090000004
-12.205 22.27 -1.545 0.090000004
-14.695 26.627001 -1.89 0.090000004
-13.556 24.377001 -1.717 0
-12.469 22.253 -1.553 0
-11.383 20.16 -1.391 0.050000001
-11.44 20.188 -1.3940001 0.12
-11.519 20.179001 -1.397 0.31999999
-11.598 20.169001 -1.399 0.11
-11.667 20.143 -1.399 0
-11.869 20.198 -1.41 0.23
-11.867 20.051001 -1.401 0.36000001
-11.875 19.993 -1.398 0.36000001
-11.965 20 -1.401 0.41
-12.164 20.190001 -1.42 0.23
-14.277 23.538 -1.692 0
-14.26 23.343 -1.6799999 0
-12.418 20.177999 -1.428 0
-12.698 20.275999 -1.444 0.19
-12.729 20.184 -1.4400001 0.2
-14.347 22.598 -1.64 0.20999999
-14.458 22.615 -1.645 0.25
-14.511 22.542 -1.642 0.38999999
-14.622 22.559 -1.648 0.23999999
-14.724 22.559 -1.651 0.25
-14.626 22.333 -1.635 0.30000001
-14.683 22.266001 -1.633 0.28999999
-14.78 22.261999 -1.636 0.25999999
-14.907 22.299999 -1.643 0.20999999
-15.131 22.483 -1.6619999 0.50999999
-15.096 22.278999 -1.649 0.20999999
-15.101 22.136999 -1.642 0.28999999
-15.303 22.357 -1.6619999 0.20999999
-15.333 22.250999 -1.6569999 0.31999999
-15.371 22.157 -1.653 0.33000001
-15.435 22.101 -1.653 0.37
-15.532 22.091 -1.656 0.34
-15.623 22.073 -1.658 0.28999999
-15.745 22.097 -1.665 0.41
-15.93 22.284 -1.683 0.27000001
-16.023001 22.266001 -1.6849999 0.28999999
-16.351 22.573 -1.716 0.36000001
-16.459 22.570999 -1.72 0.25
-16.377001 22.312 -1.702 0.25
-16.499001 22.330999 -1.7079999 0.34999999
-16.58 22.292999 -1.709 0.31999999
-16.625 22.280001 -1.711 0.27000001
-16.648001 22.166 -1.705 0.30000001
-16.705 22.097 -1.704 0.36000001
-16.816 22.099001 -1.7079999 0.28999999
-16.976 22.165001 -1.719 0.28999999
-17.042 22.106001 -1.7180001 0.33000001
-17.188 22.152 -1.727 0.28999999
-17.298 22.15 -1.732 0.2
-17.285999 22.063 -1.726 0.18000001
-18.434999 23.381001 -1.846 0.16
-18.632999 23.479 -1.86 0.25999999
-18.82 23.562 -1.873 0.27000001
-19.023001 23.665001 -1.887 0.31999999
-18.815001 23.256001 -1.8559999 0.20999999
-18.851 23.15 -1.852 0.31999999
-18.809 23.025 -1.8430001 0.23
-18.934 23.030001 -1.849 0.16
-18.933001 22.881001 -1.841 0.16
-18.917 22.716 -1.832 0.15000001
-18.996 22.665001 -1.8329999 0.2
-19.118 22.667 -1.8380001 0.36000001
-19.127001 22.533001 -1.831 0.25
-19.150999 22.49 -1.83 0.31999999
-19.226999 22.434999 -1.831 0.38
-19.309999 22.389999 -1.832 0.31
-19.469 22.431999 -1.841 0.25
-19.541 22.372 -1.842 0.31999999
-19.608999 22.308001 -1.841 0.37
-19.663 22.228001 -1.84 0.20999999
-19.731001 22.233999 -1.8430001 0.34
-19.968 22.360001 -1.86 0.17
-21.113001 23.496 -1.971 0.16
-21.516001 23.794001 -2.0050001 0.25
-21.934 24.104 -2.04 0.2
-22.288 24.34 -2.069 0.25999999
-22.455 24.368 -2.0780001 0.30000001
-22.572001 24.417999 -2.086 0.25999999
-22.798 24.507 -2.1010001 0.16
-22.917 24.481001 -2.105 0.51999998
-23.177999 24.605 -2.1240001 0.23999999
-23.497999 24.789 -2.148 0
-23.639 24.781 -2.154 0
-23.830999 24.826 -2.1659999 0
-24.073 24.921 -2.1819999 0
-24.226 25 -2.1930001 0
-24.393 25.016001 -2.2019999 0
-24.608999 25.079 -2.2149999 0
-24.791 25.106001 -2.2249999 0
-29.761999 29.959 -2.7030001 0
-25.176001 25.179001 -2.2479999 0
-25.363001 25.207001 -2.2579999 0
-25.523001 25.285999 -2.27 0
-25.739 25.34 -2.283 0
-25.931 25.370001 -2.2939999 0
-26.099001 25.374001 -2.302 0
-29.785999 28.783001 -2.648 0
-30.219 29.018 -2.6800001 0
-30.032 28.657 -2.654 0
-30.330999 28.761999 -2.674 0
-27.118999 25.631001 -2.365 0
-30.445 28.598 -2.6719999 0
-27.542999 25.707001 -2.3900001 0
-27.775999 25.761 -2.404 0
-30.16 27.799999 -2.6199999 0
-30.323999 27.775 -2.6270001 0
-30.155001 27.534 -2.6070001 0
-30.110001 27.319 -2.595 0
-28.85 26.009001 -2.47 0
-30.046 26.919001 -2.573 0
-30.039 26.742001 -2.5650001 0
-29.582001 26.169001 -2.5150001 0.059999999
-30.219 26.565001 -2.566 0.079999998
-30.309999 26.476 -2.5669999 0.090000004
-22.721001 19.775 -1.87 0
-22.76 19.684 -1.868 0
-23.087999 19.716 -1.887 0.25999999
-23.097 19.598 -1.882 0.43000001
-23.198999 19.559999 -1.886 0
-32.673 27.386 -2.7309999 0
-25.613001 21.393 -2.0940001 0
-25.691 21.320999 -2.095 0
-25.868 21.332001 -2.105 0
-26.086 21.375 -2.118 0.1
-26.007999 21.174 -2.105 0.11
-25.896 20.948 -2.0899999 0.14
-24.176001 19.429001 -1.932 0.079999998
-26.18 20.974001 -2.1059999 0.16
-26.249001 20.893999 -2.1059999 0.12
-26.316999 20.813999 -2.1059999 0
-26.392 20.739 -2.1070001 0.07
-26.594999 20.764 -2.119 0.19
-26.782 20.775 -2.1300001 0.27000001
-26.995001 20.805 -2.1429999 0.25999999
-27.214001 20.837999 -2.1559999 0.23
-27.313 20.846001 -2.1619999 0.19
-27.462999 20.823999 -2.1689999 0.41
-27.576 20.774 -2.1730001 0.23999999
-27.697001 20.729 -2.178 0.20999999
-27.820999 20.686001 -2.1830001 0.37
-27.958 20.652 -2.1889999 0.16
-28.122999 20.636999 -2.198 0.38999999
-28.245001 20.659 -2.2060001 0.19
-28.41 20.643 -2.214 0.31
-28.569 20.621 -2.2219999 0.19
-28.719 20.593 -2.2290001 0.17
-28.849001 20.549 -2.2349999 0.34
-28.966999 20.496 -2.2390001 0.23
-29.143999 20.485001 -2.2490001 0.12
-29.292 20.52 -2.2590001 0
-29.379 20.444 -2.26 0
-29.51 20.398001 -2.266 0
-29.573999 20.305 -2.266 0
-29.625 20.202999 -2.2650001 0
-29.693001 20.113001 -2.2650001 0
-29.766001 20.027 -2.266 0
-29.806999 19.987 -2.267 0
-29.9 19.913 -2.27 0
-30.004 19.846001 -2.273 0
-30.086 19.764999 -2.2750001 0
-30.18 19.691 -2.277 0
-30.283001 19.624001 -2.2809999 0
-30.378 19.549999 -2.283 0
-30.454 19.531 -2.2869999 0
-30.569 19.469999 -2.2909999 0
-30.684 19.408001 -2.296 0
-30.811001 19.353001 -2.3010001 0
-30.916 19.283001 -2.3050001 0
-31.021999 19.215 -2.309 0
-31.128 19.145 -2.312 0
-31.224001 19.136999 -2.3180001 0
-31.337 19.070999 -2.322 0
-31.452999 19.007 -2.326 0
-31.533001 18.92 -2.3280001 0
-31.611 18.832001 -2.3299999 0
-31.702999 18.752001 -2.332 0
-31.798 18.674 -2.335 0
-31.891001 18.594 -2.3380001 0
-31.948 18.559999 -2.3399999 0
-32.057999 18.489 -2.3440001 0
-32.153999 18.41 -2.3469999 0
-32.257999 18.336 -2.3510001 0
-32.361 18.26 -2.3540001 0
-32.453999 18.179001 -2.3570001 0
-32.550999 18.099001 -2.3599999 0
-32.626999 18.073999 -2.3640001 0
-32.726002 17.993999 -2.3670001 0
-32.833 17.919001 -2.3710001 0
-32.945 17.847 -2.3759999 0
-33.058998 17.774 -2.3800001 0
-33.187 17.709 -2.3859999 0
-33.313999 17.643 -2.392 0
-33.428001 17.636 -2.398 0
-33.577 17.58 -2.4059999 0
-33.709999 17.514999 -2.4119999 0
-33.916 17.487 -2.4230001 0
-34.111 17.452 -2.434 0
-34.331001 17.429001 -2.447 0
-34.573002 17.415001 -2.461 0
-34.791 17.457001 -2.4760001 0
-35.040001 17.445 -2.4909999 0
-35.285999 17.429001 -2.506 0
-35.535999 17.414 -2.5209999 0
-35.777 17.393 -2.5350001 0
-36.02 17.372 -2.549 0
-36.222 17.329 -2.5610001 0
-36.289001 17.291 -2.5639999 0
-36.217999 17.118 -2.5539999 0
-36.216 16.978001 -2.55 0
-36.240002 16.851 -2.5480001 0
-36.247002 16.372 -2.5339999 0
-36.247002 16.235001 -2.53 0
-36.286999 16.115999 -2.53 0
-36.303001 15.986 -2.527 0
-36.299999 15.849 -2.523 0
-36.334999 15.729 -2.5220001 0
-36.362 15.605 -2.52 0
-36.389 15.481 -2.5190001 0
-36.405998 15.421 -2.5179999 0
-36.417 15.291 -2.5150001 0
-36.433998 15.164 -2.513 0
-36.445999 15.035 -2.51 0
-36.442001 14.899 -2.507 0
-36.486 14.783 -2.506 0
-36.470001 14.643 -2.5020001 0
-36.443001 14.566 -2.4979999 0
-36.436001 14.431 -2.494 0
-36.396 14.283 -2.4879999 0
-36.369999 14.141 -2.483 0
-36.369999 14.009 -2.4790001 0
-36.368999 13.878 -2.4760001 0
-36.353001 13.741 -2.4719999 0
-36.311001 13.66 -2.467 0
-36.285999 13.521 -2.4619999 0
-36.242001 13.375 -2.4560001 0
-36.210999 13.234 -2.45 0
-36.175999 13.092 -2.4449999 0
-36.138 12.95 -2.4389999 0
-36.101002 12.809 -2.4330001 0
-36.070999 12.671 -2.428 0
-36.030998 12.594 -2.424 0
-35.976002 12.448 -2.4170001 0
-36.008999 12.333 -2.4170001 0
-32.667999 11.071 -2.171 0
-32.870998 11.025 -2.1830001 0
-33.084999 10.982 -2.1960001 0
-33.345001 11.01 -2.214 0
-33.639 10.99 -2.233 0
-33.915001 10.962 -2.25 0
-34.125999 10.913 -2.263 0
-34.327 10.858 -2.2750001 0
-34.506001 10.796 -2.2850001 0
-34.736 10.748 -2.3 0
-34.970001 10.761 -2.3150001 0
-35.275002 10.733 -2.335 0
-35.597 10.71 -2.355 0
-35.936001 10.689 -2.3770001 0
-36.264 10.663 -2.3989999 0
-36.577 10.63 -2.4189999 0
-35.563 10.033 -2.3399999 0
-35.932999 10.015 -2.3640001 0
-36.273998 9.9879999 -2.3859999 0
-36.671001 9.974 -2.4130001 0
-36.854 9.8999996 -2.4230001 0
-37.320999 9.8999996 -2.454 0
-37.459999 9.8109999 -2.4619999 0
-37.717999 9.8149996 -2.4790001 0
-37.835999 9.7189999 -2.4860001 0
-38.001999 9.6350002 -2.4949999 0
-38.02 9.5120001 -2.494 0
-38.167999 9.4219999 -2.503 0
-16.245001 3.8870001 -0.94700003 0
-15.942 3.7869999 -0.92500001 0
-15.948 3.7360001 -0.92500001 0
-17.877001 3.1949999 -1.0470001 0
-16.872 2.904 -0.97600001 0
-16.843 2.872 -0.97299999 0
-16.856001 2.8199999 -0.97399998 0
-16.893999 2.7720001 -0.97600001 0
-16.832001 2.707 -0.97100002 0
-16.830999 2.6530001 -0.97000003 0
-16.815001 2.596 -0.96899998 0
-15.938 2.382 -0.90700001 0
-16.054001 2.348 -0.91399997 0
-16.905001 2.312 -0.972 0
-17.422001 2.2720001 -1.007 0
-17.665001 2.276 -1.023 0
-35.542999 4.2649999 -2.2609999 0.38999999
-35.921001 4.1960001 -2.286 0
-35.841 4.073 -2.28 0
-35.779999 3.9519999 -2.2750001 0
-35.798 3.8970001 -2.2750001 0
-35.835999 3.7869999 -2.277 0
-35.873001 3.678 -2.279 0
-35.909 3.5669999 -2.2809999 0
-35.939999 3.4560001 -2.2820001 0
-35.98 3.346 -2.2839999 0
-36 3.234 -2.2850001 0
-36.019001 3.1789999 -2.286 0
-36.030998 3.066 -2.286 0
-36.021 2.951 -2.2839999 0
-36.029999 2.8380001 -2.2839999 0
-36.040001 2.7249999 -2.2850001 0
-36.035 2.6099999 -2.2839999 0
-36.058998 2.4979999 -2.2850001 0
-36.080002 2.3859999 -2.286 0
-36.085999 2.329 -2.286 0
-36.091 2.2160001 -2.286 0
-36.108002 2.1029999 -2.286 0
-36.116001 1.99 -2.2869999 0
-36.147999 1.878 -2.2880001 0
-36.144001 1.7640001 -2.2880001 0
-36.158001 1.65 -2.2880001 0
-36.164001 1.594 -2.2880001 0
-36.153 1.479 -2.2869999 0
-36.122002 1.364 -2.2850001 0
-36.127998 1.251 -2.2850001 0
-36.120998 1.137 -2.2839999 0
-36.137001 1.024 -2.2850001 0
-36.16 0.91100001 -2.2869999 0
-36.187 0.85500002 -2.2880001 0
-36.192001 0.741 -2.2880001 0
-36.217999 0.62800002 -2.29 0
-36.269001 0.51499999 -2.2939999 0
-36.286999 0.40099999 -2.2950001 0
-36.306 0.287 -2.296 0
-36.294998 0.17299999 -2.2950001 0
-36.266998 0.116 -2.293 0
-36.272999 0.0020000001 -2.2939999 0
-36.255001 -0.112 -2.2920001 0
-36.222 -0.22499999 -2.29 0
-36.202 -0.33899999 -2.289 0
-36.189999 -0.45300001 -2.2880001 0
-36.188999 -0.56599998 -2.2880001 0
-36.178001 -0.62300003 -2.2869999 0
-36.141998 -0.736 -2.2850001 0
-36.109001 -0.84899998 -2.283 0
-36.109001 -0.96200001 -2.283 0
-36.092999 -1.075 -2.2820001 0
-36.094002 -1.189 -2.283 0
-36.084 -1.302 -2.2820001 0
-36.082001 -1.416 -2.2820001 0
-36.083 -1.472 -2.283 0
-36.064999 -1.585 -2.2820001 0
-34.810001 -1.641 -2.1960001 0
-34.777 -1.748 -2.194 0
-34.710999 -1.855 -2.1889999 0
-34.668999 -1.962 -2.187 0
-34.645 -2.069 -2.1860001 0.11
-34.605999 -2.122 -2.1830001 0.19
-34.605 -2.2309999 -2.184 0
-34.647999 -2.3429999 -2.187 0
-34.743999 -2.4590001 -2.194 0
-34.769001 -2.5710001 -2.197 0
-34.757 -2.6789999 -2.1960001 0
-34.747002 -2.7880001 -2.1960001 0
-34.742001 -2.898 -2.1960001 0
-34.719002 -2.951 -2.1949999 0
-34.68 -3.0569999 -2.1930001 0
-34.658001 -3.165 -2.1919999 0
-34.632 -3.273 -2.191 0
-34.624001 -3.382 -2.191 0
-34.639 -3.493 -2.1930001 0
-34.659 -3.605 -2.1949999 0
-34.655998 -3.6600001 -2.1960001 0
-34.652 -3.7690001 -2.1960001 0
-34.666 -3.881 -2.198 0
-34.668999 -3.9920001 -2.1989999 0
-34.686001 -4.1040001 -2.201 0
-34.729 -4.2199998 -2.2049999 0
-34.771 -4.336 -2.2090001 0
-34.797001 -4.395 -2.211 0
-34.800999 -4.506 -2.2119999 0
-34.805 -4.618 -2.214 0
-34.793999 -4.7280002 -2.214 0
-34.778999 -4.8369999 -2.214 0
-34.734001 -4.9419999 -2.2119999 0
-34.701 -5.0489998 -2.21 0
-34.783001 -5.1160002 -2.217 0
-34.692001 -5.2140002 -2.2119999 0.11
-34.129002 -5.2399998 -2.174 0
-33.550999 -5.2600002 -2.1340001 0
-32.846001 -5.2550001 -2.0869999 0
-32.576 -5.3169999 -2.069 0
-32.473999 -5.4060001 -2.063 0
-32.424 -5.4499998 -2.0599999 0
-32.372002 -5.5450001 -2.0580001 0
-32.299 -5.638 -2.0539999 0
-32.231998 -5.73 -2.05 0
-32.165001 -5.823 -2.0469999 0
-32.097 -5.915 -2.043 0
-32.042999 -6.0089998 -2.0409999 0
-31.969 -6.099 -2.0369999 0
-31.917999 -6.1420002 -2.0339999 0
-31.868 -6.2360001 -2.0320001 0
-31.907 -6.3470001 -2.036 0
-10.218 -2.0840001 -0.51499999 0
-10.037 -2.0810001 -0.50300002 0
-9.9309998 -2.0910001 -0.49599999 0
-9.7700005 -2.0899999 -0.48500001 0
-9.6499996 -2.0799999 -0.477 0
-9.5360003 -2.0880001 -0.47 0
-9.4259996 -2.095 -0.46200001 0
-9.3610001 -2.1110001 -0.458 0
-9.276 -2.1229999 -0.45300001 0
-9.1960001 -2.135 -0.447 0
-9.1619997 -2.158 -0.44499999 0
-9.1289997 -2.1659999 -0.44299999 0
-9.0819998 -2.184 -0.44100001 0
-9.0690002 -2.2119999 -0.44 0
-9.0769997 -2.244 -0.44100001 0
-9.0570002 -2.2690001 -0.44 0
-9.0170002 -2.289 -0.43799999 0
-8.9960003 -2.3139999 -0.43700001 0.07
-8.9919996 -2.3280001 -0.43700001 0.079999998
-8.9790001 -2.355 -0.43700001 0.079999998
-8.9759998 -2.3840001 -0.43700001 0.090000004
-8.9619999 -2.411 -0.43599999 0.090000004
-8.9569998 -2.4389999 -0.43700001 0.14
-8.9530001 -2.4690001 -0.43700001 0.090000004
-8.9449997 -2.497 -0.43700001 0.15000001
-8.9429998 -2.5109999 -0.43700001 0.1
-8.9390001 -2.5409999 -0.43700001 0.15000001
-8.9250002 -2.5669999 -0.43700001 0.23
-8.9300003 -2.599 -0.43799999 0.23999999
-8.934 -2.6300001 -0.43900001 0.23999999
-8.9200001 -2.6570001 -0.43799999 0.25
-8.9300003 -2.6900001 -0.44 0.25
-8.9390001 -2.724 -0.44100001 0.25
-8.9329996 -2.737 -0.44100001 0.11
-8.9390001 -2.77 -0.442 0.16
-8.948 -2.803 -0.44299999 0.1
-8.9280005 -2.8280001 -0.442 0.14
-8.9530001 -2.8670001 -0.44499999 0.090000004
-8.9779997 -2.9059999 -0.447 0
-8.9440002 -2.9260001 -0.44499999 0
-8.9619999 -2.947 -0.447 0
-8.9829998 -2.9849999 -0.449 0
-8.9969997 -3.0209999 -0.45100001 0
-9.0229998 -3.0610001 -0.45300001 0.039999999
-26.115999 -8.901 -1.696 0.12
-26.445 -9.1049995 -1.722 0.18000001
-26.601 -9.2519999 -1.7359999 0.44999999
-24.832001 -8.6829996 -1.608 0.18000001
-24.848 -8.776 -1.6109999 0.36000001
-24.816999 -8.8529997 -1.6109999 0.17
-26.601 -9.5810003 -1.743 0.28999999
-26.91 -9.7880001 -1.768 0.2
-23.256001 -8.5450001 -1.503 0.25
-23.111 -8.5749998 -1.494 0.25
-22.868999 -8.526 -1.477 0.2
-22.671 -8.5340004 -1.465 0.31
-22.511 -8.5550003 -1.455 0.18000001
-22.271999 -8.5439997 -1.439 0.36000001
-22.202 -8.5970001 -1.436 0.23
-22.084 -8.632 -1.429 0.16
-21.945 -8.6569996 -1.421 0.47999999
-21.639999 -8.5760002 -1.399 0.18000001
-21.263 -8.5050001 -1.374 0.37
-21.035999 -8.4910002 -1.359 0.17
-20.823 -8.4809999 -1.345 0.25999999
-20.716 -8.5139999 -1.339 0.41
-20.577 -8.533 -1.331 0.20999999
-20.414 -8.5410004 -1.3200001 0.34999999
-21.143 -8.9230003 -1.377 0.19
-22.334999 -9.4650002 -1.467 0.23999999
-19.756001 -8.5220003 -1.278 0.57999998
-19.541 -8.5030003 -1.2640001 0.2
-19.284 -8.5360003 -1.249 0.57999998
-19.042 -8.5010004 -1.233 0.23
-18.903 -8.4750004 -1.223 0.22
-18.736 -8.4709997 -1.2130001 0.2
-18.556999 -8.46 -1.201 0.18000001
-18.393999 -8.4560003 -1.191 0.30000001
-18.322001 -8.493 -1.187 0.38999999
-18.084 -8.4519997 -1.171 0.19
-17.945 -8.4560003 -1.163 0.38
-17.818001 -8.4309998 -1.154 0.19
-20.372 -9.7130003 -1.351 0.34
-20.243999 -9.7309999 -1.3430001 0.2
-18.218 -8.8299999 -1.191 0.30000001
-18.267 -8.9250002 -1.197 0.31999999
-18.096001 -8.9119997 -1.186 0.25999999
-19.638 -9.7449999 -1.306 0.28999999
-16.903 -8.4250002 -1.097 0.25999999
-16.775999 -8.4280005 -1.09 0.28999999
-16.695999 -8.4540005 -1.085 0.2
-17.589001 -8.974 -1.156 0.31999999
-17.554001 -9.026 -1.156 0.23999999
-17.922001 -9.2860003 -1.187 0.36000001
-16.139 -8.4289999 -1.051 0.20999999
-15.97 -8.3730001 -1.039 0.40000001
-15.96 -8.4320002 -1.04 0.28999999
-15.822 -8.4230003 -1.031 0.25
-15.674 -8.408 -1.022 0.28999999
-16.801001 -9.1459999 -1.114 0.51999998
-16.636 -9.1239996 -1.103 0.31999999
-15.197 -8.3999996 -0.99299997 0.23
-16.674999 -9.2480001 -1.11 0.25
-16.733 -9.349 -1.117 0.50999999
-14.911 -8.3959999 -0.97500002 0.22
-16.663 -9.448 -1.1160001 0.14
-16.731001 -9.5559998 -1.124 0.57999998
-14.618 -8.4139996 -0.958 0.22
-14.461 -8.3839998 -0.94800001 0.20999999
-16.659 -9.6890001 -1.124 0.38
-16.726 -9.7980003 -1.132 0.30000001
-14.166 -8.3629999 -0.93000001 0.23
-16.546 -9.8330002 -1.122 0.31999999
-16.386 -9.8079996 -1.112 0.37
-13.881 -8.3730001 -0.91299999 0.14
-15.889 -9.6479998 -1.077 0.56
-13.732 -8.3719997 -0.90399998 0.27000001
-13.544 -8.316 -0.89099997 0.20999999
-13.506 -8.3509998 -0.88999999 0.27000001
-16.035 -9.9790001 -1.097 0.44
-15.836 -9.9239998 -1.084 0.23
-15.735 -9.9300003 -1.0779999 0.23
-16.035999 -10.19 -1.105 0.44
-13.065 -8.3369999 -0.86400002 0.23
-16.111 -10.344 -1.115 0.44
-12.922 -8.3599997 -0.85699999 0.19
-15.829 -10.305 -1.097 0.47999999
-12.727 -8.4060001 -0.847 0.57999998
-16.091999 -10.693 -1.127 0.16
-12.475 -8.3240004 -0.82999998 0.23
-15.921 -10.688 -1.117 0.38
-12.31 -8.3269997 -0.81999999 0.27000001
-16.061001 -10.929 -1.1339999 0.38
-12.162 -8.3389997 -0.81199998 0.23
-15.892 -10.96 -1.126 0.41
-12.007 -8.3450003 -0.80400002 0.18000001
-16.589001 -11.555 -1.189 0.54000002
-11.868 -8.3310003 -0.796 0.2
-16.524 -11.665 -1.1900001 0.47
-11.72 -8.3380003 -0.787 0.23
-16.707001 -11.952 -1.211 0.37
-11.576 -8.3459997 -0.77999997 0.28
-16.711 -12.114 -1.2180001 0.28999999
-11.412 -8.3369999 -0.76999998 0.23
-15.715 -11.506 -1.138 0.43000001
-11.281 -8.3240004 -0.76200002 0.34
-15.754 -11.688 -1.148 0.34
-11.088 -8.29 -0.75 0.30000001
-11.068 -8.3290005 -0.75099999 0.27000001
-15.409 -11.659 -1.127 0.38999999
-10.912 -8.3199997 -0.74199998 0.38999999
-10.844 -8.2950001 -0.73699999 0.23999999
-10.751 -8.2779999 -0.73100001 0.33000001
-10.681 -8.2779999 -0.72799999 0.25
-10.603 -8.2709999 -0.72299999 0.27000001
-10.542 -8.2770004 -0.72000003 0.30000001
-10.474 -8.2770004 -0.71600002 0.31
-10.401 -8.2720003 -0.71200001 0.31
-10.349 -8.2580004 -0.70899999 0.31
-10.281 -8.2559996 -0.70499998 0.30000001
-10.214 -8.2559996 -0.70200002 0.28999999
-10.146 -8.2539997 -0.69800001 0.28999999
-10.08 -8.2530003 -0.69400001 0.28
-10.017 -8.2550001 -0.69099998 0.28999999
-9.9569998 -8.2580004 -0.68800002 0.28
-9.9069996 -8.243 -0.685 0.28
-9.8450003 -8.2440004 -0.68099999 0.28999999
-9.7740002 -8.2370005 -0.67699999 0.30000001
-9.7200003 -8.243 -0.67500001 0.28999999
-9.6680002 -8.2519999 -0.67199999 0.27000001
-9.5959997 -8.243 -0.66799998 0.2
-9.552 -8.2580004 -0.667 0.41
-9.5080004 -8.2460003 -0.66399997 0.22
-9.4580002 -8.2539997 -0.662 0.30000001
-9.4040003 -8.2600002 -0.65899998 0.11
-9.3590002 -8.2729998 -0.65700001 0.2
-16.688999 -14.818 -1.3329999 0.25
-16.66 -14.886 -1.335 0.14
-19.016001 -17.094999 -1.557 0.17
-24.726 -22.287001 -2.0880001 0.16
-21.327999 -19.351 -1.779 0.12
-21.219 -19.374001 -1.775 0.44
-24.528 -22.531 -2.089 0.13
-21.212999 -19.613001 -1.786 0.37
-21.153999 -19.683001 -1.786 0.28999999
-16.599001 -15.55 -1.363 0.2
-16.537001 -15.541 -1.359 0.28999999
-16.502001 -15.606 -1.3609999 0.28999999
-16.356001 -15.566 -1.351 0.38
-21.056999 -20.155001 -1.803 0.11
-16.166 -15.58 -1.3430001 0.16
-16.15 -15.662 -1.346 0.46000001
-16.031 -15.645 -1.339 0.30000001
-16.129 -15.79 -1.351 0.22
-16.027 -15.789 -1.346 0.44999999
-16.160999 -16.021 -1.364 0.41
-16.378 -16.337999 -1.39 0.27000001
-16.34 -16.402 -1.391 0.38
-16.365 -16.531 -1.398 0.34999999
-16.413 -16.684 -1.408 0.27000001
-16.487 -16.865 -1.421 0.23999999
-16.408001 -16.836 -1.415 0.44999999
-16.348 -16.881001 -1.415 0.25
-16.242001 -16.877001 -1.409 0.38
-16.233 -16.975 -1.414 0.30000001
-16.323 -17.176001 -1.428 0.47
-16.351 -17.313999 -1.436 0.23999999
-16.141001 -17.198999 -1.421 0.22
-16.152 -17.266001 -1.425 0.37
-16.125999 -17.347 -1.427 0.28999999
-16.125999 -17.455999 -1.433 0.31999999
-23.74 -25.843 -2.2119999 0.23
-16.193001 -17.863001 -1.457 0.34999999
-15.964 -17.722 -1.439 0.41
-16.049999 -17.874001 -1.451 0.28999999
-16.013 -17.945999 -1.4529999 0.25
-15.975 -18.017 -1.455 0.47999999
-15.953 -18.106001 -1.4579999 0.20999999
-15.899 -18.159 -1.4579999 0.14
-15.852 -18.221001 -1.46 0.43000001
-15.831 -18.313 -1.4630001 0.36000001
-15.868 -18.413 -1.47 0.14
-15.605 -18.224001 -1.449 0.51999998
-15.582 -18.313999 -1.452 0.23
-15.429 -18.25 -1.442 0.31999999
-15.439 -18.378 -1.449 0.37
-15.431 -18.486 -1.455 0.33000001
-15.41 -18.579 -1.459 0.31
-15.329 -18.660999 -1.459 0.19
-19.142 -23.441 -1.88 0.11
-18.665001 -23.004999 -1.836 0.14
-18.652 -23.136999 -1.8430001 0.33000001
-19.436001 -24.263 -1.937 0.20999999
-19.385 -24.356001 -1.9400001 0.30000001
-15.191 -19.157 -1.48 0.18000001
-15.129 -19.202999 -1.48 0.23
-16.040001 -20.487 -1.5880001 0.38
-16.009001 -20.582001 -1.592 0.28999999
-16.304001 -21.096001 -1.632 0.19
-16.365 -21.313 -1.647 0.41
-16.259001 -21.313999 -1.642 0.34999999
-16.299 -21.434 -1.651 0.30000001
-17.372999 -22.993999 -1.781 0.25
-17.309999 -23.061001 -1.7819999 0.30000001
-17.349001 -23.264 -1.795 0.28999999
-16.922001 -22.841999 -1.7539999 0.15000001
-16.823999 -22.860001 -1.751 0.40000001
-16.778999 -22.950001 -1.7539999 0.20999999
-17.162001 -23.627001 -1.807 0.33000001
-16.611 -22.945999 -1.747 0.2
-16.875999 -23.466 -1.7869999 0.17
-16.232 -22.722 -1.719 0.2
-16.148001 -22.754999 -1.7180001 0.36000001
-16.077 -22.806 -1.7180001 0.34
-15.949 -22.775999 -1.711 0.30000001
-15.82 -22.743999 -1.704 0.41
-15.823 -22.825001 -1.709 0.30000001
-15.77 -22.902 -1.711 0.20999999
-15.706 -22.962999 -1.712 0.47
-15.659 -23.049 -1.715 0.16
-16.240999 -24.066999 -1.795 0.25
-16.193001 -24.159 -1.799 0.16
-16.341999 -24.547001 -1.827 0.16
-16.343 -24.632 -1.832 0.2
-16.316 -24.76 -1.8380001 0.25999999
-16.181 -24.723 -1.831 0.16
-15.89 -24.447001 -1.804 0.22
-15.748 -24.395 -1.796 0.23
-15.709 -24.503 -1.8 0.5
-15.601 -24.504999 -1.7970001 0.23999999
-15.578 -24.552999 -1.799 0
-17.243999 -27.364 -2.023 0
-20.292 -32.417 -2.4289999 0.050000001
-20.202999 -32.500999 -2.431 0
-18.808001 -30.473 -2.2620001 0
-18.902 -30.841999 -2.2869999 0
-18.834999 -30.950001 -2.2909999 0.16
-20.409 -33.650002 -2.506 0.18000001
-18.393999 -30.548 -2.2509999 0
-20.326 -33.993999 -2.523 0
-18.377001 -30.958 -2.2750001 0.050000001
-20.275999 -34.396999 -2.5450001 0.14
-20.187 -34.493999 -2.5480001 0.13
-20.027 -34.469002 -2.5409999 0.13
-19.919001 -34.407001 -2.533 0.13
-20.875 -36.318001 -2.6800001 0.17
-20.662001 -36.212002 -2.6659999 0
-20.444 -36.092999 -2.652 0.050000001
-19.188999 -34.130001 -2.4920001 0.16
-19.077999 -34.182999 -2.4909999 0
-18.419001 -33.248001 -2.4130001 0.07
-18.312 -33.179001 -2.405 0.090000004
-18.739 -34.203999 -2.4809999 0.14
-17.555 -32.285999 -2.326 0.18000001
-17.385 -32.215 -2.316 0.1
-17.372 -32.433998 -2.329 0.090000004
-17.434999 -32.799 -2.3540001 0.14
-17.257 -32.709999 -2.342 0
-18.676001 -35.530998 -2.5599999 0.12
-18.589001 -35.637001 -2.563 0.18000001
-18.820999 -36.359001 -2.615 0.090000004
-18.239 -35.507999 -2.5439999 0.14
-18.222 -35.751999 -2.559 0.1
-18.455 -36.491001 -2.6110001 0.090000004
-18.482 -36.830002 -2.6329999 0.14
-18.629 -37.268002 -2.664 0.22
-18.084999 -36.466999 -2.598 0.1
-17.950001 -36.481998 -2.595 0.14
-17.879999 -36.630001 -2.602 0.1
-17.738001 -36.630001 -2.598 0
-17.482 -36.394001 -2.576 0.059999999
-17.438999 -36.598 -2.5869999 0.079999998
-17.236 -36.466999 -2.573 0
-17.215 -36.57 -2.579 0
-17.726999 -37.965 -2.681 0
-17.424 -37.625999 -2.651 0.07
-17.284 -37.632999 -2.6470001 0.14
-17.1 -37.542 -2.6359999 0.31
-16.989 -37.612 -2.6370001 0.18000001
-16.934 -37.806 -2.648 0.18000001
-16.900999 -37.891998 -2.6530001 0.16
-16.952999 -38.330002 -2.681 0.17
-16.771999 -38.245998 -2.671 0.17
-17.07 -39.258999 -2.743 0.16
-17.004999 -39.448002 -2.753 0
-16.436001 -38.460999 -2.6760001 0
-16.301001 -38.48 -2.6730001 0
-16.243999 -38.514 -2.674 0
-17.801001 -42.57 -2.973 0
-18.464001 -44.546001 -3.1159999 0
-18.42 -44.835999 -3.1329999 0
-18.072001 -44.387001 -3.095 0.14
-17.910999 -44.389999 -3.0910001 0.12
-17.812 -44.548 -3.099 0.15000001
-17.768 -44.640999 -3.1040001 0
-17.599001 -44.624001 -3.098 0
-17.684 -45.254002 -3.141 0
-17.865 -46.144001 -3.2019999 0
-18.566999 -48.403 -3.365 0
-19.086 -50.226002 -3.4949999 0
-18.431 -48.966999 -3.398 0
-18.834999 -50.278 -3.4920001 0
-17.927999 -48.321999 -3.3440001 0
-17.764999 -48.347 -3.342 0
-18.315001 -50.328999 -3.483 0
-17.540001 -48.679001 -3.358 0.059999999
-17.283001 -48.439999 -3.336 0
-17.684 -50.058998 -3.451 0
-17.594999 -50.056999 -3.448 0
-17.733 -50.959999 -3.51 0
-17.784 -51.626999 -3.5550001 0
-17.58 -51.561001 -3.546 0
-17.393999 -51.543999 -3.5409999 0
-17.243 -51.631001 -3.543 0
-17.114 -51.786999 -3.55 0
-19.086 -58.050999 -4.0019999 0
-18.868999 -58.005001 -3.9949999 0
-18.688 -58.067001 -3.9949999 0
-19.545 -61.386002 -4.23 0
-19.334999 -61.391998 -4.2259998 0
-19.150999 -61.483002 -4.2280002 0
-8.882 -31.308001 -2.0369999 0
-5.875 -24.497 -1.531 0.050000001
-5.612 -24.070999 -1.498 0.27000001
-5.5229998 -24.032 -1.494 0.18000001
-5.5949998 -24.695 -1.54 0.090000004
-5.6069999 -25.110001 -1.568 0.15000001
-5.5349998 -25.162001 -1.5700001 0
-5.4860001 -57.832001 -3.7950001 0
-5.3060002 -57.868999 -3.796 0
-5.4349999 -60.300999 -3.964 0
-5.2490001 -60.358002 -3.9660001 0
-5.0599999 -60.383999 -3.967 0
-3.642 -45.243 -2.921 0
-3.4360001 -44.443001 -2.865 0.1
-3.2939999 -44.421001 -2.8629999 0
-3.171 -43.692001 -2.812 0.13
-2.1170001 -32.063 -2.0090001 0.43000001
-2.0179999 -32.097 -2.0109999 0.23999999
-1.919 -32.126999 -2.0120001 0.12
-1.822 -32.209 -2.017 0.17
-1.896 -35.436001 -2.2390001 0.15000001
-1.674 -32.283001 -2.0220001 0.20999999
-1.146 -23.663 -1.428 0.16
-1.072 -23.690001 -1.4299999 0.16
-0.926 -23.763 -1.434 0.34999999
-0.85299999 -23.795 -1.436 0.19
-0.78200001 -23.921 -1.4450001 0.5
-0.70300001 -23.794001 -1.436 0.14
-0.65799999 -23.534 -1.418 0.37
-0.58499998 -23.58 -1.421 0.25
-0.48100001 -22.264999 -1.33 0.13
-0.41 -22.193001 -1.325 0.55000001
-0.34200001 -22.315001 -1.3329999 0.20999999
-0.29800001 -24.26 -1.467 0.20999999
-0.205 -22.664 -1.357 0.40000001
-0.097999997 -22.649 -1.3559999 0.38999999
-0.027000001 -22.375999 -1.337 0.16
0.044 -22.308001 -1.3329999 0.17
0.107 -20.591999 -1.215 0.34999999
0.17200001 -20.635 -1.2180001 0.36000001
0.204 -20.639 -1.2180001 0.31999999
0.26699999 -20.469 -1.206 0.38999999
0.33500001 -20.688999 -1.222 0.44
0.405 -20.965 -1.2410001 0.17
0.458 -20.379 -1.2 0.38999999
0.52200001 -20.368 -1.2 0.41
0.58200002 -20.225 -1.1900001 0.2
0.61400002 -20.226 -1.1900001 0.47
0.66900003 -19.955999 -1.1720001 0.25
0.71700001 -19.545 -1.1440001 0.28999999
0.77200001 -19.375999 -1.132 0.31
0.833 -19.371 -1.132 0.51999998
0.90499997 -19.608 -1.148 0.23
0.96899998 -19.666 -1.153 0.41999999
1.034 -19.715 -1.156 0.33000001
1.063 -19.687 -1.154 0.25999999
1.152 -20.166 -1.188 0.57999998
1.205 -19.990999 -1.176 0.16
1.265 -19.934999 -1.1720001 0.34999999
1.321 -19.832001 -1.165 0.17
1.377 -19.74 -1.159 0.44
1.363 -18.667 -1.086 0.36000001
1.415 -18.975 -1.107 0.23
1.497 -19.271 -1.128 0.38
1.5190001 -18.785 -1.095 0.36000001
1.58 -18.802 -1.096 0.27000001
1.625 -18.624001 -1.084 0.27000001
1.6900001 -18.698 -1.09 0.61000001
1.825 -19.191 -1.124 0.55000001
2.1860001 -22.283001 -1.3380001 0.23999999
2.1830001 -21.552999 -1.288 0.31999999
1.925 -18.386999 -1.0700001 0.15000001
1.979 -18.351 -1.068 0.38
2.0280001 -18.259001 -1.062 0.47999999
1.7920001 -15.651 -0.88200003 0.30000001
1.812 -15.613 -0.87900001 0.17
1.857 -15.571 -0.87699997 0.51999998
2.201 -18.007999 -1.046 0.28
1.946 -15.488 -0.87199998 0.38
2.5880001 -20.150999 -1.196 0.31999999
2.6489999 -20.121 -1.194 0.44999999
2.661 -19.729 -1.168 0.43000001
3.391 -24.903 -1.527 0.16
2.1849999 -15.255 -0.85799998 0.61000001
2.2379999 -15.281 -0.86000001 0.34
3.142 -21.061001 -1.263 0.20999999
2.3329999 -15.259 -0.86000001 0.23
2.378 -15.234 -0.85900003 0.28999999
2.381 -15.094 -0.84899998 0.47
2.431 -15.104 -0.85000002 0.34999999
2.506 -15.264 -0.86199999 0.31999999
3.5469999 -21.254 -1.28 0.36000001
2.668 -15.643 -0.88999999 0.34
2.704 -15.558 -0.884 0.23
3.5220001 -19.934 -1.191 0.23999999
2.776 -15.537 -0.884 0.30000001
2.825 -15.531 -0.884 0.46000001
3.687 -19.955 -1.194 0.25999999
3.74 -19.892 -1.191 0.31
3.802 -19.877001 -1.1900001 0.46000001
3.8659999 -19.874001 -1.191 0.28999999
4.2839999 -21.667 -1.317 0.47999999
4.3400002 -21.774 -1.325 0.23999999
4.5149999 -22.290001 -1.363 0.31999999
3.3239999 -16.113001 -0.93000001 0.16
3.4349999 -16.395 -0.94999999 0.51999998
3.5009999 -16.451 -0.95499998 0.37
4.3920002 -20.355 -1.2309999 0.16
3.589 -16.360001 -0.94999999 0.25
3.5929999 -16.253 -0.94300002 0.31999999
3.572 -15.92 -0.92000002 0.41
3.605 -15.831 -0.91500002 0.31999999
3.691 -15.977 -0.926 0.46000001
3.767 -16.08 -0.93400002 0.34
3.9319999 -16.554001 -0.96899998 0.38999999
3.973 -16.493 -0.96499997 0.28999999
3.9419999 -16.25 -0.94800001 0.27000001
3.987 -16.216 -0.94700003 0.47999999
4.1880002 -16.808001 -0.99000001 0.41999999
4.2249999 -16.733 -0.98500001 0.38999999
4.2810001 -16.731001 -0.986 0.28999999
4.3179998 -16.658001 -0.98199999 0.14
4.2199998 -16.066999 -0.94099998 0.34
4.3870001 -16.6 -0.97899997 0.17
4.4159999 -16.502001 -0.97299999 0.18000001
4.3639998 -16.1 -0.94599998 0.36000001
4.421 -15.915 -0.93400002 0.56999999
4.5409999 -16.149 -0.95200002 0.43000001
4.5650001 -16.040001 -0.94499999 0.27000001
5.085 -17.771999 -1.0700001 0.20999999
4.8439999 -16.728001 -0.99599999 0.27000001
4.8509998 -16.556 -0.98500001 0.37
4.6929998 -15.827 -0.93400002 0.31999999
4.7709999 -15.907 -0.94099998 0.31999999
4.9640002 -16.365999 -0.97500002 0.23
4.9060001 -15.994 -0.949 0.57999998
5.336 -17.304001 -1.044 0.2
4.2639999 -13.506 -0.77200001 0.47
4.2800002 -13.409 -0.76599997 0.31999999
4.3270001 -13.411 -0.76700002 0.46000001
4.4349999 -13.457 -0.773 0.63999999
5.8049998 -17.546 -1.069 0.18000001
4.6550002 -13.906 -0.80699998 0.51999998
4.7189999 -13.953 -0.81099999 0.2
4.7449999 -13.742 -0.79799998 0.44999999
4.7909999 -13.735 -0.79900002 0.38
4.8270001 -13.701 -0.79699999 0.56999999
4.9369998 -13.946 -0.81599998 0.15000001
4.9660001 -13.887 -0.81300002 0.23999999
