# .PCD v0.7 - Point Cloud Data file format
VERSION 0.7
FIELDS x y z intensity
SIZE 4 4 4 4
TYPE F F F F
COUNT 1 1 1 1
WIDTH 1383
HEIGHT 1
VIEWPOINT 0 0 0 1 0 0 0
POINTS 1383
DATA ascii
-6.1170001 -3.5639999 -1.8 0.28
-6.1160002 -3.589 -1.804 0.31999999
-6.1090002 -3.598 -1.803 0.25999999
-6.0960002 -3.6159999 -1.803 0.28999999
-6.092 -3.6400001 -1.8049999 0.33000001
-6.0689998 -3.652 -1.802 0.25
-6.0679998 -3.677 -1.8049999 0.31999999
-6.053 -3.694 -1.804 0.28999999
-6.0450001 -3.7149999 -1.8049999 0.27000001
-6.0370002 -3.724 -1.804 0.31
-6.0190001 -3.7390001 -1.802 0.28999999
-6.0089998 -3.7590001 -1.803 0.31
-5.9980001 -3.779 -1.803 0.31
-5.9850001 -3.796 -1.803 0.28999999
-5.9710002 -3.8139999 -1.802 0.31
-5.967 -3.8380001 -1.8049999 0.30000001
-5.9569998 -3.8440001 -1.803 0.28999999
-5.948 -3.865 -1.804 0.30000001
-5.9289999 -3.8800001 -1.802 0.31999999
-5.9229999 -3.902 -1.804 0.30000001
-5.9130001 -3.9219999 -1.8049999 0.28999999
-5.9000001 -3.941 -1.8049999 0.30000001
-5.8969998 -3.9660001 -1.808 0.33000001
-5.888 -3.973 -1.807 0.28999999
-5.875 -3.9909999 -1.807 0.28999999
-5.8610001 -4.0089998 -1.806 0.30000001
-5.8530002 -4.0300002 -1.808 0.31
-5.8410001 -4.0489998 -1.808 0.28999999
-5.8299999 -4.0679998 -1.808 0.28999999
-5.823 -4.0770001 -1.808 0.33000001
-5.8060002 -4.092 -1.807 0.30000001
-5.7909999 -4.1090002 -1.806 0.31999999
-5.7919998 -4.138 -1.811 0.30000001
-5.776 -4.1529999 -1.8099999 0.31999999
-5.7579999 -4.1680002 -1.808 0.28
-5.7410002 -4.1830001 -1.807 0.28999999
-5.7449999 -4.1999998 -1.8099999 0.30000001
-5.73 -4.217 -1.8099999 0.28999999
-5.7259998 -4.2420001 -1.813 0.34
-5.7160001 -4.2620001 -1.814 0.31
-5.6929998 -4.2729998 -1.811 0.28999999
-5.6830001 -4.2930002 -1.812 0.33000001
-5.6789999 -4.3179998 -1.8150001 0.31
-5.6609998 -4.3189998 -1.811 0.30000001
-5.6430001 -4.3330002 -1.8099999 0.28
-5.6430001 -4.3610001 -1.8150001 0.33000001
-5.6279998 -4.3779998 -1.814 0.28
-5.6090002 -4.3920002 -1.813 0.31999999
-5.5939999 -4.408 -1.812 0.30000001
-5.5770001 -4.4229999 -1.811 0.28999999
-5.5879998 -4.447 -1.817 0.28999999
-5.5770001 -4.467 -1.818 0.34
-5.5450001 -4.4689999 -1.812 0.28999999
-5.5339999 -4.4889998 -1.813 0.31
-5.5240002 -4.5100002 -1.8150001 0.28999999
-5.5009999 -4.52 -1.811 0.31999999
-5.5 -4.5489998 -1.816 0.31999999
-5.4899998 -4.5549998 -1.8150001 0.31
-5.473 -4.5700002 -1.814 0.28999999
-5.4619999 -4.5890002 -1.8150001 0.30000001
-5.4489999 -4.6079998 -1.816 0.28999999
-5.4400001 -4.6300001 -1.818 0.31
-5.4229999 -4.6440001 -1.817 0.28999999
-5.4330001 -4.6680002 -1.823 0.34
-5.3979998 -4.6669998 -1.816 0.20999999
-5.4050002 -4.7030001 -1.824 0.17
-5.3800001 -4.711 -1.8200001 0.38
-5.3509998 -4.7150002 -1.8150001 0.54000002
-5.3429999 -4.7389998 -1.817 0.38999999
-5.3319998 -4.7589998 -1.819 0.47999999
-5.3189998 -4.7620001 -1.817 0.38999999
-5.303 -4.7779999 -1.816 0.46000001
-5.3000002 -4.8060002 -1.821 0.36000001
-5.27 -4.8080001 -1.8150001 0.5
-5.27 -4.8390002 -1.821 0.38
-5.2420001 -4.8439999 -1.816 0.49000001
-5.2379999 -4.8709998 -1.8200001 0.36000001
-5.2179999 -4.8670001 -1.816 0.49000001
-5.217 -4.8969998 -1.821 0.38
-5.1859999 -4.8990002 -1.8150001 0.5
-5.1820002 -4.9260001 -1.819 0.36000001
-5.1550002 -4.9310002 -1.8150001 0.56999999
-5.1479998 -4.9549999 -1.818 0.34
-5.125 -4.9650002 -1.816 0.5
-5.1259999 -4.9809999 -1.819 0.34999999
-5.1020002 -4.9889998 -1.816 0.46000001
-5.0929999 -5.0120001 -1.818 0.36000001
-5.0770001 -5.0279999 -1.818 0.47999999
-5.052 -5.0339999 -1.8150001 0.55000001
-5.0440001 -5.0580001 -1.818 0.33000001
-5.0310001 -5.0770001 -1.819 0.31
-5.0159998 -5.0780001 -1.816 0.31
-4.9990001 -5.092 -1.816 0.31999999
-4.9860001 -5.1110001 -1.817 0.27000001
-4.9689999 -5.1259999 -1.817 0.33000001
-4.9530001 -5.1420002 -1.817 0.28999999
-4.9450002 -5.1659999 -1.8200001 0.31
-4.9180002 -5.1700001 -1.816 0.30000001
-4.9169998 -5.1849999 -1.818 0.30000001
-4.908 -5.2090001 -1.821 0.34999999
-4.875 -5.2059999 -1.8150001 0.23999999
-4.8649998 -5.2280002 -1.817 0.34
-4.8509998 -5.2459998 -1.818 0.31
-4.823 -5.2480001 -1.814 0.28999999
-4.829 -5.2719998 -1.819 0.34
-4.8060002 -5.2800002 -1.817 0.28999999
-4.7789998 -5.283 -1.813 0.30000001
-4.7690001 -5.3060002 -1.8150001 0.34
-4.7550001 -5.323 -1.816 0.28
-4.724 -5.322 -1.8099999 0.30000001
-4.7059999 -5.336 -1.8099999 0.30000001
-4.704 -5.3499999 -1.813 0.30000001
-4.6900001 -5.368 -1.814 0.31999999
-4.671 -5.381 -1.813 0.36000001
-4.6620002 -5.4050002 -1.816 0.31999999
-4.631 -5.4029999 -1.8099999 0.28999999
-4.6209998 -5.4250002 -1.813 0.34999999
-4.605 -5.441 -1.814 0.33000001
-4.5900002 -5.441 -1.811 0.30000001
-4.579 -5.4629998 -1.814 0.34999999
-4.5619998 -5.4770002 -1.814 0.31999999
-4.5339999 -5.4780002 -1.809 0.30000001
-4.5370002 -5.5180001 -1.818 0.34
-4.5139999 -5.5240002 -1.8150001 0.33000001
-4.4959998 -5.5380001 -1.8150001 0.31999999
-4.48 -5.5359998 -1.812 0.31999999
-4.467 -5.5549998 -1.814 0.30000001
-4.454 -5.5749998 -1.816 0.33000001
-4.4359999 -5.5890002 -1.816 0.31
-4.4200001 -5.6040001 -1.816 0.31
-4.3990002 -5.6139998 -1.8150001 0.31999999
-4.3790002 -5.6240001 -1.814 0.33000001
-4.369 -5.6300001 -1.813 0.30000001
-4.3439999 -5.6339998 -1.8099999 0.27000001
-4.3309999 -5.6539998 -1.812 0.33000001
-4.3140001 -5.6690001 -1.813 0.27000001
-4.303 -5.6919999 -1.816 0.34
-4.283 -5.7020001 -1.8150001 0.31999999
-4.27 -5.7220001 -1.817 0.33000001
-4.2550001 -5.7210002 -1.814 0.31999999
-4.23 -5.7249999 -1.811 0.30000001
-4.2179999 -5.7459998 -1.814 0.31
-4.2020001 -5.7620001 -1.8150001 0.33000001
-4.184 -5.776 -1.8150001 0.31
-4.1680002 -5.7919998 -1.816 0.33000001
-4.1420002 -5.7940001 -1.812 0.28999999
-4.1420002 -5.8130002 -1.816 0.30000001
-4.119 -5.8200002 -1.814 0.30000001
-4.1069999 -5.842 -1.817 0.33000001
-4.0910001 -5.8579998 -1.818 0.33000001
-4.0640001 -5.8579998 -1.814 0.31
-4.04 -5.8629999 -1.811 0.31
-4.033 -5.8720002 -1.813 0.28
-4.0209999 -5.895 -1.816 0.33000001
-3.9990001 -5.9029999 -1.814 0.31999999
-3.9809999 -5.915 -1.814 0.31
-3.9630001 -5.9289999 -1.8150001 0.30000001
-3.944 -5.9400001 -1.814 0.31999999
-3.9200001 -5.9439998 -1.811 0.28999999
-3.918 -5.9619999 -1.8150001 0.31999999
-3.8989999 -5.974 -1.8150001 0.31999999
-3.875 -5.9780002 -1.813 0.31999999
-3.8559999 -5.9899998 -1.813 0.30000001
-3.835 -5.9990001 -1.811 0.31
-3.8110001 -6.0029998 -1.809 0.28999999
-3.809 -6.0409999 -1.817 0.34
-3.789 -6.0310001 -1.812 0.31999999
-3.7739999 -6.0489998 -1.814 0.31999999
-3.756 -6.0630002 -1.8150001 0.31999999
-3.7349999 -6.0710001 -1.814 0.31
-3.721 -6.0910001 -1.816 0.31
-3.7 -6.099 -1.8150001 0.33000001
-3.688 -6.1020002 -1.814 0.31999999
-3.671 -6.1170001 -1.8150001 0.31
-3.652 -6.1279998 -1.8150001 0.31
-3.625 -6.1259999 -1.811 0.28999999
-3.6140001 -6.1529999 -1.816 0.33000001
-3.595 -6.164 -1.816 0.31999999
-3.5639999 -6.1550002 -1.809 0.28999999
-3.5610001 -6.1719999 -1.813 0.34
-3.543 -6.1869998 -1.814 0.31999999
-3.5150001 -6.1810002 -1.809 0.28999999
-3.4949999 -6.1919999 -1.809 0.34
-3.4790001 -6.21 -1.811 0.28999999
-3.46 -6.2210002 -1.811 0.34999999
-3.438 -6.2270002 -1.809 0.28999999
-3.434 -6.244 -1.813 0.31
-3.408 -6.243 -1.809 0.30000001
-3.3870001 -6.25 -1.808 0.31
-3.3729999 -6.2729998 -1.812 0.31
-3.3510001 -6.2779999 -1.8099999 0.31
-3.3310001 -6.289 -1.8099999 0.31999999
-3.316 -6.3080001 -1.813 0.31999999
-3.2969999 -6.296 -1.808 0.33000001
-3.2839999 -6.3200002 -1.812 0.33000001
-3.2639999 -6.3280001 -1.811 0.31999999
-3.2409999 -6.3330002 -1.8099999 0.31
-3.224 -6.349 -1.811 0.31
-3.2060001 -6.362 -1.813 0.31
-3.184 -6.369 -1.811 0.31
-3.175 -6.375 -1.812 0.31
-3.1530001 -6.382 -1.811 0.31
-3.132 -6.3899999 -1.8099999 0.31
-3.1070001 -6.3889999 -1.807 0.31
-3.096 -6.4180002 -1.813 0.31
-3.0769999 -6.4299998 -1.814 0.33000001
-3.0480001 -6.4219999 -1.808 0.30000001
-3.0450001 -6.4419999 -1.813 0.33000001
-3.0239999 -6.448 -1.812 0.30000001
-3.0009999 -6.4530001 -1.8099999 0.30000001
-2.9809999 -6.4619999 -1.8099999 0.31
-2.96 -6.4710002 -1.8099999 0.30000001
-2.941 -6.4819999 -1.811 0.34999999
-2.931 -6.487 -1.811 0.28999999
-2.9119999 -6.5 -1.812 0.33000001
-2.892 -6.5110002 -1.813 0.31999999
-2.872 -6.52 -1.813 0.30000001
-2.848 -6.5219998 -1.8099999 0.30000001
-2.832 -6.5409999 -1.814 0.34
-2.8150001 -6.5570002 -1.816 0.31999999
-2.8010001 -6.5539999 -1.814 0.31
-2.7809999 -6.5630002 -1.814 0.31999999
-2.76 -6.572 -1.814 0.31999999
-2.74 -6.5819998 -1.814 0.31
-2.721 -6.5939999 -1.8150001 0.31999999
-2.698 -6.598 -1.814 0.28
-2.6760001 -6.6040001 -1.813 0.34
-2.668 -6.6139998 -1.8150001 0.31
-2.648 -6.6240001 -1.8150001 0.33000001
-2.6270001 -6.6300001 -1.8150001 0.31999999
-2.602 -6.6279998 -1.811 0.30000001
-2.5880001 -6.6560001 -1.817 0.34
-2.566 -6.6599998 -1.816 0.33000001
-2.5539999 -6.6589999 -1.8150001 0.31999999
-2.5309999 -6.6630001 -1.814 0.28
-2.51 -6.671 -1.814 0.33000001
-2.4879999 -6.6760001 -1.813 0.31999999
-2.4719999 -6.6960001 -1.816 0.31999999
-2.451 -6.7059999 -1.817 0.31999999
-2.428 -6.7059999 -1.8150001 0.31
-2.418 -6.7129998 -1.816 0.31
-2.3929999 -6.7080002 -1.812 0.28999999
-2.3729999 -6.7189999 -1.813 0.33000001
-2.352 -6.7290001 -1.814 0.31999999
-2.3310001 -6.7360001 -1.814 0.31999999
-2.3080001 -6.7379999 -1.812 0.30000001
-2.3010001 -6.7519999 -1.8150001 0.31
-2.2720001 -6.7360001 -1.808 0.30000001
-2.2550001 -6.7540002 -1.811 0.31999999
-2.2360001 -6.77 -1.814 0.33000001
-2.2090001 -6.7589998 -1.809 0.31
-2.191 -6.7750001 -1.811 0.31999999
-2.171 -6.7849998 -1.813 0.31
-2.1570001 -6.7789998 -1.8099999 0.31
-2.1370001 -6.7880001 -1.8099999 0.31
-2.1159999 -6.7969999 -1.811 0.31
-2.0940001 -6.803 -1.811 0.31999999
-2.072 -6.8080001 -1.8099999 0.31999999
-2.05 -6.8109999 -1.809 0.31999999
-2.03 -6.8210001 -1.8099999 0.31999999
-2.0179999 -6.8200002 -1.809 0.31999999
-1.999 -6.8340001 -1.811 0.33000001
-1.976 -6.8369999 -1.8099999 0.34
-1.954 -6.8410001 -1.8099999 0.34
-1.934 -6.8509998 -1.811 0.31999999
-1.908 -6.842 -1.807 0.34
-1.891 -6.8649998 -1.811 0.34
-1.878 -6.8579998 -1.809 0.33000001
-1.855 -6.8600001 -1.808 0.34
-1.835 -6.8720002 -1.809 0.33000001
-1.811 -6.8699999 -1.807 0.28999999
-1.788 -6.8699999 -1.806 0.34999999
-1.77 -6.8870001 -1.809 0.34
-1.7460001 -6.8829999 -1.806 0.30000001
-1.733 -6.8779998 -1.804 0.34999999
-1.711 -6.8839998 -1.804 0.30000001
-1.691 -6.895 -1.806 0.33000001
-1.6670001 -6.8909998 -1.803 0.31999999
-1.645 -6.8920002 -1.802 0.36000001
-1.627 -6.9120002 -1.806 0.31
-1.614 -6.9050002 -1.804 0.28999999
-1.594 -6.9200001 -1.806 0.37
-1.573 -6.9299998 -1.808 0.38999999
-1.546 -6.9109998 -1.801 0.31
-1.524 -6.9120002 -1.8 0.34
-1.505 -6.9299998 -1.804 0.27000001
-1.478 -6.9120002 -1.7970001 0.44999999
-1.4680001 -6.9159999 -1.798 0.25
-1.447 -6.9260001 -1.799 0.46000001
-1.423 -6.9190001 -1.796 0.36000001
-1.404 -6.9349999 -1.799 0.31
-1.38 -6.9299998 -1.7970001 0.38999999
-1.358 -6.9330001 -1.796 0.40000001
-1.337 -6.941 -1.7970001 0.34
-1.325 -6.9390001 -1.796 0.30000001
-1.302 -6.9349999 -1.794 0.34
-1.28 -6.9390001 -1.794 0.34
-1.257 -6.9359999 -1.7920001 0.34
-1.234 -6.9299998 -1.789 0.36000001
-1.2130001 -6.9380002 -1.791 0.34
-1.2 -6.928 -1.7869999 0.36000001
-1.176 -6.9229999 -1.785 0.30000001
-1.154 -6.9239998 -1.784 0.44
-1.135 -6.9429998 -1.788 0.43000001
-1.1109999 -6.9330001 -1.785 0.36000001
-1.09 -6.941 -1.786 0.37
-1.068 -6.9419999 -1.785 0.34
-1.0549999 -6.9299998 -1.7819999 0.36000001
-1.0319999 -6.9239998 -1.779 0.36000001
-1.013 -6.948 -1.785 0.34
-0.98900002 -6.9380002 -1.781 0.38999999
-0.96700001 -6.9390001 -1.781 0.31999999
-0.94499999 -6.9380002 -1.78 0.38999999
-0.92199999 -6.9359999 -1.778 0.34999999
-0.912 -6.941 -1.779 0.37
-0.88999999 -6.9400001 -1.778 0.28999999
-0.866 -6.9250002 -1.773 0.31
-0.84399998 -6.9260001 -1.773 0.36000001
-0.82300001 -6.9400001 -1.776 0.38999999
-0.80000001 -6.9289999 -1.772 0.36000001
-0.778 -6.9320002 -1.772 0.33000001
-0.76800001 -6.9349999 -1.773 0.40000001
-0.745 -6.9299998 -1.771 0.37
-0.72299999 -6.934 -1.771 0.34
-0.70099998 -6.934 -1.771 0.40000001
-0.67900002 -6.9330001 -1.77 0.38999999
-0.65700001 -6.9349999 -1.77 0.37
-0.64700001 -6.9380002 -1.77 0.34999999
-0.62400001 -6.928 -1.767 0.36000001
-0.602 -6.9320002 -1.767 0.36000001
-0.58099997 -6.9419999 -1.77 0.38999999
-0.55800003 -6.9239998 -1.7640001 0.33000001
-0.537 -6.9320002 -1.766 0.38999999
-0.51499999 -6.941 -1.768 0.34999999
-0.505 -6.9439998 -1.7690001 0.38
-0.48199999 -6.934 -1.765 0.41
-0.46000001 -6.927 -1.763 0.37
-0.43799999 -6.9229999 -1.762 0.33000001
-0.417 -6.9419999 -1.766 0.38999999
-0.39500001 -6.9349999 -1.7640001 0.31
-0.373 -6.9419999 -1.766 0.38999999
-0.361 -6.9260001 -1.761 0.36000001
-0.34 -6.934 -1.763 0.36000001
-0.317 -6.9159999 -1.758 0.33000001
-0.29699999 -6.9439998 -1.765 0.38999999
-0.27399999 -6.9330001 -1.762 0.36000001
-0.252 -6.9229999 -1.7589999 0.37
-0.242 -6.9289999 -1.761 0.36000001
-0.22 -6.928 -1.76 0.34
-0.198 -6.9359999 -1.762 0.34
-0.176 -6.9250002 -1.7589999 0.37
-0.155 -6.9330001 -1.761 0.38
-0.133 -6.9429998 -1.7640001 0.36000001
-0.111 -6.921 -1.758 0.37
-0.1 -6.928 -1.76 0.38
-0.078000002 -6.9310002 -1.76 0.36000001
-0.056000002 -6.921 -1.758 0.36000001
-0.035 -6.9310002 -1.76 0.38
-0.013 -6.9180002 -1.756 0.37
0.0089999996 -6.9190001 -1.757 0.31999999
0.02 -6.9250002 -1.7589999 0.36000001
0.041000001 -6.927 -1.7589999 0.38
0.063000001 -6.9330001 -1.761 0.37
0.085000001 -6.9310002 -1.76 0.37
0.107 -6.928 -1.76 0.36000001
0.12800001 -6.9219999 -1.758 0.36000001
0.15000001 -6.9330001 -1.761 0.44999999
0.161 -6.9250002 -1.7589999 0.28999999
0.183 -6.934 -1.762 0.33000001
0.205 -6.9219999 -1.7589999 0.33000001
0.226 -6.9239998 -1.7589999 0.36000001
0.248 -6.9190001 -1.758 0.36000001
0.27000001 -6.9260001 -1.76 0.38999999
0.29100001 -6.9169998 -1.758 0.34
0.30199999 -6.9169998 -1.758 0.40000001
0.32499999 -6.927 -1.761 0.34999999
0.34599999 -6.9239998 -1.761 0.40000001
0.368 -6.914 -1.758 0.38
0.389 -6.9159999 -1.7589999 0.36000001
0.41100001 -6.9190001 -1.76 0.37
0.42199999 -6.9180002 -1.76 0.36000001
0.44499999 -6.9260001 -1.763 0.38
0.46599999 -6.9190001 -1.761 0.36000001
0.48800001 -6.9250002 -1.763 0.34
0.509 -6.914 -1.761 0.34999999
0.53200001 -6.9219999 -1.763 0.37
0.55500001 -6.9320002 -1.766 0.36000001
0.565 -6.9219999 -1.7640001 0.37
0.58700001 -6.9260001 -1.765 0.34999999
0.60900003 -6.9239998 -1.765 0.40000001
0.63099998 -6.9260001 -1.766 0.33000001
0.65200001 -6.9239998 -1.766 0.36000001
0.67400002 -6.9229999 -1.767 0.38999999
0.69599998 -6.9169998 -1.766 0.33000001
0.70599997 -6.914 -1.765 0.36000001
0.72899997 -6.9200001 -1.767 0.36000001
0.75099999 -6.9190001 -1.768 0.41
0.77200001 -6.9070001 -1.765 0.34
0.79400003 -6.9109998 -1.767 0.36000001
0.81599998 -6.9120002 -1.768 0.38
0.829 -6.9299998 -1.773 0.36000001
0.852 -6.9330001 -1.775 0.31999999
0.87199998 -6.921 -1.772 0.40000001
0.89399999 -6.914 -1.771 0.38
0.91500002 -6.9109998 -1.771 0.40000001
0.93900001 -6.9219999 -1.775 0.38
0.96100003 -6.9190001 -1.775 0.34
0.972 -6.921 -1.776 0.44999999
0.995 -6.928 -1.778 0.43000001
1.015 -6.9109998 -1.775 0.34
1.04 -6.927 -1.78 0.38
1.0599999 -6.9159999 -1.778 0.37
1.0829999 -6.9180002 -1.78 0.36000001
1.105 -6.921 -1.781 0.34999999
1.117 -6.921 -1.7819999 0.37
1.1390001 -6.921 -1.783 0.31999999
1.163 -6.9289999 -1.786 0.44
1.183 -6.9190001 -1.784 0.30000001
1.206 -6.921 -1.786 0.40000001
1.225 -6.9000001 -1.781 0.34
1.237 -6.9060001 -1.783 0.44999999
1.258 -6.9000001 -1.783 0.20999999
1.268 -6.8340001 -1.765 0.55000001
1.29 -6.8299999 -1.765 0.27000001
1.307 -6.8070002 -1.76 0.51999998
1.34 -6.8569999 -1.775 0.41999999
1.3710001 -6.9000001 -1.788 0.31999999
1.385 -6.9130001 -1.793 0.43000001
1.405 -6.9029999 -1.791 0.30000001
1.431 -6.9180002 -1.796 0.38999999
1.448 -6.8930001 -1.791 0.30000001
1.472 -6.8990002 -1.794 0.31999999
1.495 -6.9000001 -1.795 0.36000001
1.513 -6.8769999 -1.79 0.28
1.528 -6.895 -1.796 0.28999999
1.55 -6.8920002 -1.796 0.38999999
1.5700001 -6.8779998 -1.794 0.34
1.59 -6.8649998 -1.7920001 0.34
1.612 -6.8660002 -1.793 0.34
1.63 -6.8439999 -1.788 0.31999999
1.6440001 -6.8559999 -1.793 0.31999999
1.6670001 -6.855 -1.794 0.38999999
1.687 -6.8460002 -1.793 0.33000001
1.707 -6.835 -1.791 0.31999999
1.7309999 -6.8390002 -1.794 0.31
1.75 -6.8239999 -1.791 0.31
1.771 -6.8169999 -1.791 0.27000001
1.7869999 -6.8309999 -1.795 0.38
1.806 -6.8189998 -1.794 0.31
1.829 -6.8189998 -1.795 0.31
1.853 -6.823 -1.798 0.31999999
1.868 -6.7930002 -1.791 0.31
1.891 -6.7940001 -1.793 0.34999999
1.906 -6.8039999 -1.7970001 0.30000001
1.932 -6.8150001 -1.802 0.34
1.946 -6.7849998 -1.795 0.33000001
1.9680001 -6.7789998 -1.795 0.31999999
1.988 -6.7709999 -1.794 0.31
2.0109999 -6.7680001 -1.795 0.28
2.0309999 -6.7579999 -1.794 0.34
2.0420001 -6.7550001 -1.794 0.31999999
2.0610001 -6.743 -1.793 0.31999999
2.085 -6.744 -1.795 0.31999999
2.105 -6.7329998 -1.794 0.31999999
2.1259999 -6.7270002 -1.794 0.30000001
2.1470001 -6.7220001 -1.794 0.30000001
2.171 -6.7220001 -1.796 0.30000001
2.177 -6.704 -1.7920001 0.31
2.2 -6.7049999 -1.794 0.30000001
2.221 -6.698 -1.794 0.31
2.2379999 -6.678 -1.791 0.31999999
2.2639999 -6.6859999 -1.795 0.31999999
2.2869999 -6.6859999 -1.7970001 0.31
2.293 -6.6680002 -1.793 0.31999999
2.316 -6.6680002 -1.795 0.31
2.335 -6.6550002 -1.793 0.28999999
2.3540001 -6.6399999 -1.791 0.28999999
2.3770001 -6.6399999 -1.793 0.30000001
2.3959999 -6.6269999 -1.7920001 0.30000001
2.4130001 -6.6100001 -1.789 0.31
2.425 -6.6100001 -1.79 0.28999999
2.4449999 -6.6009998 -1.789 0.30000001
2.4679999 -6.599 -1.791 0.30000001
2.4860001 -6.5840001 -1.789 0.31
2.506 -6.5739999 -1.788 0.28999999
2.5220001 -6.553 -1.785 0.31
2.5450001 -6.553 -1.7869999 0.28999999
2.552 -6.5409999 -1.785 0.28999999
2.5780001 -6.546 -1.788 0.30000001
2.5940001 -6.527 -1.785 0.30000001
2.618 -6.526 -1.7869999 0.31
2.6340001 -6.5089998 -1.785 0.28
2.6559999 -6.5019999 -1.785 0.28999999
2.658 -6.48 -1.78 0.28999999
2.6819999 -6.4790001 -1.7819999 0.28999999
2.7049999 -6.4780002 -1.784 0.28999999
2.727 -6.473 -1.785 0.28999999
2.744 -6.4549999 -1.783 0.28999999
2.7679999 -6.4569998 -1.786 0.30000001
2.7820001 -6.434 -1.7819999 0.28999999
2.796 -6.4390001 -1.784 0.33000001
2.8169999 -6.4320002 -1.785 0.28999999
2.836 -6.4190001 -1.784 0.31
2.858 -6.414 -1.785 0.30000001
2.8800001 -6.408 -1.786 0.30000001
2.898 -6.3959999 -1.785 0.30000001
2.9230001 -6.3969998 -1.788 0.30000001
2.9300001 -6.3860002 -1.786 0.28999999
2.948 -6.3730001 -1.785 0.28
2.97 -6.3670001 -1.786 0.28999999
2.993 -6.3649998 -1.788 0.28
3.01 -6.348 -1.786 0.28999999
3.0339999 -6.348 -1.788 0.28999999
3.04 -6.3340001 -1.786 0.28999999
3.0539999 -6.3140001 -1.783 0.30000001
3.075 -6.3060002 -1.783 0.28999999
3.0929999 -6.2930002 -1.7819999 0.28999999
3.1129999 -6.283 -1.7819999 0.28999999
3.1329999 -6.2729998 -1.7819999 0.28
3.1570001 -6.2719998 -1.785 0.25
3.154 -6.243 -1.777 0.18000001
3.1860001 -6.257 -1.785 0.28999999
3.2060001 -6.2470002 -1.785 0.23999999
3.2079999 -6.2030001 -1.774 0.19
3.2409999 -6.2179999 -1.7819999 0.25999999
3.2620001 -6.2119999 -1.783 0.22
3.27 -6.1789999 -1.776 0.18000001
3.2909999 -6.1960001 -1.783 0.27000001
3.3150001 -6.1939998 -1.786 0.22
3.3169999 -6.152 -1.776 0.18000001
3.3499999 -6.1669998 -1.784 0.28999999
3.368 -6.1529999 -1.783 0.25
3.3710001 -6.1129999 -1.774 0.16
3.395 -6.1329999 -1.7819999 0.28999999
3.418 -6.1290002 -1.784 0.23
3.425 -6.0970001 -1.777 0.18000001
3.4660001 -6.125 -1.789 0.25999999
3.464 -6.0770001 -1.777 0.16
3.4990001 -6.0929999 -1.786 0.25999999
3.51 -6.0679998 -1.7819999 0.2
3.527 -6.0760002 -1.786 0.25
3.5369999 -6.0479999 -1.781 0.23999999
3.5580001 -6.0419998 -1.7819999 0.27000001
3.582 -6.039 -1.785 0.25
3.589 -6.0079999 -1.778 0.25
3.6140001 -6.007 -1.7819999 0.28999999
3.632 -5.994 -1.781 0.28999999
3.6359999 -5.98 -1.778 0.30000001
3.655 -5.9679999 -1.778 0.30000001
3.6789999 -5.9650002 -1.781 0.30000001
3.694 -5.947 -1.779 0.30000001
3.7160001 -5.9419999 -1.781 0.31999999
3.7320001 -5.9250002 -1.78 0.30000001
3.74 -5.9180002 -1.779 0.31
3.7609999 -5.9089999 -1.78 0.31
3.7780001 -5.8959999 -1.78 0.28999999
3.7939999 -5.8790002 -1.778 0.31
3.816 -5.8730001 -1.78 0.30000001
3.8329999 -5.8579998 -1.779 0.30000001
3.845 -5.836 -1.776 0.33000001
3.858 -5.8369999 -1.778 0.31999999
3.878 -5.8260002 -1.778 0.33000001
3.895 -5.8119998 -1.778 0.31999999
3.9100001 -5.7950001 -1.776 0.33000001
3.9289999 -5.7849998 -1.777 0.30000001
3.944 -5.7680001 -1.775 0.30000001
3.961 -5.7719998 -1.779 0.33000001
3.9860001 -5.7709999 -1.783 0.31999999
4.0009999 -5.7540002 -1.781 0.30000001
4.0120001 -5.73 -1.777 0.31999999
4.0380001 -5.73 -1.7819999 0.30000001
4.0489998 -5.7059999 -1.778 0.30000001
4.0619998 -5.6869998 -1.776 0.31999999
4.0770001 -5.6890001 -1.778 0.28
4.0939999 -5.6760001 -1.778 0.34
4.1090002 -5.658 -1.777 0.30000001
4.131 -5.652 -1.779 0.30000001
4.1399999 -5.6259999 -1.775 0.31999999
4.1609998 -5.618 -1.776 0.28
4.178 -5.605 -1.776 0.33000001
4.1849999 -5.5949998 -1.775 0.31
4.1999998 -5.579 -1.774 0.28999999
4.2249999 -5.5749998 -1.777 0.30000001
4.2280002 -5.5430002 -1.771 0.28999999
4.2610002 -5.5500002 -1.778 0.34999999
4.2649999 -5.52 -1.772 0.28
4.276 -5.5159998 -1.773 0.33000001
4.2940001 -5.5019999 -1.773 0.30000001
4.3099999 -5.487 -1.773 0.31
4.323 -5.4689999 -1.771 0.30000001
4.3390002 -5.454 -1.771 0.31999999
4.3699999 -5.4569998 -1.776 0.36000001
4.3839998 -5.4400001 -1.775 0.33000001
4.3930001 -5.4330001 -1.775 0.31
4.4099998 -5.4200001 -1.775 0.31999999
4.415 -5.3909998 -1.77 0.28999999
4.4330001 -5.3779998 -1.771 0.30000001
4.4640002 -5.382 -1.777 0.34999999
4.4710002 -5.3559999 -1.773 0.33000001
4.4899998 -5.3610001 -1.777 0.31999999
4.507 -5.3470001 -1.777 0.28999999
4.513 -5.3210001 -1.773 0.28999999
4.533 -5.3099999 -1.774 0.28999999
4.5560002 -5.303 -1.776 0.33000001
4.5650001 -5.2800002 -1.773 0.30000001
4.5840001 -5.2680001 -1.774 0.31999999
4.5910001 -5.2600002 -1.774 0.31
4.599 -5.237 -1.771 0.31
4.6269999 -5.2350001 -1.775 0.31
4.6409998 -5.2179999 -1.774 0.30000001
4.6599998 -5.2059999 -1.775 0.31
4.671 -5.1849999 -1.773 0.31
4.6849999 -5.1680002 -1.772 0.31
4.6830001 -5.1490002 -1.768 0.27000001
4.7129998 -5.1500001 -1.774 0.34999999
4.7290001 -5.1350002 -1.774 0.27000001
4.744 -5.119 -1.773 0.34999999
4.7620001 -5.105 -1.774 0.31999999
4.7779999 -5.0900002 -1.774 0.28999999
4.7909999 -5.073 -1.773 0.33000001
4.803 -5.0689998 -1.774 0.31
4.8249998 -5.0609999 -1.777 0.27000001
4.8369999 -5.0419998 -1.775 0.33000001
4.849 -5.0219998 -1.774 0.30000001
4.869 -5.0110002 -1.775 0.31
4.8779998 -4.9889998 -1.773 0.30000001
4.9070001 -5.0029998 -1.781 0.34
4.914 -4.9780002 -1.777 0.31999999
4.928 -4.961 -1.777 0.31999999
4.941 -4.9429998 -1.776 0.25999999
4.96 -4.9320002 -1.777 0.33000001
4.967 -4.908 -1.774 0.31
4.9990001 -4.9089999 -1.781 0.34
4.9910002 -4.8850002 -1.774 0.25
5.0139999 -4.8769999 -1.777 0.36000001
5.0279999 -4.8600001 -1.777 0.28
5.0359998 -4.8369999 -1.774 0.31
5.0359998 -4.8070002 -1.7690001 0.28
5.0609999 -4.8000002 -1.772 0.33000001
5.0760002 -4.7839999 -1.772 0.33000001
5.0840001 -4.776 -1.772 0.27000001
5.1040001 -4.7659998 -1.774 0.33000001
5.1139998 -4.744 -1.772 0.31
5.1259999 -4.7259998 -1.771 0.34
5.138 -4.7069998 -1.77 0.25999999
5.1550002 -4.6929998 -1.771 0.28999999
5.158 -4.6810002 -1.77 0.30000001
5.1690001 -4.6609998 -1.768 0.33000001
5.1820002 -4.6440001 -1.767 0.30000001
5.204 -4.6339998 -1.77 0.31
5.2140002 -4.6139998 -1.7690001 0.30000001
5.237 -4.605 -1.772 0.34
5.2540002 -4.5910001 -1.773 0.31999999
5.2589998 -4.5799999 -1.772 0.34
5.2729998 -4.5640001 -1.772 0.28999999
5.2709999 -4.533 -1.766 0.31
5.3039999 -4.533 -1.773 0.31999999
5.3189998 -4.5159998 -1.773 0.28999999
5.3239999 -4.4920001 -1.77 0.31999999
5.3449998 -4.4809999 -1.772 0.31999999
5.3439999 -4.4660001 -1.7690001 0.28999999
5.3559999 -4.448 -1.7690001 0.33000001
5.3740001 -4.434 -1.77 0.31999999
5.3959999 -4.4239998 -1.773 0.28
5.4109998 -4.408 -1.773 0.34
5.4190001 -4.3860002 -1.771 0.31999999
5.4320002 -4.382 -1.773 0.28
5.4310002 -4.3530002 -1.768 0.31
5.4530001 -4.3429999 -1.771 0.33000001
5.467 -4.3260002 -1.771 0.31
5.4699998 -4.3010001 -1.767 0.30000001
5.4860001 -4.2859998 -1.7690001 0.28999999
5.5089998 -4.276 -1.772 0.33000001
5.507 -4.2600002 -1.7690001 0.31
5.5139999 -4.2379999 -1.766 0.23999999
5.5320001 -4.224 -1.768 0.33000001
5.5359998 -4.1999998 -1.765 0.31
5.5469999 -4.1810002 -1.7640001 0.30000001
5.5599999 -4.164 -1.7640001 0.30000001
5.5609999 -4.1370001 -1.76 0.28999999
5.572 -4.132 -1.762 0.31
5.5869999 -4.1149998 -1.762 0.28999999
5.5949998 -4.0939999 -1.761 0.33000001
5.6009998 -4.072 -1.7589999 0.28
5.619 -4.0580001 -1.76 0.28999999
5.619 -4.0310001 -1.756 0.31999999
5.6440001 -4.0229998 -1.76 0.31999999
5.6589999 -4.0190001 -1.763 0.34999999
5.6550002 -3.99 -1.758 0.28
5.671 -3.9749999 -1.7589999 0.30000001
5.7030001 -3.97 -1.765 0.33000001
5.6960001 -3.9389999 -1.7589999 0.28
5.7080002 -3.921 -1.7589999 0.31999999
5.73 -3.9230001 -1.7640001 0.31
5.743 -3.905 -1.7640001 0.31
5.7389998 -3.8759999 -1.7589999 0.28
5.7589998 -3.8640001 -1.761 0.28999999
5.7610002 -3.839 -1.758 0.30000001
5.7979999 -3.8369999 -1.766 0.31
5.803 -3.8139999 -1.7640001 0.31
5.8000002 -3.799 -1.761 0.30000001
5.8210001 -3.7869999 -1.7640001 0.30000001
5.8330002 -3.7690001 -1.7640001 0.31999999
5.8249998 -3.7379999 -1.758 0.31999999
5.8520002 -3.7290001 -1.762 0.30000001
5.875 -3.7179999 -1.766 0.30000001
5.8629999 -3.697 -1.76 0.30000001
5.882 -3.684 -1.763 0.28999999
5.8959999 -3.6659999 -1.763 0.30000001
5.9050002 -3.6470001 -1.763 0.33000001
5.9120002 -3.625 -1.761 0.25999999
5.9330001 -3.6129999 -1.7640001 0.31999999
5.9380002 -3.5899999 -1.762 0.28999999
5.9499998 -3.585 -1.7640001 0.28999999
5.961 -3.566 -1.7640001 0.31
5.973 -3.5469999 -1.7640001 0.31
5.9770002 -3.5239999 -1.762 0.28999999
5.9879999 -3.506 -1.762 0.28999999
6.006 -3.4909999 -1.7640001 0.33000001
6.0180001 -3.473 -1.765 0.28999999
6.0170002 -3.46 -1.763 0.28999999
6.013 -3.4319999 -1.758 0.28999999
6.04 -3.4230001 -1.763 0.31999999
6.0380001 -3.3959999 -1.7589999 0.27000001
6.0450001 -3.375 -1.758 0.31
6.0570002 -3.3570001 -1.7589999 0.28999999
6.066 -3.3369999 -1.758 0.30000001
6.0760002 -3.3299999 -1.76 0.31999999
6.0900002 -3.313 -1.761 0.28999999
6.1040001 -3.296 -1.762 0.31
6.1059999 -3.2720001 -1.7589999 0.30000001
6.119 -3.2550001 -1.76 0.30000001
6.131 -3.2360001 -1.761 0.31
6.1209998 -3.2190001 -1.756 0.27000001
6.1339998 -3.201 -1.757 0.28999999
6.1459999 -3.1830001 -1.758 0.31
6.1599998 -3.165 -1.7589999 0.31999999
6.1680002 -3.145 -1.758 0.27000001
6.1690001 -3.1210001 -1.755 0.28999999
6.1810002 -3.1029999 -1.756 0.31
6.1750002 -3.0880001 -1.753 0.28999999
6.1919999 -3.072 -1.755 0.31
6.2059999 -3.0550001 -1.756 0.31
6.2179999 -3.036 -1.757 0.30000001
6.2189999 -3.013 -1.7539999 0.30000001
6.2420001 -3 -1.7589999 0.31999999
6.2529998 -2.9809999 -1.7589999 0.28
6.2459998 -2.9649999 -1.755 0.28999999
6.2740002 -2.9549999 -1.761 0.31999999
6.2680001 -2.928 -1.756 0.27000001
6.2870002 -2.9130001 -1.76 0.31999999
6.2909999 -2.891 -1.758 0.30000001
6.2930002 -2.868 -1.756 0.28
6.2969999 -2.845 -1.7539999 0.31999999
6.3010001 -2.836 -1.7539999 0.30000001
6.3189998 -2.8199999 -1.757 0.31999999
6.3169999 -2.7950001 -1.7539999 0.28999999
6.329 -2.777 -1.755 0.30000001
6.335 -2.7550001 -1.7539999 0.28
6.3449998 -2.7360001 -1.7539999 0.30000001
6.342 -2.723 -1.752 0.28999999
6.3629999 -2.7090001 -1.756 0.31999999
6.3559999 -2.6819999 -1.751 0.30000001
6.368 -2.6630001 -1.752 0.31
6.3709998 -2.641 -1.751 0.31
6.3839998 -2.6229999 -1.752 0.31
6.3709998 -2.595 -1.7460001 0.28
6.3839998 -2.5880001 -1.749 0.31999999
6.3899999 -2.5669999 -1.748 0.30000001
6.3979998 -2.5469999 -1.748 0.30000001
6.4060001 -2.527 -1.748 0.27000001
6.4070001 -2.5039999 -1.7460001 0.28999999
6.4200001 -2.4860001 -1.748 0.28999999
6.4299998 -2.467 -1.748 0.31
6.4390001 -2.4590001 -1.75 0.30000001
6.4380002 -2.4349999 -1.747 0.30000001
6.4530001 -2.4170001 -1.749 0.27000001
6.46 -2.3970001 -1.749 0.28999999
6.4510002 -2.3710001 -1.744 0.28999999
6.4710002 -2.355 -1.748 0.31999999
6.4640002 -2.3410001 -1.745 0.28999999
6.473 -2.3210001 -1.745 0.31999999
6.4819999 -2.302 -1.7460001 0.28
6.493 -2.283 -1.747 0.28999999
6.5019999 -2.263 -1.748 0.31
6.4889998 -2.2360001 -1.742 0.27000001
6.507 -2.2190001 -1.745 0.31999999
6.5019999 -2.2060001 -1.742 0.33000001
6.5050001 -2.184 -1.7410001 0.25999999
6.5339999 -2.171 -1.748 0.28
6.5019999 -2.138 -1.737 0.20999999
6.5159998 -2.1199999 -1.739 0.2
6.5370002 -2.1040001 -1.743 0.41
6.5289998 -2.079 -1.739 0.36000001
6.5450001 -2.072 -1.742 0.44999999
6.559 -2.0539999 -1.744 0.36000001
6.5450001 -2.027 -1.739 0.46000001
6.5549998 -2.0079999 -1.74 0.38
6.5539999 -1.985 -1.738 0.54000002
6.5489998 -1.961 -1.734 0.38
6.572 -1.9450001 -1.739 0.33000001
6.5809999 -1.937 -1.7410001 0.52999997
6.579 -1.914 -1.739 0.28
6.632 -1.906 -1.752 0.28999999
6.6469998 -1.888 -1.7539999 0.25
6.5929999 -1.851 -1.738 0.28
6.6139998 -1.834 -1.742 0.27000001
6.6079998 -1.8099999 -1.739 0.19
6.6360002 -1.806 -1.745 0.28
6.6279998 -1.7819999 -1.742 0.25
6.632 -1.761 -1.7410001 0.20999999
6.6490002 -1.743 -1.744 0.28
6.6409998 -1.719 -1.7410001 0.23999999
6.6669998 -1.7029999 -1.747 0.23
6.638 -1.684 -1.738 0.18000001
6.6690001 -1.67 -1.745 0.30000001
6.6690001 -1.648 -1.743 0.25
6.651 -1.6210001 -1.737 0.16
6.6830001 -1.607 -1.744 0.28999999
6.6880002 -1.586 -1.744 0.23999999
6.6890001 -1.564 -1.743 0.20999999
6.7049999 -1.556 -1.747 0.13
6.6849999 -1.53 -1.74 0.2
6.6799998 -1.507 -1.738 0.18000001
6.7280002 -1.495 -1.75 0.25999999
6.6989999 -1.467 -1.74 0.16
6.7319999 -1.452 -1.748 0.25
6.7160001 -1.426 -1.742 0.18000001
6.7459998 -1.421 -1.75 0.25
6.7259998 -1.395 -1.743 0.18000001
6.7340002 -1.375 -1.744 0.23
6.756 -1.357 -1.749 0.2
6.7519999 -1.334 -1.747 0.22
6.7529998 -1.312 -1.7460001 0.2
6.7639999 -1.293 -1.748 0.23
6.7529998 -1.28 -1.744 0.19
6.7670002 -1.26 -1.747 0.12
6.7670002 -1.238 -1.7460001 0.18000001
6.7719998 -1.217 -1.747 0.20999999
6.7670002 -1.194 -1.744 0.19
6.7820001 -1.175 -1.747 0.22
6.7779999 -1.163 -1.745 0.1
6.7969999 -1.1440001 -1.75 0.18000001
6.7909999 -1.122 -1.747 0.22
6.7810001 -1.098 -1.743 0.19
6.79 -1.0779999 -1.745 0.20999999
6.7930002 -1.056 -1.745 0.22
6.8010001 -1.036 -1.7460001 0.11
6.8039999 -1.025 -1.747 0.18000001
6.809 -1.0039999 -1.747 0.20999999
6.7950001 -0.98000002 -1.742 0.17
6.8099999 -0.96100003 -1.745 0.23
6.7919998 -0.93599999 -1.74 0.16
6.8080001 -0.917 -1.743 0.25
6.7989998 -0.89399999 -1.74 0.18000001
6.8309999 -0.88700002 -1.749 0.23
6.803 -0.86199999 -1.74 0.20999999
6.8210001 -0.84200001 -1.744 0.23
6.8280001 -0.82099998 -1.745 0.19
6.8280001 -0.80000001 -1.745 0.22
6.816 -0.77600002 -1.7410001 0.18000001
6.8280001 -0.76700002 -1.744 0.25
6.8169999 -0.74400002 -1.74 0.22
6.835 -0.72399998 -1.744 0.11
6.8239999 -0.70099998 -1.7410001 0.2
6.8010001 -0.67799997 -1.734 0.18000001
6.8509998 -0.66100001 -1.747 0.25999999
6.8340001 -0.63700002 -1.742 0.20999999
6.835 -0.62699997 -1.742 0.12
6.829 -0.60500002 -1.74 0.20999999
6.8499999 -0.58499998 -1.745 0.11
6.823 -0.56099999 -1.737 0.2
6.8499999 -0.54100001 -1.744 0.19
6.8499999 -0.51999998 -1.743 0.25999999
6.8400002 -0.49700001 -1.74 0.19
6.848 -0.48699999 -1.742 0.23
6.8340001 -0.465 -1.738 0.22
6.8379998 -0.44299999 -1.739 0.2
6.8410001 -0.42199999 -1.739 0.25
6.8600001 -0.40099999 -1.744 0.22
6.8470001 -0.37900001 -1.74 0.23
6.8499999 -0.35800001 -1.7410001 0.19
6.862 -0.347 -1.744 0.25
6.8309999 -0.32499999 -1.735 0.18000001
6.8509998 -0.30399999 -1.74 0.25
6.836 -0.28200001 -1.7359999 0.18000001
6.8530002 -0.26100001 -1.74 0.23999999
6.8439999 -0.23899999 -1.738 0.19
6.8559999 -0.229 -1.7410001 0.23
6.8600001 -0.207 -1.742 0.20999999
6.8610001 -0.186 -1.742 0.12
6.8629999 -0.164 -1.742 0.20999999
6.8540001 -0.142 -1.74 0.2
6.8569999 -0.121 -1.74 0.19
6.8610001 -0.098999999 -1.7410001 0.11
6.848 -0.088 -1.738 0.18000001
6.8629999 -0.067000002 -1.742 0.22
6.8600001 -0.045000002 -1.7410001 0.1
6.8579998 -0.024 -1.74 0.20999999
6.8600001 -0.0020000001 -1.7410001 0.2
6.585 0.017999999 -1.724 0.1
6.5840001 0.039000001 -1.724 0.2
6.586 0.059999999 -1.725 0.2
6.5900002 0.079999998 -1.726 0.1
6.5799999 0.090999998 -1.723 0.19
6.5840001 0.111 -1.724 0.11
6.5809999 0.132 -1.724 0.19
6.5770001 0.153 -1.723 0.1
6.5840001 0.17299999 -1.725 0.2
6.5799999 0.19400001 -1.724 0.1
6.585 0.215 -1.725 0.2
6.573 0.22499999 -1.722 0.2
6.5819998 0.24600001 -1.725 0.1
6.573 0.266 -1.723 0.18000001
6.5780001 0.287 -1.724 0.11
6.5700002 0.30700001 -1.722 0.18000001
6.572 0.32800001 -1.723 0.1
6.5799999 0.33899999 -1.725 0.2
6.5819998 0.36000001 -1.726 0.1
6.5949998 0.38100001 -1.73 0.18000001
6.5760002 0.40099999 -1.725 0.20999999
6.579 0.42199999 -1.726 0.1
6.5679998 0.442 -1.724 0.20999999
6.5619998 0.46200001 -1.723 0.11
6.5710001 0.47299999 -1.725 0.18000001
6.5640001 0.493 -1.724 0.1
6.5630002 0.514 -1.724 0.19
6.5669999 0.53500003 -1.725 0.20999999
6.5630002 0.55599999 -1.725 0.1
6.5630002 0.57599998 -1.725 0.2
6.5609999 0.597 -1.725 0.2
6.5549998 0.60699999 -1.724 0.090000004
6.5599999 0.62800002 -1.726 0.2
6.5539999 0.648 -1.725 0.11
6.5599999 0.67000002 -1.727 0.18000001
6.5479999 0.68900001 -1.724 0.11
6.5539999 0.71100003 -1.726 0.18000001
6.5339999 0.72899997 -1.722 0.22
6.5349998 0.74000001 -1.722 0.19
6.533 0.75999999 -1.722 0.23
6.546 0.78299999 -1.726 0.20999999
6.5240002 0.801 -1.721 0.20999999
6.5370002 0.82300001 -1.725 0.20999999
6.5170002 0.84200001 -1.72 0.22
6.5139999 0.86199999 -1.72 0.22
6.5240002 0.87400001 -1.724 0.2
6.5100002 0.89300001 -1.72 0.23999999
6.5279999 0.91600001 -1.726 0.2
6.4990001 0.93300003 -1.719 0.12
6.4860001 0.95200002 -1.716 0.20999999
6.4959998 0.97399998 -1.72 0.20999999
6.487 0.98299998 -1.7180001 0.25
6.4780002 1.003 -1.716 0.23999999
6.487 1.025 -1.719 0.23
6.48 1.045 -1.7180001 0.20999999
6.4689999 1.064 -1.716 0.28
6.4619999 1.084 -1.715 0.25
6.46 1.104 -1.716 0.25999999
6.46 1.115 -1.716 0.27000001
6.4429998 1.133 -1.712 0.28999999
6.4510002 1.155 -1.716 0.25999999
6.4419999 1.174 -1.714 0.28
6.4510002 1.197 -1.7180001 0.25999999
6.4530001 1.2180001 -1.719 0.28999999
6.4359999 1.2359999 -1.716 0.27000001
6.4359999 1.2460001 -1.716 0.30000001
6.4380002 1.268 -1.7180001 0.28
6.4219999 1.286 -1.715 0.28999999
6.4219999 1.307 -1.716 0.27000001
6.4219999 1.3279999 -1.717 0.28999999
6.408 1.346 -1.714 0.30000001
6.4060001 1.3660001 -1.715 0.28
6.4039998 1.376 -1.715 0.25999999
6.3860002 1.3940001 -1.711 0.28999999
6.395 1.4170001 -1.715 0.31999999
6.3870001 1.436 -1.7130001 0.25999999
6.375 1.454 -1.711 0.33000001
6.3740001 1.475 -1.712 0.28999999
6.3649998 1.494 -1.711 0.31
6.3699999 1.506 -1.7130001 0.30000001
6.3600001 1.525 -1.712 0.27000001
6.3509998 1.544 -1.711 0.28999999
6.3429999 1.563 -1.71 0.28999999
6.342 1.584 -1.711 0.33000001
6.342 1.605 -1.712 0.30000001
6.3299999 1.613 -1.71 0.28999999
6.3270001 1.633 -1.71 0.28
6.3239999 1.653 -1.711 0.31
6.322 1.674 -1.712 0.31
6.2969999 1.689 -1.706 0.20999999
6.2800002 1.705 -1.7029999 0.36000001
6.2670002 1.723 -1.7 0.31999999
6.2810001 1.737 -1.705 0.34
6.27 1.756 -1.704 0.34
6.2589998 1.774 -1.702 0.34999999
6.2519999 1.793 -1.702 0.38999999
6.263 1.817 -1.706 0.38
6.2529998 1.836 -1.705 0.28999999
6.2579999 1.859 -1.709 0.30000001
6.2519999 1.867 -1.7079999 0.28999999
6.2389998 1.885 -1.705 0.30000001
6.2340002 1.905 -1.706 0.31999999
6.223 1.923 -1.704 0.30000001
6.2220001 1.944 -1.706 0.31999999
6.2179999 1.964 -1.706 0.28999999
6.2080002 1.983 -1.705 0.30000001
6.2030001 1.992 -1.705 0.30000001
6.204 2.0139999 -1.707 0.30000001
6.1960001 2.033 -1.706 0.30000001
6.1929998 2.053 -1.7079999 0.30000001
6.1739998 2.0680001 -1.704 0.30000001
6.1789999 2.0910001 -1.707 0.28999999
6.164 2.098 -1.704 0.28999999
6.1539998 2.1159999 -1.7029999 0.28999999
6.158 2.1389999 -1.706 0.28999999
6.1440001 2.1559999 -1.704 0.28999999
6.1370001 2.175 -1.704 0.30000001
6.138 2.197 -1.706 0.30000001
6.118 2.211 -1.702 0.31
6.1110001 2.22 -1.701 0.31
6.1129999 2.2420001 -1.704 0.31999999
6.1209998 2.267 -1.7079999 0.31
6.1129999 2.286 -1.7079999 0.31999999
6.1129999 2.3080001 -1.71 0.31999999
6.0970001 2.3239999 -1.7079999 0.30000001
6.0970001 2.3340001 -1.709 0.31
6.0840001 2.352 -1.707 0.25999999
6.046 2.359 -1.698 0.31
6.0139999 2.368 -1.6900001 0.37
6.006 2.3870001 -1.6900001 0.33000001
5.9899998 2.402 -1.688 0.41
5.9640002 2.414 -1.682 0.37
5.9299998 2.411 -1.673 0.36000001
5.9260001 2.431 -1.674 0.40000001
5.9219999 2.451 -1.675 0.34999999
5.8499999 2.4430001 -1.656 0.34
5.8439999 2.4619999 -1.656 0.36000001
5.8610001 2.4909999 -1.664 0.37
5.7880001 2.4820001 -1.6440001 0.31
5.671 2.4430001 -1.609 0.31999999
5.684 2.47 -1.6160001 0.33000001
5.6459999 2.474 -1.607 0.34999999
5.6170001 2.483 -1.6 0.37
5.6290002 2.5090001 -1.6059999 0.37
5.6830001 2.5539999 -1.625 0.31999999
5.421 2.4590001 -1.5470001 0.34
5.4390001 2.477 -1.554 0.34
5.3990002 2.4790001 -1.544 0.36000001
5.2620001 2.437 -1.5039999 0.34
5.415 2.5280001 -1.554 0.40000001
5.3499999 2.5179999 -1.536 0.31999999
5.1919999 2.464 -1.489 0.34
5.2989998 2.5250001 -1.524 0.33000001
5.3730001 2.5799999 -1.549 0.30000001
5.1960001 2.517 -1.497 0.40000001
5.1069999 2.494 -1.472 0.34999999
5.0229998 2.473 -1.448 0.34999999
4.9720001 2.467 -1.434 0.38
4.9569998 2.4790001 -1.432 0.20999999
5.0029998 2.5120001 -1.448 0.41
4.8130002 2.4360001 -1.391 0.25999999
5.0890002 2.5940001 -1.48 0.36000001
5.119 2.6300001 -1.492 0.38
4.934 2.5550001 -1.436 0.28999999
4.8249998 2.5190001 -1.404 0.40000001
4.849 2.5510001 -1.414 0.22
4.8179998 2.5439999 -1.406 0.46000001
4.96 2.638 -1.4529999 0.27000001
5.152 2.76 -1.517 0.43000001
4.8699999 2.6300001 -1.4299999 0.23
5.0669999 2.756 -1.495 0.41999999
5.0349998 2.7590001 -1.488 0.30000001
4.947 2.7219999 -1.461 0.31999999
4.7010002 2.6070001 -1.385 0.34
4.8140001 2.6889999 -1.424 0.27000001
4.5770001 2.576 -1.351 0.28999999
4.9780002 2.8199999 -1.482 0.38
4.6069999 2.632 -1.3660001 0.30000001
4.7600002 2.737 -1.418 0.37
4.7690001 2.753 -1.4220001 0.34
4.665 2.7130001 -1.391 0.40000001
4.6009998 2.6960001 -1.373 0.38999999
4.7740002 2.816 -1.432 0.33000001
4.5009999 2.6760001 -1.346 0.2
4.71 2.8180001 -1.4170001 0.36000001
4.6069999 2.777 -1.386 0.41
4.816 2.9119999 -1.456 0.25999999
4.6430001 2.8280001 -1.403 0.44999999
4.4520001 2.7320001 -1.3430001 0.34
4.691 2.898 -1.424 0.27000001
4.8109999 2.9920001 -1.467 0.33000001
4.8720002 3.0510001 -1.49 0.36000001
5.1290002 3.2320001 -1.5779999 0.23999999
5.039 3.187 -1.55 0.5
4.6609998 2.971 -1.428 0.33000001
5.2859998 3.388 -1.638 0.25
5.0539999 3.2639999 -1.5650001 0.28999999
4.8239999 3.138 -1.492 0.23
4.7280002 3.0969999 -1.4630001 0.38
4.4330001 2.9260001 -1.367 0.28999999
4.3169999 2.8599999 -1.33 0.28999999
4.3330002 2.8889999 -1.3380001 0.50999999
4.447 2.9849999 -1.38 0.25
4.2519999 2.875 -1.317 0.25999999
4.9549999 3.368 -1.558 0.44
4.618 3.1619999 -1.447 0.19
4.6079998 3.1659999 -1.446 0.5
4.6550002 3.2190001 -1.465 0.18000001
4.8369999 3.3659999 -1.53 0.46000001
4.5560002 3.194 -1.438 0.28999999
4.6900001 3.3080001 -1.487 0.19
4.8039999 3.411 -1.53 0.50999999
4.6900001 3.342 -1.493 0.40000001
4.2350001 3.0409999 -1.34 0.23999999
4.3400002 3.1359999 -1.3789999 0.27000001
4.7690001 3.4660001 -1.531 0.33000001
4.7529998 3.477 -1.529 0.27000001
4.7210002 3.4760001 -1.522 0.34
4.559 3.3800001 -1.469 0.19
4.6100001 3.4289999 -1.489 0.25999999
4.3060002 3.2260001 -1.387 0.31
4.1479998 3.1289999 -1.335 0.41999999
4.4250002 3.3570001 -1.4349999 0.23
4.3330002 3.3099999 -1.4069999 0.36000001
4.3649998 3.3559999 -1.4220001 0.22
4.3530002 3.369 -1.421 0.23
4.256 3.3050001 -1.3890001 0.38999999
4.2399998 3.3139999 -1.387 0.40000001
4.2810001 3.3670001 -1.405 0.27000001
4.2129998 3.335 -1.385 0.43000001
4.211 3.3559999 -1.388 0.30000001
4.2290001 3.392 -1.398 0.37
4.21 3.398 -1.395 0.36000001
4.1729999 3.3789999 -1.3839999 0.33000001
4.1799998 3.4070001 -1.39 0.38
4.1110001 3.372 -1.369 0.41999999
4.099 3.3840001 -1.369 0.36000001
4.1030002 3.4089999 -1.374 0.38
4.0939999 3.4230001 -1.374 0.47
5.5180001 4.632 -1.898 0.17
4.0819998 3.4460001 -1.376 0.44999999
4.1599998 3.533 -1.408 0.13
4.0469999 3.461 -1.3710001 0.25
4.013 3.4530001 -1.363 0.50999999
4.0809999 3.5339999 -1.392 0.30000001
4.1409998 3.608 -1.418 0.23999999
5.4569998 4.7740002 -1.911 0.25999999
3.796 3.342 -1.296 0.30000001
3.7739999 3.3429999 -1.2920001 0.38
3.7809999 3.3710001 -1.298 0.34999999
3.983 3.572 -1.378 0.47
3.9349999 3.5510001 -1.364 0.20999999
3.882 3.526 -1.349 0.38999999
3.8940001 3.5469999 -1.355 0.28
3.586 3.29 -1.243 0.25999999
3.55 3.2780001 -1.233 0.30000001
3.6289999 3.3710001 -1.267 0.30000001
3.642 3.405 -1.276 0.30000001
3.615 3.401 -1.27 0.27000001
3.4779999 3.2939999 -1.221 0.25
3.402 3.233 -1.194 0.34999999
3.395 3.2460001 -1.1950001 0.34
3.4059999 3.277 -1.2029999 0.34999999
3.4230001 3.3139999 -1.214 0.34999999
3.4890001 3.3989999 -1.244 0.30000001
3.467 3.3989999 -1.24 0.30000001
3.4489999 3.392 -1.235 0.28999999
3.4389999 3.4030001 -1.235 0.31
3.405 3.391 -1.226 0.28999999
3.3859999 3.3929999 -1.222 0.31
3.3699999 3.3989999 -1.22 0.31
3.3510001 3.401 -1.217 0.30000001
3.322 3.3940001 -1.21 0.28999999
3.3169999 3.3989999 -1.21 0.28999999
3.293 3.395 -1.204 0.28999999
3.2690001 3.392 -1.199 0.28999999
3.2509999 3.395 -1.196 0.30000001
3.233 3.3970001 -1.193 0.28999999
3.2060001 3.391 -1.187 0.27000001
3.2019999 3.408 -1.189 0.20999999
3.1930001 3.4089999 -1.188 0.25
3.1730001 3.4089999 -1.184 0.23
3.158 3.414 -1.182 0.2
3.141 3.4170001 -1.1799999 0.25999999
3.1259999 3.4230001 -1.178 0.25
3.115 3.4330001 -1.178 0.25999999
3.1010001 3.438 -1.176 0.22
3.0899999 3.437 -1.174 0.13
3.0480001 3.4130001 -1.161 0.2
3.0610001 3.448 -1.171 0.25
3.05 3.4579999 -1.171 0.25999999
3.0309999 3.4590001 -1.168 0.30000001
3.023 3.471 -1.169 0.30000001
2.993 3.4590001 -1.161 0.20999999
2.961 3.4330001 -1.149 0.07
2.8139999 3.2850001 -1.091 0.14
2.938 3.45 -1.149 0.23
2.9200001 3.451 -1.146 0.23999999
2.915 3.467 -1.148 0.19
2.8970001 3.467 -1.145 0.28999999
2.875 3.4630001 -1.14 0.27000001
2.862 3.4590001 -1.137 0.28999999
2.846 3.4619999 -1.135 0.28999999
2.8180001 3.45 -1.127 0.20999999
2.7880001 3.4349999 -1.119 0.27000001
2.7609999 3.424 -1.112 0.25
2.7279999 3.4059999 -1.102 0.2
2.694 3.3740001 -1.089 0.27000001
2.6800001 3.378 -1.087 0.23999999
2.6570001 3.372 -1.082 0.27000001
2.642 3.3740001 -1.08 0.28
2.6240001 3.3729999 -1.077 0.27000001
2.6059999 3.372 -1.073 0.28999999
2.596 3.381 -1.073 0.28
2.575 3.365 -1.066 0.28999999
2.5680001 3.3770001 -1.068 0.28999999
2.5469999 3.372 -1.063 0.28
2.5420001 3.3870001 -1.066 0.25999999
2.5209999 3.382 -1.061 0.27000001
2.5020001 3.3789999 -1.057 0.20999999
2.4809999 3.3729999 -1.052 0.28
2.474 3.3729999 -1.051 0.25
2.4579999 3.375 -1.049 0.25
2.4419999 3.375 -1.046 0.25999999
2.4219999 3.3699999 -1.0420001 0.2
2.414 3.381 -1.043 0.27000001
2.3940001 3.3759999 -1.039 0.23999999
2.3800001 3.3670001 -1.034 0.25999999
2.3670001 3.3710001 -1.033 0.25
2.3399999 3.355 -1.025 0.2
2.329 3.3629999 -1.025 0.27000001
2.3199999 3.3710001 -1.026 0.23999999
2.2980001 3.3629999 -1.02 0.2
2.286 3.3670001 -1.0190001 0.27000001
2.2780001 3.3670001 -1.018 0.23999999
2.2590001 3.362 -1.0140001 0.19
2.243 3.3610001 -1.011 0.25999999
2.2309999 3.3659999 -1.011 0.22
2.21 3.3570001 -1.005 0.18000001
2.2030001 3.369 -1.007 0.25999999
2.1889999 3.3710001 -1.005 0.23
2.174 3.3599999 -1 0.19
2.1619999 3.365 -1 0.25999999
2.1459999 3.362 -0.99699998 0.23999999
2.1389999 3.3759999 -0.99900001 0.20999999
2.1159999 3.3629999 -0.99199998 0.23999999
2.118 3.3889999 -0.99900001 0.19
2.095 3.3759999 -0.99199998 0.22
2.0940001 3.3859999 -0.99400002 0.2
2.0799999 3.3870001 -0.99299997 0.20999999
2.0880001 3.4230001 -1.003 0.16
2.0840001 3.441 -1.006 0.25
2.0450001 3.402 -0.991 0.23
2.3050001 3.855 -1.138 0.2
2.2520001 3.7939999 -1.115 0.1
2.1760001 3.681 -1.077 0.14
2.214 3.7720001 -1.105 0.18000001
2.1589999 3.7060001 -1.081 0.31
2.0599999 3.563 -1.0319999 0.090000004
1.959 3.415 -0.98199999 0.20999999
2.099 3.6830001 -1.067 0.050000001
2.0120001 3.5569999 -1.024 0.17
1.934 3.4330001 -0.98299998 0.25
1.97 3.523 -1.01 0.23999999
1.911 3.444 -0.98299998 0.23
1.929 3.5020001 -0.99900001 0.2
2.142 3.9100001 -1.128 0.20999999
2.0380001 3.75 -1.075 0.25
2.1849999 4.0469999 -1.168 0.28
2.1730001 4.04 -1.165 0.28
2.165 4.0560002 -1.1670001 0.28999999
2.096 3.9590001 -1.1339999 0.28
1.84 3.5079999 -0.98900002 0.28
1.904 3.655 -1.034 0.28999999
1.978 3.825 -1.086 0.20999999
1.96 3.819 -1.082 0.33000001
2.02 3.9489999 -1.122 0.18000001
2.01 3.96 -1.123 0.30000001
1.83 3.6389999 -1.02 0.20999999
1.9680001 3.938 -1.113 0.27000001
1.7640001 3.5639999 -0.99299997 0.25999999
1.755 3.575 -0.995 0.27000001
1.8380001 3.7550001 -1.051 0.20999999
1.669 3.4419999 -0.95099998 0.25999999
1.849 3.8380001 -1.073 0.059999999
1.706 3.573 -0.98900002 0.18000001
1.688 3.5650001 -0.98400003 0.27000001
1.876 3.987 -1.114 0.15000001
1.821 3.9030001 -1.086 0.28999999
1.827 3.931 -1.094 0.090000004
1.683 3.6559999 -1.007 0.079999998
1.63 3.573 -0.97899997 0.079999998
1.701 3.756 -1.034 0.079999998
1.717 3.823 -1.053 0.079999998
1.693 3.8 -1.045 0.14
1.5599999 3.5369999 -0.96200001 0.050000001
1.649 3.75 -1.027 0.15000001
1.587 3.642 -0.99199998 0.050000001
1.527 3.536 -0.958 0.16
1.552 3.6240001 -0.98400003 0.1
1.5650001 3.6860001 -1.001 0.17
1.477 3.5120001 -0.94599998 0.18000001
1.493 3.582 -0.96600002 0.30000001
1.4529999 3.5009999 -0.94099998 0.23
1.66 4.026 -1.099 0.19
1.617 3.96 -1.0779999 0.039999999
1.576 3.895 -1.057 0.17
1.47 3.6689999 -0.986 0.25
1.566 3.9389999 -1.067 0.20999999
1.474 3.7460001 -1.007 0.23
1.3940001 3.562 -0.95099998 0.22
1.459 3.76 -1.0089999 0.33000001
1.396 3.635 -0.97000003 0.22
1.375 3.6140001 -0.963 0.14
1.364 3.619 -0.963 0.18000001
1.4220001 3.8069999 -1.018 0.25
1.429 3.8410001 -1.027 0.28999999
1.414 3.8380001 -1.025 0.38
1.372 3.763 -1.002 0.2
1.429 3.954 -1.057 0.31
1.332 3.727 -0.98799998 0.23
1.29 3.648 -0.963 0.22
1.4349999 4.0890002 -1.0930001 0.25999999
1.395 3.9949999 -1.0650001 0.13
1.209 3.507 -0.91799998 0.2
1.351 3.951 -1.049 0.23
1.276 3.7750001 -0.99599999 0.25
1.2539999 3.7479999 -0.986 0.23
1.306 3.9400001 -1.0420001 0.28
1.3 3.9619999 -1.0470001 0.25
1.309 4.0110002 -1.061 0.25
1.283 3.9749999 -1.05 0.41999999
1.233 3.8640001 -1.016 0.23999999
1.309 4.1409998 -1.096 0.28999999
1.248 3.9949999 -1.052 0.30000001
1.242 4.0209999 -1.058 0.31999999
1.183 3.8740001 -1.0140001 0.2
1.184 3.898 -1.02 0.30000001
1.145 3.8169999 -0.99599999 0.25
1.2079999 4.0669999 -1.068 0.25
1.209 4.1149998 -1.081 0.30000001
1.155 3.9820001 -1.041 0.28999999
1.158 4.0380001 -1.056 0.25
1.159 4.0890002 -1.0700001 0.20999999
1.158 4.1079998 -1.075 0.38
1.159 4.1609998 -1.089 0.34999999
1.141 4.1469998 -1.084 0.30000001
1.13 4.1589999 -1.087 0.31
1.099 4.098 -1.068 0.30000001
1.087 4.1030002 -1.068 0.28999999
1.064 4.0710001 -1.058 0.23999999
1.069 4.1139998 -1.0700001 0.28
1.062 4.1399999 -1.077 0.28999999
1.05 4.1469998 -1.0779999 0.30000001
1.036 4.1459999 -1.077 0.30000001
1.023 4.1490002 -1.077 0.34
1.013 4.164 -1.08 0.30000001
0.99599999 4.152 -1.075 0.31
0.98799998 4.1479998 -1.074 0.31999999
0.97600001 4.1550002 -1.075 0.30000001
0.96200001 4.1560001 -1.074 0.34
0.949 4.1570001 -1.074 0.33000001
0.91900003 4.0869999 -1.053 0.25999999
0.92000002 4.152 -1.071 0.30000001
0.90399998 4.1409998 -1.067 0.34999999
0.83499998 3.8610001 -0.986 0.28
0.81400001 3.826 -0.97500002 0.23
0.83099997 3.96 -1.013 0.25999999
0.85699999 4.1440001 -1.0650001 0.34999999
0.82499999 4.0560002 -1.039 0.25
0.80900002 4.0430002 -1.034 0.31
0.82099998 4.131 -1.059 0.30000001
0.80900002 4.1409998 -1.061 0.31
0.75700003 3.947 -1.005 0.30000001
0.74000001 3.927 -0.99900001 0.20999999
0.71399999 3.859 -0.97899997 0.34
0.69300002 3.8110001 -0.96399999 0.23
0.70099998 3.924 -0.99599999 0.27000001
0.69199997 3.9070001 -0.991 0.33000001
0.65200001 3.757 -0.94800001 0.20999999
0.64999998 3.8139999 -0.963 0.28999999
0.67699999 4.0419998 -1.027 0.33000001
0.61500001 3.7520001 -0.94400001 0.30000001
