# .PCD v0.7 - Point Cloud Data file format
VERSION 0.7
FIELDS x y z intensity
SIZE 4 4 4 4
TYPE F F F F
COUNT 1 1 1 1
WIDTH 1414
HEIGHT 1
VIEWPOINT 0 0 0 1 0 0 0
POINTS 1414
DATA ascii
8.5570002 -44.388 -0.15000001 0.18000001
8.7550001 -44.660999 -0.153 0.30000001
8.8859997 -44.955002 -0.155 0.20999999
9.0860004 -45.223 -0.15800001 0.17
9.2889996 -45.492001 -0.16 0.13
9.5010004 -45.798 -0.163 0.17
9.7089996 -46.075001 -0.16500001 0.31
9.9189997 -46.351002 -0.168 0.19
10.138 -46.655998 -0.171 0.17
10.28 -46.955002 -0.17299999 0.16
10.502 -47.259998 -0.176 0
6.8239999 -28.337 -0.024 0.99000001
6.9629998 -28.521999 -0.026000001 0.74000001
7.0229998 -28.381001 -0.025 0
10.694 -42.694 -0.141 0
11.278 -43.013 -0.145 0
11.487 -43.257999 -0.147 0.07
7.1789999 -26.66 -0.012 0.12
7.2340002 -26.531 -0.011 0.28999999
7.2659998 -26.320999 -0.0089999996 0
7.342 -26.275 -0.0089999996 0
7.8390002 -27.556 -0.02 0.28999999
7.9510002 -27.620001 -0.021 0.31999999
8.0939999 -27.787001 -0.022 0.25
8.1379995 -27.615 -0.021 0.25
8.2609997 -27.709999 -0.022 0.28
8.2329998 -26.993999 -0.017000001 0.28999999
8.2279997 -26.826 -0.015 0.34
8.3479996 -26.917 -0.016000001 0.38999999
8.3879995 -26.747 -0.015 0.31999999
8.4169998 -26.547001 -0.014 0.31
8.4870005 -26.479 -0.013 0.34
8.5839996 -26.496 -0.014 0.34999999
8.6210003 -26.327999 -0.012 0.37
8.6719999 -26.343 -0.013 0.31
8.7530003 -26.309999 -0.013 0.36000001
8.8780003 -26.409 -0.014 0.34999999
8.9519997 -26.354 -0.013 0.38
9.0760002 -26.447001 -0.014 0.33000001
9.177 -26.469999 -0.015 0.37
6.1880002 -17.642 0.059 0.2
6.2160001 -17.634001 0.059 0.49000001
10.142 -28.534 -0.033 0.20999999
10.175 -28.341999 -0.030999999 0.23
7.381 -20.337999 0.035 0.25
7.4130001 -20.228001 0.035999998 0.41
7.4419999 -20.108999 0.037 0.38999999
7.5229998 -20.134001 0.037 0.41
7.5279999 -20.051001 0.037 0.38
7.5799999 -19.999001 0.037 0.44999999
7.6479998 -19.988001 0.037 0.40000001
7.7189999 -19.985001 0.037 0.31
7.7909999 -19.987 0.037 0.52999997
7.8829999 -20.035 0.035999998 0.40000001
11.054 -27.865 -0.029999999 0.30000001
11.103 -27.862 -0.030999999 0.31999999
11.17 -27.775 -0.029999999 0.41
12.502 -30.816 -0.056000002 0.11
12.89 -31.208 -0.059999999 0.41
12.919 -31.000999 -0.059 0.17
13.835 -32.911999 -0.075999998 0.15000001
12.863 -30.461 -0.055 0.15000001
11.453 -26.879 -0.024 0.15000001
9.7700005 -22.719999 0.011 0.15000001
11.468 -26.450001 -0.021 0.51999998
11.473 -26.235001 -0.02 0.20999999
11.507 -26.089001 -0.018999999 0
11.58 -26.032 -0.018999999 0
11.578 -25.702 -0.016000001 0.23999999
11.425 -25.148001 -0.012 0.25999999
11.44 -24.972 -0.011 0.33000001
11.484 -24.861 -0.0099999998 0.16
8.4300003 -17.937 0.050000001 0.28
8.4350004 -17.872999 0.050000001 0.31999999
8.4799995 -17.823 0.050000001 0.30000001
8.5340004 -17.792999 0.050000001 0.34999999
8.5930004 -17.773001 0.050000001 0.34
8.6339998 -17.716 0.050999999 0.17
8.5570002 -17.417 0.052999999 0.61000001
8.6169996 -17.400999 0.052999999 0.38999999
12.213 -24.59 -0.011 0.23
12.232 -24.434999 -0.0089999996 0.23
8.7360001 -17.299 0.052999999 0.33000001
8.7939997 -17.278 0.052999999 0.31999999
8.7019997 -16.964001 0.056000002 0.36000001
8.7819996 -16.988001 0.055 0.38
8.7440004 -16.785 0.057 0.40000001
8.7550001 -16.743 0.057 0.38999999
8.7349997 -16.577 0.057999998 0.30000001
8.783 -16.541 0.057999998 0.46000001
8.8380003 -16.52 0.057999998 0.36000001
8.8760004 -16.466 0.057999998 0.41
8.9130001 -16.41 0.059 0.43000001
8.974 -16.399 0.059 0.34
8.9449997 -16.285 0.059 0.41
8.9840002 -16.236 0.059999999 0.31999999
9.0240002 -16.188 0.059999999 0.46000001
9.033 -16.084999 0.061000001 0.30000001
9.0970001 -16.080999 0.059999999 0.49000001
9.2150002 -16.17 0.059 0.36000001
9.3439999 -16.278 0.057999998 0.40000001
9.323 -16.181999 0.059 0.30000001
9.2840004 -15.997 0.059999999 0.46000001
9.3809996 -16.049 0.059 0.33000001
9.4530001 -16.056 0.059 0.37
9.4879999 -16 0.059 0.31999999
9.5579996 -16.003 0.059 0.47999999
9.5509996 -15.878 0.059999999 0.30000001
9.6680002 -16.016001 0.057999998 0.5
9.7299995 -16.004 0.057999998 0.31
9.7729998 -15.962 0.057999998 0.50999999
9.8450003 -15.967 0.057999998 0.20999999
9.8030005 -15.788 0.059 0.56999999
9.948 -15.909 0.057999998 0.23
9.8789997 -15.688 0.059999999 0.5
9.9399996 -15.73 0.059 0.36000001
10.04 -15.779 0.059 0.41999999
10.139 -15.824 0.057999998 0.44999999
10.203 -15.816 0.057999998 0.41999999
10.241 -15.765 0.057999998 0.31
10.35 -15.824 0.057 0.41999999
10.482 -15.916 0.056000002 0.37
10.558 -15.978 0.055 0.44
11.177 -16.802 0.046999998 0.16
10.442 -15.587 0.057999998 0.38999999
10.524 -15.604 0.057999998 0.34999999
10.579 -15.58 0.057999998 0.54000002
10.593 -15.495 0.057999998 0.34999999
10.778 -15.661 0.056000002 0.36000001
10.718 -15.521 0.057 0.27000001
10.809 -15.548 0.057 0.41
10.99 -15.704 0.055 0.41
11.043 -15.674 0.055 0.25
11.107 -15.661 0.055 0.44
11.062 -15.494 0.056000002 0.31
11.09 -15.43 0.056000002 0.43000001
11.12 -15.42 0.056000002 0.38
11.192 -15.418 0.056000002 0.34
11.257 -15.405 0.056000002 0.37
11.352 -15.434 0.055 0.31999999
11.409 -15.41 0.055 0.5
11.589 -15.55 0.052999999 0.33000001
11.797 -15.727 0.050999999 0.40000001
11.834 -15.724 0.050999999 0.22
11.788 -15.561 0.052000001 0.5
11.82 -15.502 0.052000001 0.28999999
11.792 -15.364 0.052999999 0.34999999
11.895 -15.399 0.052999999 0.34999999
11.984 -15.413 0.052000001 0.47999999
12.125 -15.495 0.050999999 0.31999999
12.195 -15.535 0.050000001 0.33000001
12.178 -15.413 0.050999999 0.41
12.262 -15.418 0.050999999 0.28999999
12.214 -15.26 0.052000001 0.47
12.388 -15.379 0.050000001 0.27000001
12.344 -15.224 0.050999999 0.43000001
12.475 -15.288 0.050000001 0.34
12.695 -15.508 0.048 0.34
12.709 -15.427 0.048 0.36000001
12.713 -15.333 0.048999999 0.46000001
12.95 -15.52 0.046999998 0.34
13.007 -15.489 0.046999998 0.33000001
13.098 -15.498 0.046 0.30000001
13.153 -15.465 0.046 0.37
13.19 -15.459 0.046 0.31999999
13.276 -15.462 0.045000002 0.34
13.271 -15.358 0.046 0.25999999
13.329 -15.327 0.046 0.52999997
13.545 -15.478 0.044 0.23
15.183 -17.243999 0.025 0.27000001
15.383 -17.361 0.023 0.34999999
15.391 -17.316 0.023 0.41
15.363 -17.174999 0.024 0.28999999
15.291 -16.987 0.026000001 0.41
15.068 -16.632999 0.028999999 0.25
14.924 -16.370001 0.030999999 0.31999999
14.955 -16.299999 0.032000002 0.34
15.056 -16.308001 0.030999999 0.47999999
15.01 -16.205999 0.032000002 0.25
15.148 -16.253 0.030999999 0.34
15.296 -16.309 0.029999999 0.23
15.209 -16.114 0.030999999 0.36000001
15.151 -15.951 0.033 0.28999999
15.249 -15.954 0.032000002 0.33000001
15.242 -15.847 0.033 0.34
15.174 -15.726 0.034000002 0.28999999
15.274 -15.73 0.033 0.43000001
15.685 -16.052999 0.028999999 0.33000001
15.636 -15.903 0.029999999 0.44999999
15.735 -15.903 0.029999999 0.20999999
15.603 -15.671 0.032000002 0.38999999
15.722 -15.692 0.030999999 0.31
15.669 -15.59 0.032000002 0.30000001
16.158001 -15.977 0.027000001 0.37
16.132 -15.85 0.028000001 0.34
16.125999 -15.745 0.028000001 0.37
16.333 -15.848 0.027000001 0.40000001
16.417 -15.83 0.026000001 0.2
16.386999 -15.702 0.027000001 0.25
16.533001 -15.792 0.026000001 0.54000002
16.566999 -15.725 0.026000001 0.27000001
19.725 -18.612 -0.0080000004 0.34
19.847 -18.610001 -0.0089999996 0.31999999
19.979 -18.615999 -0.0089999996 0.34999999
20.110001 -18.621 -0.0099999998 0.31999999
20.243999 -18.627001 -0.011 0.31999999
20.339001 -18.656 -0.012 0.31
20.478001 -18.665001 -0.012 0.40000001
20.597 -18.655001 -0.013 0.17
20.754999 -18.68 -0.014 0.19
21.017 -18.798 -0.016000001 0.57999998
19.028 -16.801001 0.0060000001 0.43000001
19.035999 -16.754999 0.0060000001 0.23999999
19.177 -16.773001 0.0049999999 0.41999999
18.976999 -16.492001 0.0080000004 0.38
18.625999 -16.084 0.012 0.41
18.789 -16.122 0.011 0.36000001
18.812 -16.039 0.011 0.28999999
18.871 -15.988 0.011 0.30000001
18.974001 -16.024 0.0099999998 0.31
19.037001 -15.975 0.0099999998 0.44999999
19.011999 -15.852 0.011 0.33000001
19.028 -15.764 0.011 0.28999999
19.084999 -15.711 0.011 0.41999999
19.086 -15.611 0.012 0.43000001
19.132999 -15.55 0.012 0.28
19.358 -15.683 0.0099999998 0.31
19.370001 -15.592 0.0099999998 0.49000001
20.445 -16.247999 0 0.57999998
19.535 -15.423 0.0099999998 0.23
20.472 -16.059999 0.001 0.28
20.386 -15.89 0.0020000001 0.11
22.313999 -17.34 -0.017000001 0.12
22.540001 -17.402 -0.018999999 0.23999999
22.599001 -17.334 -0.018999999 0.28
22.153 -16.881001 -0.014 0.11
22.929001 -17.360001 -0.021 0.41
22.677 -17.056999 -0.017999999 0.16
22.538 -16.841999 -0.016000001 0.34
22.5 -16.757999 -0.015 0.34
22.559 -16.691999 -0.015 0.25999999
22.591 -16.606001 -0.015 0.25
22.677999 -16.561001 -0.015 0.28
22.289 -16.169001 -0.011 0.19
22.323 -16.087 -0.011 0.52999997
25.195 -17.981001 -0.037999999 0
22.416 -15.888 -0.011 0.13
22.409 -15.777 -0.0099999998 0.2
22.438 -15.693 -0.0099999998 0.34
22.507 -15.636 -0.0099999998 0.34
22.4 -15.457 -0.0089999996 0.28
22.768 -15.606 -0.012 0.33000001
22.775 -15.558 -0.011 0.28999999
22.870001 -15.518 -0.012 0.34999999
23.101999 -15.57 -0.014 0.36000001
23.194 -15.526 -0.014 0.30000001
23.479 -15.611 -0.016000001 0.30000001
23.622 -15.599 -0.017000001 0.37
23.778999 -15.596 -0.017999999 0.30000001
23.931999 -15.643 -0.018999999 0.34
24.056999 -15.617 -0.02 0.31999999
24.278999 -15.653 -0.022 0.34999999
24.426001 -15.639 -0.023 0.25
24.613001 -15.651 -0.024 0.41
24.813999 -15.669 -0.025 0.30000001
25.004999 -15.681 -0.027000001 0.34
25.143999 -15.713 -0.028000001 0.33000001
25.336 -15.722 -0.028999999 0.31
25.582001 -15.764 -0.030999999 0.30000001
25.893999 -15.845 -0.033 0.31
25.988001 -15.79 -0.034000002 0.31
26.164 -15.785 -0.035 0.27000001
26.323999 -15.769 -0.035999998 0.34999999
26.561001 -15.855 -0.037999999 0.34999999
26.659 -15.8 -0.037999999 0.31999999
27.038 -15.91 -0.041000001 0.28999999
27.172001 -15.875 -0.041999999 0.28
27.253 -15.807 -0.041999999 0.31999999
27.524 -15.849 -0.044 0.34
27.884001 -15.941 -0.046999998 0.23
27.820999 -15.846 -0.046 0.31999999
27.839001 -15.741 -0.046 0.31
27.868999 -15.643 -0.046 0.46000001
27.943001 -15.569 -0.046 0.33000001
28.179001 -15.585 -0.048 0.28999999
28.48 -15.635 -0.050000001 0.2
29.280001 -15.956 -0.057 0.22
29.434999 -15.98 -0.057999998 0
35.631001 -19.205 -0.113 0.13
35.657001 -19.075001 -0.113 0.16
35.694 -18.951 -0.113 0.23
35.738998 -18.830999 -0.113 0.1
35.856998 -18.75 -0.113 0
35.935001 -18.646999 -0.113 0
36.014 -18.615999 -0.114 0
36.104 -18.518999 -0.114 0
37.890999 -19.287001 -0.12899999 0
37.992001 -19.188999 -0.13 0.1
38.105999 -19.096001 -0.13 0.090000004
38.348 -19.066999 -0.132 0
37.66 -18.577 -0.125 0
37.636002 -18.492001 -0.125 0
37.813999 -18.431999 -0.126 0
37.813999 -18.285 -0.125 0
38.567001 -18.500999 -0.131 0
38.632 -18.382999 -0.131 0
38.664001 -18.249001 -0.131 0
37.014 -17.327 -0.116 0
38.488998 -17.945 -0.12899999 0
38.321999 -17.721001 -0.127 0
37.279999 -17.096001 -0.117 0
37.312 -16.969 -0.117 0
37.470001 -16.899 -0.118 0.07
37.855 -16.93 -0.121 0.090000004
38.276001 -16.975 -0.124 0.079999998
38.650002 -17.068001 -0.127 0
39.088001 -17.115 -0.13 0
40.626999 -17.638 -0.14300001 0
41.893002 -18.033001 -0.154 0
40.577 -17.313999 -0.142 0
40.965 -17.327999 -0.145 0
41.328999 -17.329 -0.147 0
41.740002 -17.424999 -0.15099999 0
42.133999 -17.434999 -0.154 0
42.536999 -17.445 -0.15700001 0
42.981998 -17.469999 -0.16 0
43.368999 -17.469 -0.163 0
48.544998 -19.381001 -0.206 0
48.671001 -19.254 -0.207 0
48.750999 -19.197001 -0.207 0
48.862999 -19.063999 -0.208 0
49.005001 -18.941999 -0.208 0
49.117001 -18.808001 -0.20900001 0
49.237 -18.677999 -0.20900001 0
49.380001 -18.554001 -0.20999999 0
49.487 -18.417 -0.20999999 0
49.591999 -18.368 -0.211 0
50.282001 -18.445 -0.21600001 0
51.062 -18.549 -0.222 0
51.862999 -18.656 -0.229 0
52.699001 -18.771 -0.235 0
53.563 -18.889999 -0.242 0
54.43 -19.004 -0.249 0
58.400002 -20.289 -0.28200001 0
58.479 -20.111 -0.28200001 0
58.839001 -20.028 -0.28400001 0
60.002998 -20.215 -0.29300001 0
60.436001 -20.149 -0.296 0
60.615002 -19.997999 -0.29699999 0
69.989998 -20.441999 -0.36899999 0
48.360001 -13.214 -0.189 0
78.823997 -11.715 -0.42199999 0
23.718 -1.6210001 0.018999999 0
23.608999 -1.539 0.018999999 0
23.563999 -1.461 0.02 0
23.539 -1.386 0.02 0
23.533001 -1.311 0.02 0
23.517 -1.2359999 0.02 0
23.518999 -1.1619999 0.02 0
23.525 -1.125 0.02 0
23.540001 -1.052 0.02 0
23.547001 -0.97799999 0.02 0
23.57 -0.90499997 0.02 0
23.607 -0.83200002 0.02 0
23.641001 -0.759 0.018999999 0
23.698 -0.68599999 0.018999999 0
23.781 -0.65100002 0.017999999 0
23.996 -0.58200002 0.017000001 0
75.666 2.105 -0.85600001 0
78.764999 5.4169998 -0.90100002 0
77.999001 5.6100001 -0.89099997 0
77.184998 5.7950001 -0.87900001 0
76.413002 5.9780002 -0.86900002 0
75.574997 6.151 -0.85699999 0
74.800003 6.2059999 -0.847 0
74.077003 6.381 -0.83700001 0
64.726997 5.777 -0.70499998 0
72.724998 6.724 -0.81800002 0
72.028999 6.888 -0.80900002 0
71.407997 7.0549998 -0.80000001 0
71.097 7.25 -0.796 0
70.712997 7.323 -0.79100001 0
70.527 7.527 -0.78899997 0
70.264 7.7220001 -0.78500003 0
69.978996 7.914 -0.78200001 0
69.664001 8.1000004 -0.778 0
69.367996 8.2860003 -0.77399999 0
69.314003 8.5 -0.773 0
69.442001 8.6269999 -0.77499998 0
69.218002 8.8199997 -0.773 0
69.143997 9.0310001 -0.77200001 0
69.406998 9.2880001 -0.77600002 0
62.715 8.5900002 -0.68199998 0
69.435997 9.7360001 -0.77700001 0
69.390999 9.9519997 -0.77700001 0
69.348 10.057 -0.77700001 0
69.662003 10.326 -0.78200001 0
69.709999 10.557 -0.78299999 0
69.647003 10.772 -0.78200001 0
69.429001 10.962 -0.77999997 0
69.325996 11.168 -0.77899998 0
69.417999 11.407 -0.78100002 0
69.787003 11.581 -0.78600001 0
48.209999 8.1479998 -0.47999999 0
70.015999 12.071 -0.79000002 0
70.296997 12.347 -0.79500002 0
70.175003 12.553 -0.79400003 0
70.195 12.785 -0.79500002 0
51.925999 9.6190004 -0.53500003 0
51.890999 9.6969995 -0.53399998 0
51.935001 9.8739996 -0.53600001 0
70.649002 13.672 -0.80299997 0
70.609001 13.894 -0.80299997 0
70.727997 14.149 -0.80599999 0
48.812 9.9160004 -0.493 0.11
48.424999 9.9960003 -0.48800001 0
47.897999 9.9650002 -0.47999999 0.11
47.804001 10.102 -0.479 0.18000001
47.498001 10.193 -0.47499999 0.19
47.516998 10.354 -0.47600001 0.23
47.417 10.488 -0.47499999 0.18000001
47.001999 10.551 -0.47 0.22
46.599998 10.614 -0.46399999 0.1
46.18 10.595 -0.45899999 0.15000001
45.230999 10.526 -0.44499999 0.17
44.868999 10.591 -0.44100001 0.31999999
44.575001 10.669 -0.43700001 0.2
44.536999 10.808 -0.43700001 0.25
44.48 10.942 -0.43700001 0.20999999
44.155998 11.01 -0.43200001 0.22
43.830002 11.001 -0.428 0.18000001
43.507 11.065 -0.42399999 0.22
43.064999 11.097 -0.41800001 0.13
42.25 11.028 -0.40700001 0.37
41.854 11.065 -0.40099999 0.18000001
41.5 11.111 -0.39700001 0.38
41.187 11.166 -0.39300001 0.20999999
41.012001 11.187 -0.38999999 0.19
40.747002 11.252 -0.38699999 0.38999999
40.450001 11.307 -0.38299999 0.23999999
40.424999 11.437 -0.38299999 0.25
40.380001 11.562 -0.38299999 0.30000001
40.417999 11.71 -0.384 0
40.623001 11.908 -0.38800001 0
40.192001 11.85 -0.382 0
39.901001 11.901 -0.37799999 0
38.269001 11.675 -0.35499999 0.2
37.852001 11.678 -0.34999999 0.37
37.75 11.776 -0.34900001 0.25
37.514999 11.832 -0.34599999 0.25
37.425999 11.869 -0.345 0.25
37.417 11.995 -0.345 0.22
37.360001 12.107 -0.345 0.16
37.292999 12.215 -0.345 0
37.262001 12.334 -0.345 0
37.255001 12.462 -0.345 0
36.933998 12.483 -0.34099999 0
36.375 12.358 -0.333 0.059999999
35.386002 12.145 -0.31900001 0.18000001
35.160999 12.191 -0.31600001 0.28
34.939999 12.238 -0.31299999 0.28
34.622002 12.248 -0.30899999 0.28999999
34.393002 12.289 -0.30599999 0.28999999
34.178001 12.333 -0.30399999 0.28
34 12.329 -0.301 0.31999999
33.839001 12.391 -0.30000001 0.31
33.630001 12.434 -0.29699999 0.28
33.397999 12.468 -0.294 0.25999999
33.222 12.521 -0.292 0.28
33.043999 12.573 -0.28999999 0.38999999
32.841999 12.614 -0.28799999 0.30000001
32.841999 12.673 -0.28799999 0.30000001
32.810001 12.779 -0.28799999 0.34
32.623001 12.824 -0.28600001 0.33000001
32.424 12.864 -0.28299999 0.30000001
32.251999 12.913 -0.28099999 0.30000001
31.650999 12.788 -0.273 0.27000001
31.462999 12.826 -0.271 0.31999999
31.298 12.817 -0.26899999 0.38
31.083 12.842 -0.266 0.33000001
30.896 12.879 -0.264 0.30000001
30.712 12.915 -0.26100001 0.33000001
30.535 12.954 -0.259 0.30000001
30.336 12.982 -0.257 0.28
30.202 13.037 -0.25600001 0.31999999
30.056 13.03 -0.25400001 0.43000001
29.905001 13.076 -0.252 0.34
29.882 13.178 -0.252 0.23999999
29.868 13.284 -0.25299999 0.41999999
29.709999 13.325 -0.25099999 0.36000001
29.549 13.365 -0.249 0.36000001
29.386999 13.403 -0.24699999 0.33000001
29.211 13.378 -0.245 0.20999999
28.690001 13.248 -0.237 0.31
28.531 13.283 -0.236 0.36000001
28.365999 13.315 -0.234 0.44999999
28.172001 13.332 -0.23100001 0.23999999
27.856001 13.289 -0.227 0.36000001
27.853001 13.396 -0.228 0.34999999
27.669001 13.36 -0.22499999 0.30000001
27.468 13.37 -0.223 0.36000001
27.32 13.404 -0.221 0.30000001
27.174 13.438 -0.219 0.37
27.014 13.465 -0.21799999 0.31
26.871 13.499 -0.21600001 0.33000001
26.843 13.591 -0.21600001 0.33000001
26.893 13.669 -0.21699999 0.34
26.907 13.783 -0.21799999 0.33000001
26.910999 13.892 -0.219 0.33000001
26.933001 14.011 -0.22 0.33000001
26.937 14.12 -0.221 0.31999999
26.969999 14.246 -0.222 0.25
27.024 14.384 -0.22400001 0.40000001
27.063 14.459 -0.22499999 0.34
27.108999 14.593 -0.226 0.54000002
24.184999 13.114 -0.18000001 0.28
24.017 13.121 -0.178 0.28
23.855 13.13 -0.176 0.25999999
23.711 13.147 -0.17399999 0.20999999
23.669001 13.271 -0.175 0.57999998
23.709 13.391 -0.176 0.19
24.507999 13.945 -0.19 0.14
24.507 14.047 -0.19 0.28999999
24.492001 14.141 -0.191 0.31999999
24.408001 14.195 -0.19 0.16
24.422001 14.306 -0.191 0.5
27.386999 16.104 -0.23999999 0.20999999
27.374001 16.212999 -0.23999999 0.2
27.410999 16.351 -0.242 0.41
26.59 15.974 -0.229 0.23
24.27 14.682 -0.192 0.23999999
24.142 14.708 -0.191 0.44
24.179001 14.835 -0.192 0.27000001
22.469 13.832 -0.164 0.34999999
22.363001 13.864 -0.163 0.34999999
22.202 13.861 -0.161 0.34
22.039 13.855 -0.15899999 0.38
24.111 15.266 -0.19400001 0.33000001
21.936001 13.983 -0.15899999 0.31999999
21.566999 13.843 -0.154 0.33000001
21.452999 13.817 -0.152 0.38999999
21.384001 13.868 -0.152 0.34999999
21.177 13.828 -0.149 0.28999999
20.961 13.781 -0.146 0.34
20.858 13.807 -0.145 0.31
20.768 13.842 -0.14399999 0.5
20.658001 13.862 -0.14300001 0.30000001
20.482 13.791 -0.141 0.34999999
20.364 13.804 -0.139 0.27000001
20.218 13.798 -0.138 0.40000001
20.125 13.828 -0.13699999 0.38
20.013 13.843 -0.13600001 0.27000001
19.893999 13.853 -0.134 0.44999999
19.792999 13.875 -0.133 0.31999999
19.671 13.836 -0.132 0.34
19.507 13.812 -0.12899999 0.38
19.454 13.866 -0.12899999 0.34
19.423 13.937 -0.13 0.38
19.167 13.844 -0.126 0.38
19.166 13.935 -0.127 0.36000001
19.025 13.924 -0.125 0.28999999
18.792 13.799 -0.121 0.34
18.665001 13.796 -0.12 0.34999999
18.517 13.777 -0.118 0.38
18.424 13.797 -0.117 0.36000001
18.367001 13.844 -0.117 0.47
18.509001 14.044 -0.12 0.22
18.188999 13.89 -0.115 0.31999999
18.023001 13.853 -0.113 0.30000001
17.913 13.813 -0.112 0.38999999
17.778 13.798 -0.11 0.25
17.643999 13.784 -0.108 0.44
17.534 13.786 -0.107 0.36000001
17.492001 13.842 -0.107 0.38999999
17.389 13.85 -0.106 0.30000001
17.285999 13.856 -0.105 0.56999999
17.628 14.177 -0.112 0.23999999
17.040001 13.792 -0.102 0.16
16.916 13.779 -0.1 0.44
16.83 13.797 -0.098999999 0.2
16.694 13.773 -0.097999997 0.56
16.695 13.863 -0.098999999 0.31999999
17.006001 14.212 -0.105 0.25999999
16.653999 13.962 -0.098999999 0.41999999
16.441 13.871 -0.096000001 0.28
16.370001 13.899 -0.094999999 0.38
16.355 13.975 -0.096000001 0.28
16.247 13.971 -0.094999999 0.47
16.108 13.94 -0.093000002 0.40000001
16.070999 13.952 -0.093000002 0.36000001
16.027 14.002 -0.093000002 0.43000001
16.031 14.095 -0.093999997 0.28999999
15.785 13.966 -0.090000004 0.27000001
15.663 13.946 -0.088 0.40000001
15.633 14.008 -0.089000002 0.44999999
15.627 14.092 -0.089000002 0.38999999
15.469 14.037 -0.086999997 0.28999999
15.275 13.905 -0.083999999 0.46000001
15.236 13.957 -0.083999999 0.25
15.07 13.892 -0.082000002 0.43000001
14.999 13.913 -0.081 0.38
14.905 13.914 -0.079999998 0.44999999
14.787 13.891 -0.079000004 0.34
14.688 13.885 -0.078000002 0.41
14.633 13.876 -0.077 0.22
14.559 13.893 -0.077 0.47
14.498 13.922 -0.075999998 0.30000001
14.439 13.952 -0.075999998 0.44
14.37 13.974 -0.075000003 0.41
14.338 14.03 -0.075999998 0.5
14.474 14.254 -0.079000004 0.31
14.065 13.894 -0.071999997 0.44
14.308 14.223 -0.077 0.15000001
13.993 13.997 -0.071999997 0.36000001
13.873 13.964 -0.07 0.37
13.815 13.994 -0.07 0.28999999
13.767 14.033 -0.07 0.46000001
13.727 14.08 -0.07 0.41999999
13.793 14.192 -0.071999997 0.36000001
13.791 14.28 -0.072999999 0.27000001
13.821 14.401 -0.074000001 0.57999998
13.946 14.624 -0.078000002 0.36000001
13.617 14.369 -0.071999997 0.2
13.493 14.327 -0.07 0.28999999
13.414 14.333 -0.07 0.40000001
13.388 14.351 -0.07 0.38
13.336 14.385 -0.068999998 0.40000001
13.303 14.441 -0.07 0.38
13.285 14.512 -0.07 0.47999999
13.284 14.602 -0.071000002 0.36000001
35.417 39.244999 -0.53500003 0.36000001
35.306 39.368999 -0.53600001 0.19
35.226002 39.528999 -0.537 0
33.293999 37.478001 -0.49700001 0.11
35.084 39.745998 -0.53799999 0.18000001
34.983002 39.882999 -0.53799999 0.36000001
34.889 40.028999 -0.53899997 0.2
34.785999 40.165001 -0.53899997 0.23999999
34.679001 40.297001 -0.54000002 0.20999999
34.625 40.362 -0.54000002 0.30000001
34.500999 40.473999 -0.54000002 0.2
34.457001 40.681 -0.542 0.16
34.356998 40.820999 -0.542 0.23999999
34.25 40.955002 -0.54299998 0.2
34.153 41.101002 -0.54400003 0.23
34.049 41.238998 -0.54400003 0.2
33.946999 41.380001 -0.54500002 0.23
33.854 41.398998 -0.54400003 0
33.57 41.316002 -0.54100001 0
33.069 40.959999 -0.53200001 0
32.363998 40.345001 -0.51899999 0
32.299999 40.526001 -0.52100003 0.1
31.882 40.259998 -0.514 0.2
31.371 39.742001 -0.50400001 0.27000001
31.148001 39.716 -0.50199997 0.11
30.962999 39.736 -0.50099999 0.16
30.729 39.692001 -0.498 0.31
30.558001 39.728001 -0.49700001 0.25999999
30.267 39.605999 -0.493 0.25999999
30.120001 39.671001 -0.493 0.27000001
29.802 39.509998 -0.48800001 0.18000001
29.650999 39.438 -0.486 0.090000004
29.365999 39.314999 -0.48199999 0.14
29.01 39.094002 -0.477 0.28
28.914 39.222 -0.47799999 0.25
28.594999 39.043999 -0.47299999 0
28.330999 38.939999 -0.46900001 0.13
28.132 38.923 -0.46799999 0.22
28.006001 38.876999 -0.46599999 0.090000004
27.902 38.990002 -0.46700001 0
28.145 39.592999 -0.47499999 0.11
26.933001 38.139 -0.449 0.1
24.931 35.536999 -0.403 0
26.622 38.205002 -0.447 0
26.610001 38.445 -0.44999999 0
27.752001 40.231998 -0.47999999 0
26.111 38.105999 -0.442 0.12
25.214001 37.044998 -0.42300001 0.14
25.034 37.029999 -0.421 0.14
24.591 36.622002 -0.41299999 0.12
24.365 36.532001 -0.41 0.31999999
24.09 36.367001 -0.40599999 0.19
23.934999 36.256001 -0.403 0.28
23.740999 36.209 -0.40099999 0.20999999
23.593 36.230999 -0.40099999 0.20999999
23.408001 36.194 -0.39899999 0.19
23.275999 36.238998 -0.398 0.23
23.024 36.096001 -0.39500001 0.2
22.754 35.922001 -0.391 0.22
22.606001 35.937 -0.38999999 0.18000001
22.43 35.780998 -0.38600001 0.20999999
22.412001 36.004002 -0.389 0.22
22.337 36.136002 -0.38999999 0.19
22.099001 36.002998 -0.38699999 0.28999999
21.955 36.021 -0.38600001 0.16
21.851999 36.106998 -0.38600001 0
20.316999 33.928001 -0.34900001 0.25
20.129 33.854 -0.347 0.30000001
20.018 33.909 -0.34599999 0.20999999
19.940001 34.021999 -0.347 0.47999999
19.943001 34.271999 -0.34999999 0.2
22.989 39.804001 -0.43900001 0.20999999
22.916 39.966 -0.44 0
22.851999 40 -0.44 0
22.753 40.118999 -0.44100001 0.090000004
18.889999 33.542999 -0.33399999 0
22.577999 40.401001 -0.44299999 0
18.781 33.847 -0.33700001 0.1
18.070999 32.806999 -0.31900001 0
17.860001 32.667 -0.31600001 0
17.753 32.592999 -0.315 0.12
17.947001 33.198002 -0.32300001 0.30000001
17.892 33.346001 -0.32499999 0
17.830999 33.485001 -0.32600001 0
17.216999 32.577 -0.31099999 0.11
17.054001 32.514 -0.30899999 0.28999999
16.903999 32.474998 -0.308 0.25
16.778 32.356998 -0.30500001 0.28
16.332001 31.739 -0.29499999 0.12
16.575001 32.462002 -0.30500001 0.14
16.561001 32.688999 -0.308 0.31999999
16.434 32.693001 -0.30700001 0.2
15.73 31.537001 -0.28799999 0.16
15.504 31.329 -0.28400001 0
21.093 42.983002 -0.46599999 0.13
15.59 31.881001 -0.292 0.15000001
15.423 31.791 -0.28999999 0.20999999
15.231 31.649 -0.287 0.33000001
15.137 31.707001 -0.287 0.18000001
15.062 31.806999 -0.28799999 0.23999999
14.671 31.233 -0.278 0.15000001
14.884 31.948 -0.28799999 0
20.152 43.457001 -0.46599999 0.07
14.351 31.187 -0.27599999 0.14
14.39 31.533001 -0.28 0.36000001
19.326 42.726002 -0.45199999 0.25
19.207001 42.819 -0.45199999 0.27000001
19.115 42.976002 -0.454 0.27000001
19.027 43.141998 -0.45500001 0.25
19.004 43.275002 -0.45699999 0
18.927 43.847 -0.46399999 0.25999999
13.13 30.93 -0.26499999 0.43000001
18.632 44.305 -0.46799999 0.12
12.803 30.694 -0.26100001 0.16
12.786 30.790001 -0.26199999 0.16
12.47 30.295 -0.25400001 0.17
12.236 29.993 -0.249 0.16
11.836 29.275 -0.237 0.14
11.806 29.466 -0.23899999 0.16
11.76 29.622 -0.241 0.17
11.738 29.839001 -0.244 0.47999999
11.777 30.077999 -0.24699999 0.22
11.578 29.844 -0.243 0.23999999
11.405 29.674999 -0.23999999 0.23999999
11.566 30.379999 -0.25 0.16
11.195 29.684 -0.23899999 0.19
11.047 29.570999 -0.237 0.13
10.766 29.097 -0.229 0.20999999
10.192 27.811001 -0.20999999 0.33000001
10.206 27.983999 -0.212 0.31
10.369 28.712 -0.222 0.33000001
10.395 29.070999 -0.227 0.28
9.8190002 27.732 -0.207 0.23
9.6560001 27.546 -0.204 0.33000001
9.5240002 27.445999 -0.20200001 0.27000001
9.5450001 27.788 -0.206 0.36000001
9.5439997 27.927999 -0.208 0.25
9.4700003 27.997 -0.20900001 0.40000001
9.3079996 27.805 -0.205 0.23
9.2950001 28.062 -0.20900001 0.31999999
9.1859999 28.024 -0.208 0.30000001
9.0179996 27.808001 -0.204 0.28999999
8.7449999 27.257 -0.19599999 0.33000001
8.6000004 26.948 -0.191 0.34
8.5830002 27.188999 -0.19400001 0.38999999
8.5369997 27.344 -0.19599999 0.22
8.4399996 27.334 -0.19499999 0.30000001
8.3280001 27.274 -0.19400001 0.31
8.2220001 27.233 -0.193 0.31
8.184 27.42 -0.19599999 0.25999999
8.1859999 27.584 -0.198 0.44999999
7.967 27.157 -0.191 0.23
7.7709999 26.799999 -0.186 0.34
7.79 27.184999 -0.191 0.25999999
7.6409998 26.985001 -0.18799999 0.33000001
7.638 27.302999 -0.192 0.37
7.618 27.566 -0.19499999 0.22
7.5419998 27.629 -0.19599999 0.31999999
7.4359999 27.409 -0.193 0.28
7.3070002 27.271999 -0.19 0.41999999
7.2600002 27.438999 -0.192 0.31
7.1370001 27.320999 -0.19 0.20999999
6.869 26.634001 -0.18000001 0.46000001
7 27.504999 -0.192 0.23
6.79 26.851999 -0.183 0.36000001
6.8369999 27.400999 -0.19 0.38
6.6750002 27.114 -0.186 0.23
6.5289998 26.882 -0.182 0.27000001
6.4889998 27.089001 -0.185 0.28999999
6.5609999 27.777 -0.19499999 0.38999999
6.507 27.941999 -0.197 0.23
6.4710002 27.985001 -0.197 0.49000001
6.3439999 27.834 -0.19499999 0.27000001
6.3270001 28.172001 -0.199 0.31999999
6.2779999 28.368999 -0.20200001 0.27000001
6.2069998 28.471001 -0.20299999 0.31999999
6.1589999 28.686001 -0.206 0.25999999
5.9619999 28.195999 -0.198 0.28999999
5.9310002 28.495001 -0.20200001 0.19
5.9299998 28.718 -0.205 0.52999997
5.8280001 28.674999 -0.205 0.25
5.7909999 28.962 -0.208 0.20999999
5.6680002 28.815001 -0.206 0.34
5.6149998 29.031 -0.20900001 0.31
5.493 28.884001 -0.207 0.34
5.4460001 29.139 -0.20999999 0.22
5.441 29.364 -0.213 0.15000001
2.7190001 14.862 -0.0060000001 0.44999999
2.6700001 14.863 -0.0060000001 0.31
2.6210001 14.855 -0.0060000001 0.55000001
2.5769999 14.879 -0.0060000001 0.5
5.007 29.615 -0.215 0.27000001
4.9260001 29.702 -0.21600001 0.41
4.9190001 29.954 -0.22 0.34
4.849 30.121 -0.222 0.28
4.7610002 30.176001 -0.223 0.31999999
4.6900001 30.344999 -0.22499999 0.23
4.605 30.427 -0.226 0.33000001
4.5170002 30.497 -0.227 0.41
4.4060001 30.408001 -0.22499999 0.20999999
4.3150001 30.447001 -0.226 0.41999999
4.3000002 30.694 -0.229 0.18000001
4.1929998 30.629999 -0.228 0.2
4.0949998 30.629 -0.228 0.51999998
4.0289998 30.875 -0.23100001 0.16
3.921 30.797001 -0.23 0.34999999
3.882 31.281 -0.236 0.33000001
3.7869999 31.319 -0.237 0.19
3.7119999 31.105 -0.234 0.30000001
3.6029999 31.018999 -0.23199999 0.36000001
3.5380001 31.326 -0.236 0.15000001
3.414 31.101999 -0.233 0.34
3.221 31.149 -0.233 0.31999999
3.1029999 30.954 -0.23100001 0.11
3.0380001 30.788 -0.228 0.38
2.947 30.863001 -0.229 0.28999999
2.8529999 30.902 -0.229 0.23999999
2.7349999 30.677999 -0.226 0.31999999
2.6589999 30.921 -0.229 0.34
2.549 30.775999 -0.227 0.27000001
2.4319999 30.523001 -0.22400001 0.25999999
2.3870001 30.563999 -0.22400001 0.28999999
2.29 30.563999 -0.22400001 0.28
2.2079999 30.761999 -0.227 0.38
2.0739999 30.216 -0.219 0.16
1.977 30.193001 -0.219 0.37
1.882 30.202999 -0.219 0.36000001
1.786 30.188999 -0.21799999 0.2
1.7410001 30.225 -0.219 0.27000001
1.646 30.239 -0.219 0
1.436 29.830999 -0.213 0.27000001
1.341 29.801001 -0.213 0.25
1.24 29.613001 -0.20999999 0.52999997
1.165 30.097 -0.21699999 0.2
1.071 30.134001 -0.21699999 0.28
1.011 29.73 -0.211 0.25999999
0.903 29.256001 -0.205 0.31
0.81300002 29.344 -0.206 0.37
0.72000003 29.281 -0.205 0.36000001
0.62699997 29.250999 -0.205 0.30000001
0.53299999 29.149 -0.20299999 0.30000001
0.44 29.024 -0.20100001 0.36000001
0.39500001 29.045 -0.20200001 0.30000001
0.30500001 29.18 -0.20299999 0.34
0.213 29.250999 -0.204 0.28
0.121 29.250999 -0.204 0.28999999
0.029999999 29.052999 -0.20200001 0.34
-0.061999999 29.174999 -0.20299999 0.36000001
-0.153 29.118999 -0.20299999 0.18000001
-0.197 28.865 -0.199 0.38
-0.28799999 28.908001 -0.2 0.38999999
-0.38 28.941 -0.2 0.27000001
-0.46799999 28.813999 -0.198 0.31999999
-0.55900002 28.796 -0.198 0.28999999
-0.653 28.941999 -0.2 0.28999999
-0.74299997 28.938 -0.2 0.38
-0.91299999 31.577999 -0.237 0.20999999
-0.85799998 28.226999 -0.19 0.20999999
-0.98199999 29.254999 -0.205 0.47
-1.067 29.063999 -0.20200001 0.28999999
-1.235 30.941 -0.229 0.28999999
-1.323 30.737 -0.226 0.25
-1.34 29.047001 -0.20200001 0.31
-1.437 29.158001 -0.204 0.28
-1.482 29.136 -0.20299999 0.27000001
-0.87 16.326 -0.024 0.2
-0.92500001 16.381001 -0.024 0.30000001
-0.97399998 16.33 -0.024 0.44
-1.03 16.412001 -0.025 0.44
-1.092 16.563 -0.027000001 0.33000001
-1.1390001 16.476999 -0.026000001 0.28999999
-1.159 16.402 -0.025 0.51999998
-1.219 16.504 -0.026000001 0.23999999
-1.28 16.618999 -0.028000001 0.58999997
-1.335 16.657 -0.028999999 0.36000001
-2.372 28.24 -0.192 0.18000001
-1.523 17.593 -0.041999999 0.25999999
-1.579 17.598 -0.041999999 0.28
-1.602 17.538 -0.041000001 0.46000001
-1.654 17.499001 -0.041000001 0.27000001
-1.706 17.469 -0.039999999 0.54000002
-1.743 17.285 -0.037999999 0.33000001
-1.7920001 17.23 -0.037 0.38999999
-1.8559999 17.315001 -0.039000001 0.40000001
-1.915 17.355 -0.039000001 0.31
-1.955 17.462999 -0.041000001 0.47
-1.994 17.322001 -0.039000001 0.31
-2.0380001 17.224001 -0.037999999 0.47999999
-2.1099999 17.365 -0.039999999 0.25
-2.1849999 17.523001 -0.041999999 0.55000001
-3.335 25.976999 -0.162 0.2
-3.631 27.582001 -0.184 0.50999999
-3.743 27.756001 -0.18700001 0.22
-3.786 27.75 -0.18700001 0.16
-3.8740001 27.74 -0.18700001 0.44999999
-3.9070001 27.35 -0.182 0.2
-3.97 27.184999 -0.18000001 0.38
-4.0640001 27.23 -0.18000001 0.27000001
-4.1399999 27.153999 -0.17900001 0.34
-4.2589998 27.358 -0.183 0.33000001
-3.0369999 18.971001 -0.064000003 0.38999999
-3.105 19.013 -0.064000003 0.5
-3.164 18.999001 -0.064000003 0.33000001
-3.221 18.973 -0.064000003 0.44
-3.289 19.011999 -0.064999998 0.25
-3.342 18.964001 -0.064000003 0.61000001
-3.3740001 18.969 -0.064999998 0.27000001
-3.4549999 19.076 -0.066 0.23
-3.467 18.806 -0.061999999 0.47
-3.517 18.745001 -0.061999999 0.28999999
-3.573 18.721001 -0.061999999 0.63999999
-4.2800002 22.028 -0.109 0.25
-3.609 18.290001 -0.056000002 0.38
-3.648 18.334999 -0.056000002 0.17
-3.6589999 18.091999 -0.052999999 0.55000001
-3.717 18.087 -0.052999999 0.38999999
-3.7690001 18.052999 -0.052999999 0.38999999
-3.829 18.059 -0.052999999 0.38999999
-3.915 18.18 -0.055 0.43000001
-3.993 18.263 -0.056000002 0.25999999
-4.0770001 18.371 -0.057999998 0.41
-4.1220002 18.433001 -0.059 0.22
-4.1890001 18.459 -0.059999999 0.54000002
-4.5669999 19.829 -0.079999998 0.28999999
-4.296 18.396999 -0.059 0.47999999
-4.3540001 18.386 -0.059 0.40000001
-4.4060001 18.347 -0.059 0.34999999
-4.5089998 18.518999 -0.061999999 0.47
-5.1329999 20.924 -0.096000001 0.36000001
-4.5710001 18.395 -0.059999999 0.38
-4.6760001 18.566999 -0.063000001 0.16
-5.3429999 20.924999 -0.097000003 0.49000001
-5.408 20.906 -0.097000003 0.17
-4.8429999 18.493 -0.061999999 0.31999999
-4.835 18.23 -0.059 0.27000001
-4.8410001 18.138 -0.057999998 0.23
-4.928 18.233999 -0.059 0.47999999
-5.0430002 18.427 -0.061999999 0.38999999
-6.9130001 24.919001 -0.15700001 0.2
-7.0700002 24.877001 -0.15700001 0.52999997
-7.6960001 26.750999 -0.185 0.23
-7.763 26.825001 -0.186 0.23999999
-6.2090001 20.983 -0.101 0.54000002
-6.2789998 20.976 -0.101 0.2
-7.7049999 25.43 -0.167 0.40000001
-7.7979999 25.448 -0.168 0.28999999
-6.493 20.969999 -0.102 0.43000001
-6.5960002 21.068001 -0.104 0.28999999
-6.6900001 21.25 -0.107 0.36000001
-6.8670001 21.573 -0.112 0.18000001
-7.0139999 21.795 -0.115 0.47
-7.0630002 21.716 -0.115 0.17
-7.145 21.736 -0.115 0.38
-7.2280002 21.757 -0.116 0.40000001
-9.2189999 27.438 -0.2 0.34
-9.2740002 27.459999 -0.20100001 0.33000001
-9.4020004 27.552999 -0.20299999 0.27000001
-9.4659996 27.458 -0.20200001 0.23
-9.8439999 28.264 -0.214 0.14
-10 28.423 -0.21699999 0.34
-10.169 28.615999 -0.22 0.46000001
-10.706 29.826 -0.23899999 0.13
-10.919 30.268 -0.245 0.50999999
-11.111 30.5 -0.249 0.11
-12.284 33.384998 -0.29300001 0.15000001
-9.8559999 26.545 -0.191 0.14
-9.9169998 26.454 -0.19 0.38999999
-10.021 26.476999 -0.191 0.31
-10.105 26.447001 -0.191 0.36000001
-10.17 26.493 -0.192 0.31999999
-10.236 26.416 -0.192 0.18000001
-10.325 26.4 -0.192 0.46000001
-10.382 26.302999 -0.191 0.19
-10.473 26.290001 -0.191 0.27000001
-10.57 26.294001 -0.192 0.33000001
-10.664 26.289 -0.192 0.31999999
-11.657 28.473 -0.226 0.25
-10.805 26.278999 -0.193 0.23999999
-10.783 25.993999 -0.189 0.19
-10.852 25.93 -0.18799999 0.54000002
-10.963 25.966 -0.19 0.25
-11.104 26.069 -0.192 0.25
-11.174 26.009001 -0.191 0.20999999
-11.212 25.872999 -0.19 0.40000001
-11.14 25.596001 -0.186 0.25
-11.208 25.532 -0.185 0.33000001
-11.357 25.652 -0.18799999 0.37
-11.594 25.966999 -0.193 0.27000001
-11.794 26.193001 -0.197 0.25999999
-11.971 26.363001 -0.2 0.25
-12.112 26.452 -0.20200001 0.28999999
-12.169 26.468 -0.20299999 0.34
-12.22 26.361 -0.20200001 0.30000001
-12.291 26.297001 -0.20100001 0.20999999
-7.9349999 16.861 -0.056000002 0.31999999
-8.0039997 16.870001 -0.056000002 0.56
-8.0430002 16.816 -0.056000002 0.36000001
-13.693 28.356001 -0.236 0.16
-12.788 26.379 -0.205 0.16
-8.2060003 16.815001 -0.057 0.57999998
-16.457001 33.396 -0.31600001 0.18000001
-15.84 31.893999 -0.294 0.16
-15.918 31.799 -0.29300001 0.22
-8.3999996 16.677999 -0.056000002 0.16
-8.4549999 16.655001 -0.056000002 0.27000001
-14.261 27.837 -0.233 0.44999999
-14.324 27.854 -0.233 0.25
-14.542 28.059 -0.237 0.28
-14.419 27.611 -0.23100001 0.30000001
-14.482 27.518999 -0.23 0.38
-14.707 27.735001 -0.235 0.12
-14.419 26.989 -0.223 0
-16.792999 31.187 -0.29100001 0.07
-16.893 31.254 -0.292 0.11
-17.058001 31.323 -0.294 0.23
-17.226999 31.399 -0.296 0.18000001
-17.232 31.174999 -0.294 0.27000001
-17.384001 31.219 -0.29499999 0.15000001
-17.927999 31.957001 -0.308 0.14
-17.055 30.181 -0.28 0.18000001
-16.145 28.469999 -0.25299999 0.38
-16.237 28.424 -0.25299999 0.25
-16.562 28.782 -0.25999999 0.14
-16.372 28.245001 -0.252 0.28999999
-16.771999 28.726999 -0.26100001 0.16
-16.985001 28.882999 -0.264 0.50999999
-16.771 28.315001 -0.25600001 0.18000001
-16.677 28.056999 -0.252 0.16
-16.875999 28.190001 -0.255 0.19
-16.92 28.063 -0.25400001 0.13
-17.666 29.091 -0.27200001 0.28999999
-17.089001 27.944 -0.25400001 0.23999999
-17.07 27.716999 -0.25099999 0.41
-17.309999 27.909 -0.255 0.20999999
-17.756001 28.427999 -0.264 0.28999999
-17.858 28.490999 -0.266 0.17
-17.874001 28.32 -0.264 0.18000001
-18.263 28.733999 -0.27200001 0
-17.535 27.400999 -0.25 0.13
-17.6 27.313999 -0.25 0.28
-15.796 24.184 -0.199 0.50999999
-15.748 24.028999 -0.197 0.20999999
-15.772 23.900999 -0.19599999 0.22
-16.113001 24.25 -0.20299999 0.37
-16.191999 24.205 -0.20299999 0.23
-16.344 24.266001 -0.205 0.30000001
-16.112 23.76 -0.197 0.2
-16.059999 23.524 -0.19400001 0.28
-16.177999 23.618 -0.19599999 0.41
-16.433001 23.827999 -0.2 0.31
-16.555 23.844 -0.20100001 0.25999999
-16.816 24.059 -0.206 0.40000001
-16.951 24.089001 -0.207 0.27000001
-16.745001 23.639999 -0.20100001 0.14
-12.103 16.985001 -0.086999997 0.57999998
-17.209 24.052999 -0.20900001 0.2
-17.209 23.893 -0.207 0.20999999
-18.707001 25.799 -0.241 0.16
-19.105 26.174 -0.249 0.15000001
-10.344 14.099 -0.039999999 0.18000001
-10.39 14.068 -0.039999999 0.33000001
-12.138 16.32 -0.079999998 0.31999999
-20.461 27.391001 -0.27399999 0.28999999
-20.513 27.282 -0.273 0.22
-10.549 13.959 -0.039999999 0.14
-10.544 13.862 -0.039000001 0.51999998
-10.609 13.858 -0.039000001 0.25999999
-10.512 13.642 -0.035999998 0.44999999
-10.526 13.571 -0.035 0.38
-10.886 13.944 -0.041999999 0.44999999
-10.899 13.916 -0.041999999 0.34999999
-10.373 13.16 -0.028999999 0.41
-10.38 13.085 -0.028999999 0.41
-10.44 13.076 -0.028999999 0.41
-10.474 13.034 -0.028999999 0.37
-10.498 12.981 -0.028000001 0.41
-10.572 12.988 -0.028999999 0.46000001
-10.676 13.074 -0.030999999 0.38
-10.745 13.074 -0.032000002 0.30000001
-10.813 13.072 -0.032000002 0.57999998
-11.955 14.357 -0.056000002 0.23999999
-11.852 14.143 -0.052999999 0.46000001
-11.968 14.191 -0.055 0.40000001
-12.036 14.181 -0.055 0.28999999
-12.022 14.12 -0.054000001 0.52999997
-11.181 13.052 -0.035 0.41
-11.287 13.091 -0.037 0.31999999
-11.279 13 -0.035999998 0.23999999
-11.32 12.964 -0.035999998 0.52999997
-11.411 12.985 -0.037 0.38
-11.494 12.997 -0.037999999 0.36000001
-11.538 13.006 -0.037999999 0.36000001
-11.619 13.015 -0.039000001 0.36000001
-11.692 13.014 -0.039999999 0.40000001
-11.765 13.012 -0.039999999 0.23
-11.778 12.944 -0.039999999 0.49000001
-11.843 12.934 -0.039999999 0.28999999
-11.88 12.894 -0.039999999 0.5
-11.97 12.909 -0.041000001 0.28
-11.966 12.864 -0.041000001 0.47999999
-12.016 12.836 -0.041000001 0.34
-12.155 12.903 -0.043000001 0.56
-12.321 12.997 -0.045000002 0.31
-12.395 12.993 -0.046 0.31999999
-12.463 12.983 -0.046999998 0.41
-12.548 12.989 -0.048 0.41999999
-12.595 12.997 -0.048 0.36000001
-12.675 12.997 -0.048999999 0.41
-12.74 12.982 -0.048999999 0.40000001
-12.814 12.976 -0.050000001 0.40000001
-12.887 12.968 -0.050999999 0.36000001
-12.976 12.975 -0.052000001 0.22
-13.003 12.92 -0.050999999 0.63999999
-13.08 12.956 -0.052999999 0.37
-13.156 12.95 -0.052999999 0.34
-13.227 12.938 -0.054000001 0.36000001
-13.302 12.93 -0.054000001 0.37
-13.387 12.931 -0.055 0.38
-13.464 12.923 -0.056000002 0.37
-13.542 12.917 -0.057 0.36000001
-13.596 12.927 -0.057 0.38999999
-13.684 12.93 -0.057999998 0.34999999
-13.771 12.93 -0.059 0.38999999
-13.847 12.92 -0.059999999 0.38
-13.926 12.912 -0.061000001 0.41999999
-13.968 12.869 -0.061000001 0.38
-14.115 12.922 -0.063000001 0.36000001
-14.148 12.871 -0.063000001 0.34
-14.241 12.915 -0.064000003 0.41
-14.342 12.925 -0.064999998 0.31999999
-14.421 12.914 -0.066 0.36000001
-14.508 12.91 -0.067000002 0.38
-14.597 12.907 -0.068000004 0.40000001
-14.691 12.908 -0.068999998 0.20999999
-14.723 12.854 -0.068000004 0.58999997
-14.799 12.879 -0.068999998 0.31999999
-14.891 12.877 -0.07 0.34999999
-14.963 12.858 -0.071000002 0.34999999
-15.049 12.849 -0.071999997 0.37
-15.121 12.829 -0.071999997 0.37
-15.197 12.811 -0.072999999 0.34
-15.281 12.801 -0.074000001 0.34
-15.338 12.807 -0.075000003 0.38
-15.42 12.794 -0.075000003 0.33000001
-15.508 12.784 -0.075999998 0.33000001
-15.596 12.775 -0.077 0.38
-15.692 12.771 -0.078000002 0.27000001
-15.79 12.768 -0.079000004 0.25999999
-15.869 12.75 -0.079999998 0.44
-15.944 12.769 -0.081 0.34
-16.042 12.764 -0.082000002 0.36000001
-16.125999 12.749 -0.082999997 0.36000001
-16.214001 12.736 -0.082999997 0.38
-16.306 12.726 -0.083999999 0.36000001
-16.395 12.712 -0.085000001 0.30000001
-16.448999 12.672 -0.085000001 0.52999997
-16.538 12.698 -0.086999997 0.31
-16.604 12.667 -0.086999997 0.38999999
-16.690001 12.649 -0.088 0.37
-16.781 12.635 -0.089000002 0.38
-16.882999 12.629 -0.090000004 0.37
-16.979 12.618 -0.090999998 0.38999999
-17.101999 12.626 -0.092 0.34
-17.202 12.616 -0.093000002 0.33000001
-17.299 12.646 -0.094999999 0.31
-17.462999 12.681 -0.097000003 0.30000001
-17.580999 12.683 -0.097999997 0.33000001
-17.725 12.702 -0.1 0.38
-17.83 12.692 -0.101 0.30000001
-17.952 12.694 -0.103 0.2
-18.111 12.721 -0.105 0.18000001
-18.146999 12.704 -0.105 0.58999997
-18.278999 12.711 -0.107 0.33000001
-18.391001 12.703 -0.108 0.28999999
-18.518999 12.705 -0.109 0.31999999
-18.631001 12.697 -0.11 0.34
-18.752001 12.693 -0.112 0.31
-18.867001 12.684 -0.113 0.28
-18.962999 12.705 -0.114 0.41
-19.058001 12.682 -0.115 0.27000001
-19.201 12.691 -0.117 0.31999999
-19.316 12.679 -0.118 0.34
-19.445 12.677 -0.12 0.28999999
-19.562 12.665 -0.121 0.36000001
-19.684 12.657 -0.122 0.28999999
-19.783001 12.676 -0.124 0.22
-19.867001 12.642 -0.125 0.54000002
-19.997999 12.637 -0.126 0.30000001
-20.112 12.621 -0.127 0.27000001
-20.245001 12.616 -0.12899999 0.34
-20.361 12.599 -0.13 0.27000001
-20.475 12.581 -0.131 0.28
-20.589001 12.606 -0.133 0.28
-20.716999 12.596 -0.134 0.28
-20.846001 12.584 -0.13600001 0.25
-20.988001 12.58 -0.13699999 0.36000001
-21.141001 12.582 -0.139 0.25
-21.289 12.579 -0.141 0.25
-21.408001 12.559 -0.142 0.22
-21.514 12.575 -0.14399999 0.33000001
-21.612 12.542 -0.145 0.41999999
-21.790001 12.553 -0.147 0.28
-21.781 12.457 -0.146 0.25999999
-21.787001 12.37 -0.146 0.34999999
-21.792999 12.283 -0.145 0.36000001
-21.819 12.208 -0.145 0.28999999
-21.943001 12.232 -0.147 0.30000001
-22.086 12.221 -0.148 0.31999999
-22.243999 12.216 -0.15000001 0.38
-22.375 12.197 -0.152 0.28
-22.517 12.183 -0.153 0.16
-23.132 12.421 -0.162 0.49000001
-23.058001 12.288 -0.161 0.18000001
-23.056999 12.195 -0.16 0.46000001
-23.061001 12.15 -0.16 0.22
-23.191 12.126 -0.161 0.16
-23.367001 12.125 -0.163 0.16
-24.094 12.405 -0.17399999 0.57999998
-23.905001 12.213 -0.171 0.23
-23.945 12.139 -0.171 0.23
-23.958 12.051 -0.17 0.23999999
-24.091 12.07 -0.17200001 0.18000001
-24.285 12.072 -0.175 0.22
-24.903999 12.282 -0.184 0.31999999
-24.788 12.128 -0.18099999 0.31999999
-24.855 12.064 -0.182 0.2
-24.9 11.989 -0.182 0.31
-25.101 11.989 -0.184 0.22
-25.271999 12.022 -0.18700001 0.18000001
-25.440001 12.004 -0.189 0.41
-25.618999 11.99 -0.191 0.25
-33.291 15.444 -0.30899999 0.27000001
-33.271999 15.309 -0.308 0.25
-33.32 15.204 -0.308 0.37
-33.375999 15.103 -0.308 0.34999999
-33.424 15.062 -0.308 0.12
-34.441002 15.389 -0.32300001 0
-34.630001 15.343 -0.32499999 0.039999999
-31.868 14.002 -0.28200001 0.16
-31.927 13.909 -0.28299999 0.16
-35.132999 15.171 -0.331 0.1
-31.764 13.601 -0.27900001 0.16
-31.761 13.541 -0.278 0.2
-31.728001 13.409 -0.27700001 0.38
-31.700001 13.28 -0.27599999 0.19
-31.846001 13.224 -0.278 0.34
-31.983999 13.163 -0.27900001 0.18000001
-31.934999 13.026 -0.278 0
-32.883999 13.292 -0.292 0.11
-32.098999 12.917 -0.27900001 0.12
-32.148998 12.82 -0.28 0.38
-33.097 13.077 -0.29300001 0.22
-33.116001 12.964 -0.29300001 0.27000001
-33.136002 12.852 -0.29300001 0.23
-33.203999 12.758 -0.29300001 0.25999999
-33.363998 12.699 -0.29499999 0.17
-33.391998 12.59 -0.29499999 0.25
-33.449001 12.552 -0.29499999 0.15000001
-33.511002 12.455 -0.296 0.31999999
-33.612 12.373 -0.29699999 0.23999999
-33.627998 12.259 -0.296 0.11
-33.721001 12.173 -0.29699999 0.14
-33.733002 12.057 -0.29699999 0.31999999
-33.662998 11.913 -0.29499999 0.18000001
-33.639999 11.846 -0.294 0.38
-33.721001 11.755 -0.29499999 0.23
-33.841999 11.678 -0.296 0.28999999
-35.667999 12.182 -0.32300001 0.17
-35.334 11.944 -0.317 0.16
-35.451 11.86 -0.31799999 0.5
-35.582001 11.779 -0.31999999 0.23999999
-35.772999 11.78 -0.322 0.25
-35.673 11.623 -0.31999999 0.27000001
-35.925999 11.581 -0.324 0.25999999
-35.827 11.425 -0.322 0.17
-35.846001 11.307 -0.32100001 0.16
-36.066002 11.252 -0.324 0.16
-38.16 11.772 -0.354 0.28999999
-38.219002 11.724 -0.35499999 0.19
-38.382999 11.643 -0.35699999 0.14
-38.657001 11.593 -0.36000001 0.16
-38.758999 11.491 -0.361 0.22
-39.054001 11.445 -0.36500001 0.18000001
-39.305 11.384 -0.368 0.13
-40.787998 11.674 -0.389 0.14
-41.122002 11.7 -0.39399999 0.33000001
-41.035 11.536 -0.39199999 0.18000001
-41.043999 11.4 -0.39199999 0.19
-41.389 11.355 -0.396 0.28999999
-41.771999 11.319 -0.40099999 0.19
-41.910999 11.215 -0.403 0.2
-41.800999 11.046 -0.40099999 0.12
-41.952 11.015 -0.40200001 0.079999998
-42.118 10.917 -0.40400001 0.14
-42.393002 10.846 -0.40799999 0.23
-42.460999 10.722 -0.40799999 0
-42.919998 10.694 -0.414 0
-43.346001 10.655 -0.41999999 0
-43.985001 10.665 -0.42899999 0.079999998
-44.169998 10.563 -0.43099999 0.079999998
-47.547001 11.29 -0.479 0.16
-47.689999 11.166 -0.48100001 0.1
-48.526001 11.2 -0.493 0.079999998
-49.188999 11.19 -0.50199997 0
-49.091 11.006 -0.5 0
-49.25 10.879 -0.50099999 0
-49.389999 10.747 -0.50300002 0
-49.452999 10.68 -0.50400001 0
-49.509998 10.529 -0.50400001 0
-49.490002 10.363 -0.50300002 0
-50.198002 10.346 -0.51300001 0
-50.549999 10.253 -0.51700002 0
-52.998001 10.575 -0.55199999 0
-53.113998 10.425 -0.55299997 0
-53.389 10.392 -0.55699998 0
-53.570999 10.252 -0.55900002 0
-53.537998 10.072 -0.55800003 0
-53.647999 9.9180002 -0.55900002 0
-53.903 9.79 -0.56199998 0
-54.389999 9.7019997 -0.56900001 0
-54.673 9.5749998 -0.57300001 0
-58.761002 10.194 -0.63 0
-55.905998 9.5190001 -0.58899999 0
-56.431 9.4259996 -0.59600002 0
-56.958 9.3299999 -0.60399997 0
-56.902 9.1370001 -0.602 0
-58.471001 9.1999998 -0.62400001 0
-58.903 9.0790005 -0.63 0
-59.469002 9.0699997 -0.63800001 0
-60.049 8.9650002 -0.64600003 0
-61.625999 9.0019999 -0.667 0
-61.951 8.8509998 -0.67199999 0
-62.669998 8.7530003 -0.68099999 0
-65.492996 8.9359999 -0.72100002 0
-65.459 8.7220001 -0.72000003 0
-65.448997 8.5109997 -0.72000003 0
-65.975998 8.474 -0.727 0
-66.943001 8.3850002 -0.74000001 0
-73.228996 8.2360001 -0.82700002 0
-73.362 8.0179996 -0.829 0
-73.556 7.9219999 -0.83200002 0
-74.541 7.7909999 -0.84500003 0
-74.623001 7.5630002 -0.84600002 0
-56.783001 -22.034 -0.648 0
-56.466 -22.115999 -0.64499998 0
-56.328999 -22.266001 -0.64399999 0
-56.136002 -22.393999 -0.64200002 0.059999999
-53.175999 -21.406 -0.59799999 0.15000001
-52.946999 -21.507 -0.59600002 0
-52.849998 -21.660999 -0.59500003 0
-53.152 -21.882999 -0.60000002 0.079999998
-50.533001 -20.989 -0.56099999 0.14
-50.189999 -21.032 -0.55699998 0.17
-50.165001 -21.207001 -0.55800003 0.16
-49.93 -21.292999 -0.55500001 0.23
-49.737999 -21.396 -0.55299997 0.11
-49.632 -21.535 -0.55299997 0.16
-49.551998 -21.684999 -0.55299997 0.28
-49.591 -21.795 -0.55400002 0.27000001
-49.511002 -21.945999 -0.55400002 0.25999999
-49.679001 -22.208 -0.55699998 0
-49.782001 -22.441999 -0.56 0
-55.525002 -25.243999 -0.64899999 0
-54.870998 -25.155001 -0.64099997 0
-53.931999 -24.929001 -0.62699997 0
-53.43 -24.799 -0.62 0.07
-52.740002 -24.68 -0.611 0.090000004
-52.261002 -24.656 -0.60399997 0.14
-51.574001 -24.530001 -0.59500003 0.090000004
-51.041 -24.473 -0.588 0.18000001
-50.337002 -24.33 -0.57800001 0.25
-49.848999 -24.287001 -0.57200003 0.11
-49.823002 -24.372 -0.57200003 0.090000004
-48.888 -24.104 -0.55900002 0.15000001
-35.226002 -17.497999 -0.34599999 0.12
-35.012001 -17.528999 -0.34299999 0.34
-34.757999 -17.538 -0.34 0.25999999
-34.522999 -17.556 -0.33700001 0.25
-34.397999 -17.629 -0.336 0.20999999
-34.224998 -17.608 -0.33399999 0.2
-33.958 -17.605 -0.331 0.37
-33.960999 -17.742001 -0.33199999 0
-33.914001 -17.854 -0.33199999 0
-33.422001 -17.728001 -0.32499999 0
