# .PCD v0.7 - Point Cloud Data file format
VERSION 0.7
FIELDS x y z intensity
SIZE 4 4 4 4
TYPE F F F F
COUNT 1 1 1 1
WIDTH 1411
HEIGHT 1
VIEWPOINT 0 0 0 1 0 0 0
POINTS 1411
DATA ascii
4.4580002 15.138 -1.819 0.38999999
4.408 15.145 -1.818 0.38
4.3579998 15.149 -1.817 0.40000001
4.3189998 15.193 -1.821 0.37
4.2490001 15.128 -1.8099999 0.38
4.2150002 15.189 -1.817 0.36000001
4.1830001 15.26 -1.824 0.38
4.1560001 15.255 -1.823 0.41999999
4.0939999 15.218 -1.816 0.34999999
4.0570002 15.269 -1.821 0.41
4.0040002 15.263 -1.819 0.33000001
3.9549999 15.273 -1.819 0.44999999
3.8959999 15.241 -1.813 0.41
3.855 15.281 -1.816 0.43000001
3.836 15.306 -1.819 0.23999999
3.7690001 15.243 -1.809 0.5
3.721 15.256 -1.809 0.40000001
3.6700001 15.254 -1.807 0.41999999
3.6210001 15.26 -1.807 0.34999999
3.566 15.242 -1.803 0.38999999
3.5190001 15.257 -1.803 0.38
3.464 15.238 -1.799 0.40000001
3.4460001 15.27 -1.803 0.44
3.4030001 15.3 -1.8049999 0.36000001
3.3499999 15.289 -1.803 0.38
3.3010001 15.296 -1.802 0.43000001
3.2479999 15.285 -1.799 0.36000001
3.2060001 15.32 -1.803 0.38999999
3.1429999 15.26 -1.793 0.41
3.1229999 15.287 -1.796 0.41
3.0669999 15.254 -1.791 0.34
3.0139999 15.24 -1.788 0.40000001
2.9679999 15.261 -1.789 0.38
2.9400001 15.37 -1.802 0.36000001
2.8940001 15.392 -1.804 0.28999999
2.839 15.364 -1.799 0.43000001
2.8050001 15.316 -1.7920001 0.41
2.747 15.27 -1.785 0.38
2.7030001 15.304 -1.788 0.43000001
2.661 15.344 -1.7920001 0.36000001
2.609 15.331 -1.79 0.38999999
2.562 15.348 -1.791 0.37
2.5039999 15.298 -1.783 0.31999999
2.4809999 15.304 -1.784 0.44
2.4449999 15.39 -1.794 0.36000001
2.3959999 15.393 -1.793 0.40000001
2.3369999 15.33 -1.784 0.44999999
2.2850001 15.316 -1.781 0.34999999
2.234 15.299 -1.778 0.44
2.187 15.318 -1.78 0.38999999
2.1400001 15.331 -1.781 0.43000001
2.1300001 15.434 -1.793 0.31
2.0929999 15.522 -1.804 0.49000001
2.0239999 15.377 -1.784 0.38
1.977 15.399 -1.786 0.34
1.942 15.511 -1.8 0.37
1.865 15.287 -1.77 0.41
1.8200001 15.318 -1.774 0.40000001
1.8049999 15.398 -1.784 0.37
1.757 15.405 -1.784 0.40000001
1.698 15.312 -1.771 0.30000001
1.645 15.276 -1.766 0.38
1.594 15.252 -1.762 0.38
1.546 15.257 -1.762 0.41
1.494 15.226 -1.757 0.44999999
1.475 15.27 -1.763 0.40000001
1.429 15.3 -1.766 0.38999999
1.382 15.312 -1.767 0.36000001
1.347 15.463 -1.786 0.38
1.2970001 15.457 -1.785 0.36000001
1.249 15.465 -1.785 0.41
1.2 15.471 -1.785 0.38999999
1.1799999 15.52 -1.791 0.37
1.117 15.336 -1.767 0.43000001
1.075 15.424 -1.778 0.34999999
1.027 15.428 -1.778 0.31999999
0.98299998 15.514 -1.789 0.41999999
0.926 15.384 -1.772 0.44
0.88099998 15.435 -1.778 0.36000001
0.829 15.376 -1.77 0.37
0.80299997 15.349 -1.767 0.38
0.75400001 15.338 -1.765 0.40000001
0.708 15.372 -1.7690001 0.38
0.66299999 15.459 -1.78 0.41999999
0.61199999 15.394 -1.771 0.38999999
0.56199998 15.342 -1.7640001 0.31
0.51200002 15.316 -1.761 0.38
0.48800001 15.323 -1.761 0.37
0.44299999 15.418 -1.773 0.38999999
0.39300001 15.35 -1.765 0.43000001
0.34599999 15.428 -1.774 0.38
0.29800001 15.443 -1.776 0.36000001
0.249 15.424 -1.774 0.43000001
0.20100001 15.411 -1.772 0.34
0.176 15.399 -1.77 0.37
0.12800001 15.392 -1.7690001 0.44999999
0.079999998 15.422 -1.773 0.36000001
0.030999999 15.362 -1.766 0.38
-0.017000001 15.331 -1.761 0.37
-0.064999998 15.384 -1.768 0.36000001
-0.114 15.342 -1.763 0.41999999
-0.138 15.38 -1.768 0.40000001
-0.185 15.308 -1.7589999 0.38
-0.233 15.273 -1.7539999 0.36000001
-0.28200001 15.298 -1.758 0.38999999
-0.33199999 15.438 -1.776 0.38999999
-0.38 15.38 -1.768 0.36000001
-0.43000001 15.466 -1.779 0.44999999
-0.47999999 15.492 -1.783 0.37
-0.50099999 15.406 -1.772 0.38999999
-0.55299997 15.509 -1.786 0.38
-0.60000002 15.468 -1.781 0.38999999
-0.64600003 15.389 -1.771 0.43000001
-0.685 15.17 -1.743 0.33000001
-0.736 15.232 -1.751 0.34999999
-0.78399998 15.247 -1.753 0.38999999
-0.81199998 15.323 -1.763 0.38
-0.86199999 15.344 -1.766 0.41999999
-0.91299999 15.397 -1.773 0.36000001
-0.958 15.341 -1.767 0.38999999
-1.007 15.351 -1.768 0.40000001
-1.058 15.392 -1.774 0.38
-1.109 15.426 -1.779 0.34
-1.1339999 15.424 -1.779 0.41999999
-1.181 15.403 -1.776 0.31999999
-1.227 15.373 -1.773 0.38
-1.273 15.341 -1.77 0.41
-1.3200001 15.322 -1.768 0.36000001
-1.367 15.3 -1.765 0.43000001
-1.414 15.289 -1.765 0.36000001
-1.436 15.267 -1.762 0.33000001
-1.485 15.273 -1.763 0.38
-1.536 15.301 -1.768 0.41
-1.585 15.306 -1.7690001 0.38
-1.635 15.319 -1.771 0.38
-1.686 15.336 -1.774 0.37
-1.74 15.383 -1.781 0.41
-1.79 15.394 -1.783 0.31999999
-1.8279999 15.513 -1.799 0.40000001
-1.86 15.361 -1.78 0.34
-1.925 15.495 -1.798 0.41999999
-1.969 15.454 -1.793 0.34
-2.0090001 15.381 -1.785 0.34
-2.0599999 15.394 -1.7869999 0.38
-2.105 15.364 -1.784 0.41
-2.122 15.303 -1.777 0.31999999
-2.1849999 15.405 -1.791 0.37
-2.2260001 15.345 -1.784 0.43000001
-2.2720001 15.322 -1.7819999 0.43000001
-2.335 15.419 -1.795 0.34999999
-2.368 15.309 -1.7819999 0.36000001
-2.431 15.398 -1.794 0.38999999
-2.454 15.386 -1.793 0.37
-2.5 15.365 -1.7920001 0.38
-2.5610001 15.435 -1.802 0.34999999
-2.6159999 15.462 -1.806 0.38999999
-2.6689999 15.481 -1.8099999 0.41
-2.701 15.379 -1.798 0.34999999
-2.743 15.331 -1.793 0.43000001
-2.803 15.389 -1.801 0.28999999
-2.825 15.375 -1.8 0.44
-2.8699999 15.348 -1.798 0.43000001
-2.934 15.421 -1.808 0.36000001
-2.957 15.277 -1.791 0.34999999
-3.0150001 15.321 -1.798 0.34999999
-3.0639999 15.317 -1.799 0.46000001
-3.102 15.257 -1.7920001 0.34
-3.138 15.312 -1.8 0.36000001
-3.1930001 15.337 -1.804 0.38999999
-3.2509999 15.372 -1.8099999 0.34
-3.2880001 15.307 -1.803 0.33000001
-3.391 15.551 -1.836 0.41
-3.4360001 15.522 -1.834 0.34
-3.4400001 15.31 -1.808 0.31
-3.4809999 15.38 -1.818 0.38999999
-3.5350001 15.396 -1.821 0.34
-3.553 15.252 -1.804 0.38
-3.605 15.26 -1.806 0.41
-3.6689999 15.316 -1.8150001 0.34999999
-3.7509999 15.445 -1.834 0.34
-3.7609999 15.275 -1.813 0.36000001
-3.8010001 15.335 -1.821 0.33000001
-3.846 15.309 -1.8200001 0.34
-3.8889999 15.276 -1.817 0.40000001
-3.9530001 15.329 -1.825 0.27000001
-4 15.313 -1.825 0.43000001
-4.0560002 15.327 -1.8279999 0.44999999
-4.1399999 15.452 -1.847 0.34
-4.2459998 15.652 -1.875 0.41999999
-4.2249999 15.475 -1.852 0.34
-4.29 15.521 -1.86 0.37
-4.3369999 15.503 -1.86 0.38
-4.3779998 15.461 -1.8559999 0.40000001
-4.4400001 15.497 -1.862 0.34999999
-4.4640002 15.397 -1.851 0.38
-4.507 15.362 -1.848 0.40000001
-4.5440001 15.4 -1.854 0.41
-4.5500002 15.243 -1.835 0.43000001
-4.552 15.077 -1.8150001 0.27000001
-4.5970001 15.053 -1.814 0.31999999
-4.6929998 15.198 -1.835 0.37
-4.7280002 15.141 -1.829 0.41
-4.7810001 15.144 -1.832 0.33000001
-4.8189998 15.183 -1.8380001 0.37
-4.8670001 15.168 -1.8380001 0.36000001
-4.902 15.113 -1.8329999 0.28999999
-4.9460001 15.088 -1.831 0.51999998
-5.052 15.25 -1.855 0.31999999
-5.1040001 15.245 -1.857 0.34999999
-5.125 15.15 -1.846 0.38
-5.1430001 15.125 -1.844 0.43000001
-5.2010002 15.139 -1.848 0.34
-5.2680001 15.179 -1.8559999 0.41
-5.3119998 15.151 -1.854 0.27000001
-5.3439999 15.091 -1.848 0.46000001
-5.4320002 15.188 -1.864 0.38
-5.4910002 15.203 -1.868 0.31999999
-5.546 15.206 -1.8710001 0.38
-5.5669999 15.19 -1.87 0.43000001
-5.5929999 15.113 -1.862 0.40000001
-5.6560001 15.138 -1.868 0.36000001
-5.678 15.049 -1.858 0.38
-5.7119999 14.998 -1.853 0.38
-5.8070002 15.104 -1.87 0.44999999
-5.8509998 15.078 -1.869 0.38999999
-5.9169998 15.176 -1.8839999 0.34999999
-5.9720001 15.178 -1.887 0.36000001
-5.973 15.041 -1.8710001 0.43000001
-6.0780001 15.168 -1.891 0.23
-6.0890002 15.057 -1.878 0.54000002
-6.1739998 15.131 -1.891 0.40000001
-6.2119999 15.088 -1.888 0.40000001
-6.243 15.095 -1.89 0.27000001
-6.2849998 15.064 -1.888 0.49000001
-6.3260002 15.028 -1.886 0.38
-6.375 15.011 -1.887 0.43000001
-6.4289999 15.01 -1.8890001 0.36000001
-6.4949999 15.031 -1.895 0.38
-6.5310001 14.985 -1.891 0.38
-6.579 14.966 -1.892 0.34
-6.572 14.887 -1.882 0.44999999
-6.6259999 14.884 -1.885 0.38
-6.6849999 14.891 -1.888 0.40000001
-6.7509999 14.911 -1.8940001 0.38
-6.835 14.973 -1.906 0.38999999
-6.868 14.921 -1.902 0.43000001
-6.9489999 14.971 -1.9119999 0.34999999
-7.0159998 15.056 -1.925 0.38
-7.0500002 15.005 -1.921 0.40000001
-7.0960002 14.979 -1.921 0.36000001
-7.1469998 14.966 -1.9220001 0.43000001
-7.1880002 14.931 -1.92 0.38
-7.191 14.819 -1.9069999 0.38
-7.2389998 14.798 -1.908 0.33000001
-7.3150001 14.835 -1.916 0.38
-7.323 14.794 -1.9119999 0.38
-7.362 14.755 -1.91 0.38
-7.3990002 14.714 -1.9069999 0.38
-7.5240002 14.846 -1.929 0.44
-7.6279998 14.936 -1.946 0.38
-7.6729999 14.908 -1.9450001 0.34
-7.6900001 14.826 -1.937 0.41
-7.7189999 14.824 -1.938 0.37
-7.7589998 14.788 -1.937 0.38999999
-7.7740002 14.703 -1.928 0.41
-7.855 14.744 -1.937 0.41
-7.8670001 14.656 -1.928 0.38
-7.9070001 14.619 -1.926 0.40000001
-7.9499998 14.589 -1.926 0.41999999
-7.9619999 14.557 -1.923 0.34
-8.0799999 14.664 -1.942 0.43000001
-8.1409998 14.665 -1.946 0.34999999
-8.2819996 14.811 -1.971 0.34999999
-8.3450003 14.814 -1.975 0.40000001
-8.3909998 14.786 -1.975 0.44999999
-8.4259996 14.739 -1.972 0.30000001
-8.4709997 14.765 -1.978 0.44999999
-8.533 14.764 -1.982 0.38
-8.5740004 14.729 -1.98 0.41
-8.6149998 14.693 -1.979 0.43000001
-8.6560001 14.658 -1.978 0.38999999
-8.6800003 14.593 -1.972 0.37
-8.717 14.55 -1.97 0.38
-8.7840004 14.559 -1.975 0.41
-8.8450003 14.608 -1.985 0.38
-8.9029999 14.6 -1.988 0.33000001
-8.9329996 14.547 -1.984 0.31999999
-8.9899998 14.537 -1.987 0.36000001
-8.9759998 14.413 -1.972 0.34999999
-9.0380001 14.411 -1.976 0.31
-9.0670004 14.356 -1.972 0.28999999
-9.0880003 14.34 -1.972 0.28999999
-9.1389999 14.321 -1.974 0.30000001
-9.1960001 14.311 -1.976 0.30000001
-9.2600002 14.312 -1.9809999 0.31
-9.3219995 14.308 -1.985 0.34
-9.3769999 14.295 -1.987 0.28999999
-9.441 14.294 -1.992 0.28999999
-9.4820004 14.307 -1.9960001 0.30000001
-9.5410004 14.299 -1.999 0.30000001
-9.599 14.288 -2.0020001 0.31
-9.6630001 14.286 -2.007 0.28999999
-9.7270002 14.284 -2.0109999 0.31
-9.7889996 14.279 -2.0150001 0.33000001
-9.8509998 14.273 -2.0190001 0.31999999
-9.8900003 14.282 -2.023 0.31
-9.9540005 14.278 -2.027 0.30000001
-10.02 14.276 -2.0309999 0.31999999
-10.083 14.271 -2.0350001 0.30000001
-10.149 14.27 -2.04 0.31
-10.21 14.26 -2.0439999 0.28999999
-10.271 14.251 -2.0469999 0.28999999
-10.341 14.254 -2.053 0.34
-10.38 14.26 -2.0569999 0.34
-10.419 14.219 -2.0550001 0.19
-10.482 14.212 -2.059 0.38999999
-10.571 14.238 -2.069 0.25
-10.639 14.237 -2.0739999 0
-10.687 14.208 -2.075 0
-10.706 14.139 -2.069 0
-10.359 13.636 -1.9910001 0
-10.34 13.522 -1.978 0
-10.392 13.503 -1.98 0
-10.451 13.49 -1.983 0
-10.509 13.478 -1.9859999 0
-10.579 13.481 -1.992 0
-10.648 13.482 -1.998 0.07
-10.708 13.47 -2.0009999 0.14
-10.754 13.484 -2.007 0.23
-10.822 13.483 -2.0120001 0.25
-10.897 13.489 -2.0179999 0.11
-10.962 13.482 -2.023 0.17
-11.033 13.483 -2.029 0.30000001
-11.105 13.485 -2.0350001 0.2
-11.169 13.476 -2.039 0.18000001
-11.216 13.489 -2.0439999 0.30000001
-11.288 13.49 -2.05 0.2
-11.358 13.487 -2.056 0.18000001
-11.423 13.478 -2.0599999 0.22
-11.488 13.47 -2.0650001 0.18000001
-11.56 13.468 -2.0710001 0.31
-11.619 13.451 -2.0739999 0.20999999
-11.679 13.478 -2.082 0.18000001
-11.746 13.47 -2.086 0.31
-11.815 13.463 -2.092 0.2
-11.886 13.458 -2.0969999 0.18000001
-11.958 13.455 -2.1029999 0.31
-12.026 13.445 -2.108 0.2
-12.089 13.431 -2.112 0.18000001
-12.135 13.44 -2.1170001 0.12
-12.156 13.378 -2.1129999 0.16
-12.219 13.364 -2.1170001 0.30000001
-12.311 13.379 -2.1259999 0.25999999
-12.41 13.402 -2.1370001 0.11
-12.479 13.392 -2.142 0.16
-12.592 13.429 -2.155 0.22
-12.611 13.407 -2.155 0.2
-12.721 13.439 -2.1670001 0.23
-12.748 13.383 -2.165 0.34999999
-12.764 13.316 -2.1600001 0.11
-12.77 13.239 -2.1530001 0.16
-12.821 13.208 -2.155 0.12
-12.896 13.202 -2.161 0.15000001
-13.136 13.364 -2.197 0.090000004
-11.788 11.952 -1.948 0.13
-11.848 11.937 -1.952 0.33000001
-11.923 11.938 -1.959 0.25
-12.001 11.941 -1.966 0.25999999
-12.061 11.925 -1.97 0.28
-12.13 11.918 -1.976 0.28999999
-12.205 11.917 -1.982 0.27000001
-12.257 11.93 -1.988 0.28
-12.333 11.929 -1.995 0.28
-12.417 11.935 -2.003 0.28
-12.49 11.931 -2.01 0.28999999
-12.562 11.924 -2.016 0.28999999
-12.637 11.92 -2.023 0.28999999
-12.706 11.91 -2.0280001 0.28999999
-12.754 11.917 -2.033 0.28
-12.835 11.918 -2.0409999 0.28
-12.906 11.908 -2.0469999 0.28
-12.983 11.904 -2.053 0.28
-13.062 11.902 -2.0610001 0.28
-13.142 11.9 -2.0680001 0.25999999
-13.219 11.894 -2.075 0.28
-13.286 11.879 -2.0799999 0.18000001
-13.342 11.891 -2.086 0.43000001
-13.355 11.828 -2.082 0.22
-13.403 11.795 -2.0840001 0.22
-13.479 11.787 -2.0910001 0.36000001
-13.599 11.818 -2.105 0.19
-13.634 11.772 -2.1040001 0.14
-13.612 11.679 -2.095 0.17
-13.233 11.317 -2.0280001 0.28999999
-13.181 11.2 -2.013 0.27000001
-13.196 11.142 -2.01 0.31999999
-13.217 11.089 -2.007 0.25999999
-13.305 11.092 -2.016 0.25
-13.297 11.015 -2.0090001 0.27000001
-13.336 10.977 -2.01 0.36000001
-13.429 11.018 -2.0220001 0.31
-13.416 10.937 -2.0139999 0.25999999
-13.518 10.949 -2.026 0.14
-13.586 10.934 -2.0309999 0
-13.521 10.812 -2.0150001 0
-13.012 10.337 -1.926 0
-13.066 10.313 -1.9299999 0
-13.12 10.322 -1.936 0
-13.205 10.322 -1.944 0
-13.283 10.316 -1.952 0.14
-13.38 10.324 -1.962 0.28999999
-13.464 10.322 -1.971 0.18000001
-13.548 10.319 -1.979 0.36000001
-13.634 10.318 -1.988 0.22
-13.705 10.303 -1.994 0.2
-13.78 10.326 -2.003 0.37
-13.86 10.318 -2.0109999 0.2
-13.943 10.312 -2.0190001 0.36000001
-14.015 10.298 -2.0250001 0.19
-14.092 10.287 -2.0320001 0.34999999
-14.187 10.288 -2.0420001 0.18000001
-14.273 10.282 -2.05 0.34999999
-14.337 10.294 -2.0580001 0.2
-14.414 10.281 -2.0650001 0.13
-14.476 10.257 -2.0699999 0.18000001
-14.545 10.237 -2.076 0.28
-14.556 10.177 -2.072 0.19
-14.622 10.155 -2.0780001 0.33000001
-14.809 10.216 -2.102 0.20999999
-14.895 10.241 -2.1129999 0.22
-14.962 10.218 -2.118 0.41
-15.025 10.192 -2.1229999 0.25
-15.073 10.156 -2.125 0.27000001
-14.993 10.033 -2.108 0.23
-15.069 10.016 -2.115 0.41
-15.069 9.948 -2.1099999 0.23
-15.019 9.8800001 -2.0999999 0.25
-15.139 9.8920002 -2.1140001 0.23
-15.185 9.8540001 -2.1159999 0
-13.67 8.8070002 -1.88 0.059999999
-13.741 8.7919998 -1.887 0.17
-13.845 8.7969999 -1.899 0.23999999
-13.918 8.783 -1.906 0.28
-14.001 8.8039999 -1.916 0.28
-14.086 8.7959995 -1.925 0.28
-14.175 8.79 -1.934 0.28
-14.277 8.7919998 -1.9450001 0.28
-14.376 8.79 -1.956 0.23
-14.473 8.7880001 -1.966 0.28999999
-14.553 8.7740002 -1.974 0.20999999
-14.624 8.7860003 -1.983 0.28
-14.724 8.783 -1.993 0.25999999
-14.816 8.7749996 -2.003 0.25
-11.884 6.9819999 -1.564 0.17
-13.758 8.0299997 -1.8380001 0.19
-15.042 8.7189999 -2.0239999 0.17
-13.949 8.0240002 -1.859 0.20999999
-14.016 8.0039997 -1.865 0.33000001
-14.08 8.0120001 -1.873 0.31
-14.148 7.9920001 -1.8789999 0.31999999
-14.272 8.0030003 -1.893 0.31999999
-12.345 6.868 -1.607 0.25999999
-12.261 6.77 -1.592 0.33000001
-14.485 7.9450002 -1.914 0.22
-13.925 7.579 -1.8279999 0.23999999
-12.5 6.7750001 -1.619 0.37
-12.568 6.7610002 -1.626 0.44
-14.22 7.5960002 -1.863 0.28999999
-12.896 6.8340001 -1.6670001 0.18000001
-12.808 6.7360001 -1.652 0.38
-12.838 6.6999998 -1.653 0.36000001
-13.301 6.8899999 -1.717 0.30000001
-13.495 6.9369998 -1.7410001 0.28999999
-13.919 7.1279998 -1.801 0.30000001
-13.82 7.0219998 -1.783 0.25
-13.696 6.9050002 -1.762 0.46000001
-13.759 6.8829999 -1.768 0.38999999
-13.851 6.875 -1.778 0.25
-14.09 6.9390001 -1.809 0.43000001
-14.04 6.8870001 -1.801 0.33000001
-14.037 6.8299999 -1.7970001 0.38
-14.121 6.816 -1.806 0.41999999
-14.192 6.796 -1.813 0.33000001
-14.296 6.7909999 -1.825 0.41999999
-14.33 6.7519999 -1.827 0.31
-14.297 6.6820002 -1.819 0.46000001
-14.321 6.638 -1.8200001 0.27000001
-14.454 6.6719999 -1.837 0.44999999
-14.502 6.6389999 -1.841 0.41
-14.591 6.625 -1.85 0.38999999
-14.675 6.6079998 -1.859 0.37
-14.774 6.5970001 -1.87 0.37
-14.829 6.566 -1.875 0.37
-14.906 6.5440001 -1.883 0.44999999
-14.931 6.527 -1.885 0.37
-14.991 6.4970002 -1.89 0.47999999
-14.993 6.4419999 -1.888 0.38999999
-15.052 6.4109998 -1.893 0.28
-15.075 6.3660002 -1.8940001 0.28999999
-15.172 6.3509998 -1.904 0.31
-15.263 6.3330002 -1.914 0.30000001
-15.371 6.349 -1.928 0.28999999
-15.482 6.3379998 -1.9400001 0.28999999
-15.592 6.3260002 -1.9529999 0.30000001
-15.711 6.3169999 -1.966 0.31
-15.817 6.303 -1.978 0.31999999
-15.935 6.2919998 -1.992 0.28
-16.041 6.276 -2.0039999 0.25
-16.129 6.2519999 -2.013 0.41
-16.208 6.2529998 -2.023 0.34999999
-16.407 6.2709999 -2.0469999 0.28999999
-16.495001 6.2459998 -2.0569999 0.37
-16.589001 6.2220001 -2.0669999 0.36000001
-16.690001 6.1999998 -2.0780001 0.40000001
-16.73 6.1550002 -2.0810001 0.30000001
-16.74 6.099 -2.079 0.28999999
-16.766001 6.079 -2.082 0.28999999
-16.789 6.0279999 -2.082 0.28999999
-16.804001 5.974 -2.082 0.28999999
-16.823 5.921 -2.082 0.31
-16.853001 5.8720002 -2.0829999 0.30000001
-16.867001 5.8179998 -2.0829999 0.30000001
-16.870001 5.7589998 -2.0810001 0.28999999
-16.898001 5.7389998 -2.0829999 0.30000001
-16.899 5.6799998 -2.0810001 0.28999999
-16.924999 5.6300001 -2.082 0.28999999
-16.936001 5.5749998 -2.0810001 0.30000001
-16.955999 5.5219998 -2.0810001 0.31999999
-16.966999 5.467 -2.0810001 0.27000001
-17.003 5.4200001 -2.0829999 0.31999999
-17.000999 5.3889999 -2.082 0.30000001
-17.027 5.3390002 -2.0829999 0.28999999
-17.040001 5.2839999 -2.082 0.28999999
-17.042999 5.2270002 -2.0810001 0.28999999
-17.063 5.1739998 -2.0810001 0.28999999
-17.089001 5.1230001 -2.082 0.30000001
-17.099001 5.0679998 -2.082 0.30000001
-17.107 5.0120001 -2.0810001 0.28999999
-17.101999 4.9809999 -2.079 0.25
-17.1 4.8639998 -2.075 0.51999998
-17.125 4.8130002 -2.076 0.38
-17.163 4.7659998 -2.079 0.49000001
-17.184 4.7140002 -2.0799999 0.28999999
-17.195 4.6589999 -2.079 0.30000001
-17.194 4.6300001 -2.0780001 0.28999999
-17.216 4.5780001 -2.079 0.28999999
-17.229 4.5229998 -2.079 0.28999999
-17.245001 4.4689999 -2.079 0.28
-17.264 4.4169998 -2.0799999 0.28
-17.284 4.3639998 -2.0810001 0.28
-17.290001 4.3070002 -2.0799999 0.28999999
-17.304001 4.2820001 -2.0810001 0.28
-17.334999 4.2319999 -2.0829999 0.27000001
-17.351999 4.1789999 -2.0829999 0.27000001
-17.356001 4.1220002 -2.082 0.25999999
-17.379999 4.0700002 -2.0840001 0.27000001
-17.399 4.0170002 -2.0840001 0.25999999
-17.405001 3.961 -2.0840001 0.27000001
-17.413 3.934 -2.0840001 0.27000001
-17.412001 3.8759999 -2.082 0.27000001
-17.413 3.819 -2.0810001 0.27000001
-17.43 3.7650001 -2.0810001 0.28
-17.438 3.71 -2.0810001 0.27000001
-17.452 3.655 -2.0810001 0.27000001
-17.465 3.6010001 -2.0810001 0.28
-17.478001 3.546 -2.082 0.28999999
-17.48 3.5179999 -2.0810001 0.28
-17.499001 3.4649999 -2.082 0.28
-17.511 3.4100001 -2.082 0.27000001
-17.516001 3.3540001 -2.082 0.27000001
-17.527 3.299 -2.082 0.28
-17.545 3.2449999 -2.0829999 0.28
-17.552999 3.1900001 -2.082 0.27000001
-17.563999 3.1630001 -2.0829999 0.27000001
-17.562 3.1059999 -2.082 0.27000001
-17.573 3.0510001 -2.082 0.25
-17.601999 2.9990001 -2.0840001 0.27000001
-17.608 2.9430001 -2.0840001 0.23999999
-17.621 2.8889999 -2.0840001 0
-17.659 2.8380001 -2.0880001 0
-17.645 2.75 -2.085 0.38
-17.646 2.694 -2.0840001 0.25
-17.66 2.6389999 -2.0840001 0.27000001
-17.662001 2.5829999 -2.0840001 0.25
-17.67 2.527 -2.0840001 0.25
-17.674 2.471 -2.0829999 0.27000001
-17.674 2.4430001 -2.0829999 0.25
-17.688 2.388 -2.0829999 0.25999999
-17.702999 2.3340001 -2.0840001 0.27000001
-17.718 2.279 -2.085 0.25999999
-17.702 2.22 -2.082 0.17
-17.708 2.165 -2.082 0.37
-17.711 2.109 -2.082 0.30000001
-17.732 2.0829999 -2.0840001 0.56
-17.739 2.027 -2.0840001 0.20999999
-17.764999 1.974 -2.0869999 0.38
-17.775 1.918 -2.0869999 0.22
-17.777 1.862 -2.0869999 0.2
-17.788 1.807 -2.0869999 0.36000001
-17.794001 1.751 -2.0869999 0.2
-17.792 1.694 -2.086 0.38
-17.782 1.665 -2.085 0.23
-17.77 1.608 -2.0829999 0.19
-17.469999 1.525 -2.0439999 0.19
-17.469 1.469 -2.043 0.41
-17.452 1.413 -2.04 0.23
-17.454 1.358 -2.04 0.2
-17.466 1.303 -2.0409999 0.41
-17.476 1.249 -2.0420001 0.25
-17.482 1.194 -2.0420001 0.27000001
-17.48 1.1390001 -2.0409999 0.25
-17.476 1.1109999 -2.04 0.25999999
-17.479 1.056 -2.04 0.27000001
-17.488001 1.002 -2.0409999 0.27000001
-17.497 0.94700003 -2.0420001 0.25
-17.492001 0.89200002 -2.0409999 0.19
-17.511 0.83700001 -2.043 0.44999999
-17.507 0.78200001 -2.0420001 0.25
-17.525999 0.755 -2.0439999 0.23999999
-17.537001 0.70099998 -2.0450001 0.18000001
-17.545 0.64600003 -2.046 0.43000001
-17.556999 0.59100002 -2.0469999 0.25
-17.563999 0.53600001 -2.0480001 0.2
-17.586 0.48100001 -2.0510001 0.41
-17.587 0.426 -2.0510001 0.23999999
-17.594 0.39899999 -2.0510001 0.2
-17.591 0.34299999 -2.0510001 0.41
-17.586 0.28799999 -2.05 0.25
-17.599001 0.233 -2.052 0.23
-17.594999 0.178 -2.0510001 0.18000001
-17.573999 0.122 -2.0480001 0.41999999
-17.556 0.067000002 -2.046 0.25
-17.555 0.039000001 -2.046 0.27000001
-17.555 -0.016000001 -2.046 0.28
-17.545 -0.071000002 -2.0450001 0.27000001
-17.538 -0.126 -2.0439999 0.27000001
-17.549999 -0.18099999 -2.0450001 0.27000001
-17.570999 -0.237 -2.0480001 0.27000001
-17.582001 -0.292 -2.05 0.28999999
-17.597 -0.31999999 -2.052 0.28999999
-17.614 -0.37599999 -2.0539999 0.27000001
-17.627001 -0.43099999 -2.056 0.28
-17.618999 -0.486 -2.0550001 0.27000001
-17.622 -0.542 -2.056 0.25999999
-17.598 -0.597 -2.053 0.23
-17.545 -0.64999998 -2.046 0.38
-17.596001 -0.70700002 -2.053 0.25
-17.621 -0.736 -2.056 0.25
-17.499001 -0.78600001 -2.0409999 0.31999999
-17.372 -0.83499998 -2.0250001 0.43000001
-16.702999 -0.85699999 -1.9400001 0.18000001
-16.507999 -0.89899999 -1.915 0.23999999
-16.468 -0.949 -1.91 0.38
-16.445 -0.99900001 -1.908 0.46000001
-15.826 -0.98799998 -1.829 0.28999999
-16.275999 -1.066 -1.887 0.34
-15.778 -1.084 -1.823 0.34
-15.695 -1.128 -1.813 0.27000001
-16.113001 -1.2079999 -1.867 0.44999999
-16.099001 -1.258 -1.8660001 0.27000001
-15.688 -1.276 -1.814 0.23999999
-16.370001 -1.357 -1.902 0.28
-16.382999 -1.41 -1.904 0.31999999
-16.349001 -1.4579999 -1.9 0.30000001
-16.332001 -1.5089999 -1.898 0.31999999
-16.313999 -1.559 -1.897 0.31999999
-16.291 -1.608 -1.8940001 0.31
-16.27 -1.658 -1.892 0.31999999
-16.242001 -1.681 -1.8890001 0.31
-16.221001 -1.73 -1.887 0.30000001
-16.198999 -1.779 -1.885 0.31
-16.158001 -1.826 -1.88 0.30000001
-16.145 -1.876 -1.8789999 0.31999999
-16.135 -1.926 -1.8789999 0.31999999
-16.101 -1.974 -1.875 0.31
-16.075001 -2.0220001 -1.873 0.30000001
-16.042 -2.043 -1.869 0.30000001
-16.032 -2.0929999 -1.869 0.30000001
-16.006001 -2.141 -1.8660001 0.28999999
-15.985 -2.1889999 -1.864 0.30000001
-15.941 -2.234 -1.859 0.30000001
-15.92 -2.283 -1.858 0.31
-15.893 -2.3299999 -1.855 0.31999999
-15.864 -2.3510001 -1.852 0.30000001
-15.839 -2.398 -1.85 0.31
-15.809 -2.4449999 -1.847 0.31
-15.792 -2.493 -1.845 0.31999999
-15.776 -2.5409999 -1.844 0.31999999
-15.739 -2.586 -1.841 0.31999999
-15.713 -2.632 -1.8380001 0.31999999
-15.691 -2.654 -1.836 0.31999999
-15.667 -2.701 -1.834 0.28999999
-15.645 -2.7479999 -1.832 0.33000001
-15.626 -2.7950001 -1.831 0.31999999
-15.598 -2.8410001 -1.8279999 0.31999999
-15.56 -2.8840001 -1.825 0.31999999
-15.539 -2.931 -1.823 0.31999999
-15.526 -2.954 -1.822 0.31
-15.496 -2.9979999 -1.819 0.31999999
-15.472 -3.0439999 -1.818 0.31
-15.453 -3.0910001 -1.816 0.28999999
-15.424 -3.1359999 -1.814 0.30000001
-15.402 -3.1819999 -1.812 0.31
-15.386 -3.2290001 -1.811 0.31
-15.366 -3.25 -1.809 0.31
-15.34 -3.2950001 -1.807 0.31
-15.322 -3.3410001 -1.806 0.31
-15.29 -3.385 -1.804 0.31999999
-15.264 -3.4289999 -1.802 0.31
-15.237 -3.474 -1.8 0.31
-15.217 -3.5190001 -1.798 0.30000001
-15.202 -3.5409999 -1.7970001 0.31999999
-15.179 -3.586 -1.795 0.30000001
-15.15 -3.6300001 -1.793 0.31
-15.125 -3.674 -1.791 0.30000001
-15.104 -3.7190001 -1.79 0.31999999
-15.071 -3.7609999 -1.7869999 0.31
-15.045 -3.8050001 -1.786 0.31
-15.03 -3.8510001 -1.785 0.31999999
-15.01 -3.872 -1.783 0.30000001
-14.981 -3.914 -1.781 0.31
-14.962 -3.96 -1.78 0.31
-14.94 -4.0040002 -1.779 0.33000001
-14.903 -4.0440001 -1.776 0.33000001
-14.898 -4.0929999 -1.777 0.23999999
-14.858 -4.1329999 -1.773 0.31999999
-14.842 -4.1529999 -1.772 0.28
-14.813 -4.1960001 -1.77 0.28999999
-14.793 -4.2399998 -1.7690001 0.28999999
-14.773 -4.2849998 -1.768 0.30000001
-14.747 -4.3270001 -1.766 0.30000001
-14.714 -4.368 -1.7640001 0.28999999
-14.7 -4.414 -1.7640001 0.28999999
-14.679 -4.4580002 -1.763 0.28999999
-14.651 -4.4749999 -1.76 0.30000001
-14.638 -4.5209999 -1.76 0.30000001
-14.622 -4.5669999 -1.76 0.28999999
-14.591 -4.6069999 -1.758 0.28999999
-14.588 -4.6570001 -1.7589999 0.30000001
-14.558 -4.698 -1.757 0.30000001
-14.549 -4.7199998 -1.757 0.28
-14.526 -4.763 -1.756 0.27000001
-14.502 -4.8060002 -1.755 0.31999999
-14.436 -4.8340001 -1.748 0.34
-14.349 -4.8559999 -1.738 0.41
-14.26 -4.8759999 -1.728 0.43000001
-14.209 -4.908 -1.723 0.34
-14.17 -4.9200001 -1.719 0.40000001
-14.135 -4.9569998 -1.717 0.36000001
-14.002 -4.96 -1.701 0.41
-13.919 -4.98 -1.691 0.41
-13.864 -5.0100002 -1.686 0.44
-13.787 -5.0310001 -1.678 0.40000001
-13.756 -5.0689998 -1.676 0.41
-13.721 -5.105 -1.673 0.38999999
-13.559 -5.0689998 -1.652 0.31
-13.305 -5.0229998 -1.62 0.40000001
-13.178 -5.0219998 -1.604 0.31
-12.945 -4.9809999 -1.575 0.28999999
-12.932 -5.0219998 -1.575 0.44999999
-12.834 -5.0310001 -1.564 0.38
-12.992 -5.1399999 -1.5880001 0.31
-12.999 -5.1659999 -1.59 0.28
-12.995 -5.2119999 -1.592 0.41
-13.082 -5.2940001 -1.6059999 0.31999999
-13.032 -5.322 -1.601 0.36000001
-13.003 -5.3569999 -1.599 0.37
-13.026 -5.415 -1.605 0.38999999
-13.029 -5.4640002 -1.608 0.36000001
-13.086 -5.5120001 -1.617 0.43000001
-13.23 -5.6209998 -1.6390001 0.36000001
-13.101 -5.6149998 -1.624 0.33000001
-13.212 -5.7119999 -1.642 0.36000001
-13.353 -5.822 -1.664 0.44
-13.436 -5.9089999 -1.678 0.23
-13.194 -5.8520002 -1.647 0.38
-13.326 -5.961 -1.668 0.28999999
-12.69 -5.7020001 -1.58 0.27000001
-12.822 -5.809 -1.601 0.23999999
-12.768 -5.8330002 -1.596 0.38
-12.616 -5.8119998 -1.577 0.20999999
-13.812 -6.4130001 -1.748 0.41999999
-13.84 -6.4780002 -1.755 0.25999999
-14.315 -6.7550001 -1.825 0.34
-14.283 -6.7670002 -1.822 0.47
-14.745 -7.0419998 -1.891 0.36000001
-14.886 -7.1659999 -1.914 0.34
-14.358 -6.9689999 -1.842 0.28999999
-14.281 -6.987 -1.834 0.55000001
-14.406 -7.1040001 -1.855 0.33000001
-14.315 -7.1149998 -1.845 0.38
-14.294 -7.1329999 -1.844 0.33000001
-14.52 -7.303 -1.8789999 0.38999999
-14.611 -7.4050002 -1.896 0.52999997
-14.683 -7.5 -1.909 0.28999999
-12.754 -6.5689998 -1.636 0.38
-12.667 -6.5749998 -1.626 0.41
-12.233 -6.3990002 -1.566 0.40000001
-12.12 -6.3649998 -1.552 0.28
-12.518 -6.6230001 -1.612 0.61000001
-12.238 -6.5250001 -1.575 0.23
-12.175 -6.5409999 -1.568 0.46000001
-12.05 -6.5219998 -1.553 0.36000001
-12.242 -6.6760001 -1.584 0.38999999
-11.986 -6.586 -1.55 0.44999999
-11.997 -6.6160002 -1.553 0.25999999
-12.009 -6.6719999 -1.558 0.41999999
-12.014 -6.724 -1.562 0.31999999
-12.039 -6.7880001 -1.568 0.41999999
-12.111 -6.8779998 -1.582 0.44999999
-11.781 -6.7410002 -1.5369999 0.28999999
-11.796 -6.7979999 -1.5420001 0.52999997
-11.737 -6.789 -1.535 0.18000001
-11.63 -6.776 -1.522 0.46000001
-11.706 -6.8699999 -1.5369999 0.34999999
-11.296 -6.678 -1.479 0.47999999
-11.463 -6.8249998 -1.507 0.43000001
-11.382 -6.8249998 -1.498 0.36000001
-11.67 -7.0469999 -1.544 0.22
-11.821 -7.1880002 -1.5700001 0.25999999
-11.669 -7.1220002 -1.549 0.56999999
-11.482 -7.0580001 -1.525 0.2
-10.719 -6.6370001 -1.413 0.41999999
-10.902 -6.7969999 -1.444 0.43000001
-10.909 -6.849 -1.448 0.38
-10.795 -6.8249998 -1.434 0.37
-10.804 -6.855 -1.437 0.63999999
-11.782 -7.5760002 -1.592 0.58999997
-11.574 -7.4949999 -1.564 0.34
-12.045 -7.8520002 -1.64 0.34
-10.513 -6.9039998 -1.409 0.31
-10.845 -7.171 -1.464 0.31
-10.777 -7.1739998 -1.457 0.46000001
-10.749 -7.1799998 -1.454 0.40000001
-10.729 -7.2160001 -1.455 0.25
-10.73 -7.2649999 -1.4579999 0.34999999
-10.679 -7.2800002 -1.454 0.55000001
-10.787 -7.4029999 -1.474 0.41999999
-10.151 -7.0149999 -1.3789999 0.33000001
-10.116 -7.0380001 -1.377 0.31999999
-10.064 -7.026 -1.3710001 0.5
-10.047 -7.0609999 -1.3710001 0.31999999
-10.008 -7.0809999 -1.369 0.50999999
-10.2 -7.263 -1.402 0.38999999
-15.113 -10.819 -2.178 0.18000001
-19.179001 -13.812 -2.823 0.13
-10.517 -7.638 -1.4630001 0.25999999
-10.527 -7.671 -1.467 0.66000003
-10.476 -7.684 -1.462 0.16
-9.0930004 -6.7179999 -1.247 0.28999999
-9.0530005 -6.7329998 -1.244 0.5
-9.0389996 -6.7670002 -1.245 0.31999999
-9.0120001 -6.7909999 -1.244 0.63
-9.8369999 -7.4580002 -1.38 0.17
-8.4639997 -6.4419999 -1.161 0.33000001
-8.4639997 -6.4850001 -1.165 0.44
-8.4230003 -6.4959998 -1.161 0.44999999
-8.4169998 -6.533 -1.164 0.27000001
-8.3649998 -6.5349998 -1.158 0.49000001
-8.3629999 -6.5760002 -1.161 0.38999999
-8.3290005 -6.5910001 -1.159 0.47
-8.2919998 -6.605 -1.1569999 0.20999999
-8.1529999 -6.5149999 -1.136 0.56
-8.1370001 -6.5450001 -1.136 0.38999999
-8.0749998 -6.5370002 -1.13 0.27000001
-8.0900002 -6.5910001 -1.135 0.40000001
-9.8310003 -8.0530005 -1.426 0.2
-7.993 -6.5960002 -1.126 0.55000001
-7.9809999 -6.6290002 -1.128 0.25
-6.777 -5.651 -0.92900002 0.56
-6.7589998 -5.6719999 -0.92900002 0.28
-6.7389998 -5.6919999 -0.92900002 0.38999999
-8.0640001 -6.848 -1.154 0.23
-7.994 -6.8319998 -1.146 0.58999997
-6.5380001 -5.6290002 -0.90399998 0.27000001
-9.2200003 -7.9749999 -1.36 0.41
-9.1890001 -7.974 -1.357 0.31999999
-7.2969999 -6.3790002 -1.04 0.14
-6.461 -5.6880002 -0.90200001 0.38999999
-6.4169998 -5.6859999 -0.89700001 0.30000001
-6.3930001 -5.7010002 -0.89600003 0.47
-6.5430002 -5.8699999 -0.92500001 0.22
-6.4710002 -5.8429999 -0.91600001 0.54000002
-6.5339999 -5.9180002 -0.92799997 0.34999999
-7.9109998 -7.2020001 -1.169 0.38
-6.6849999 -6.1300001 -0.96100003 0.28
-6.6009998 -6.092 -0.94999999 0.34999999
-6.6170001 -6.145 -0.95599997 0.34
-6.5799999 -6.1490002 -0.95300001 0.38
-6.5089998 -6.1209998 -0.94400001 0.37
-6.414 -6.0510001 -0.92900002 0.34999999
-6.5229998 -6.1929998 -0.95099998 0.47
-6.5349998 -6.243 -0.95700002 0.31999999
-6.5050001 -6.2540002 -0.95499998 0.55000001
-6.0250001 -5.8319998 -0.87300003 0.28
-6.7080002 -6.5289998 -0.99800003 0.34999999
-6.6789999 -6.5419998 -0.99699998 0.28999999
-6.6459999 -6.5300002 -0.99299997 0.46000001
-5.8249998 -5.7639999 -0.84899998 0.28
-5.796 -5.7709999 -0.847 0.44
-5.7160001 -5.7280002 -0.83600003 0.31999999
-5.6599998 -5.7080002 -0.829 0.46000001
-5.6149998 -5.6989999 -0.824 0.38
-5.5009999 -5.619 -0.80699998 0.2
-5.4990001 -5.652 -0.80900002 0.2
-5.3969998 -5.5650001 -0.792 0.31
-5.3629999 -5.5650001 -0.78899997 0.34
-5.3449998 -5.5819998 -0.78899997 0.54000002
-5.4860001 -5.763 -0.81900001 0.22
-5.6960001 -6.0209999 -0.861 0.38
-5.3800001 -5.724 -0.80599999 0.31999999
-5.3559999 -5.7350001 -0.80500001 0.20999999
-5.3940001 -5.7930002 -0.81300002 0.25999999
-5.5609999 -6.0089998 -0.84799999 0.34999999
-5.2449999 -5.7059999 -0.792 0.23
-5.1989999 -5.6919999 -0.787 0.47999999
-5.4489999 -6.0009999 -0.838 0.2
-5.4250002 -6.0120001 -0.83700001 0.31999999
-5.4590001 -6.0879998 -0.847 0.47999999
-5.612 -6.2779999 -0.87800002 0.17
-5.6220002 -6.3280001 -0.88300002 0.25
-5.5700002 -6.3099999 -0.87699997 0.46000001
-5.5830002 -6.3649998 -0.884 0.28999999
-5.5549998 -6.3730001 -0.88200003 0.38999999
-6.256 -7.2179999 -1.022 0.5
-4.6919999 -5.4569998 -0.72100002 0.17
-4.677 -5.4569998 -0.72000003 0.46000001
-4.697 -5.5159998 -0.727 0.19
-4.6259999 -5.467 -0.71700001 0.27000001
-4.823 -5.7340002 -0.759 0.27000001
-4.8649998 -5.8210001 -0.77100003 0.27000001
-4.961 -5.973 -0.79400003 0.34999999
-4.6279998 -5.6100001 -0.73100001 0.25
-4.605 -5.6009998 -0.72799999 0.36000001
-4.5999999 -5.6300001 -0.73100001 0.30000001
-4.494 -5.5370002 -0.713 0.27000001
-4.4229999 -5.4850001 -0.70200002 0.27000001
-4.8559999 -6.0560002 -0.79400003 0.31999999
-4.8499999 -6.0879998 -0.796 0.34
-4.9710002 -6.2789998 -0.82499999 0.23
-5.119 -6.4860001 -0.85799998 0.33000001
-5.1030002 -6.5079999 -0.85900003 0.28
-5.0819998 -6.5219998 -0.85799998 0.54000002
-6.5380001 -8.4329996 -1.166 0.27000001
-5.3039999 -6.895 -0.91299999 0.44999999
-5.2470002 -6.8660002 -0.90600002 0.34
-5.0999999 -6.7179999 -0.88 0.2
-4.737 -6.2620001 -0.80500001 0.28999999
-4.7119999 -6.2709999 -0.80400002 0.38
-4.6900001 -6.2820001 -0.80400002 0.38
-4.665 -6.2909999 -0.80299997 0.34999999
-4.6399999 -6.2969999 -0.801 0.36000001
-4.5479999 -6.2140002 -0.78600001 0.51999998
-6.112 -8.3909998 -1.1289999 0.15000001
-5.9710002 -8.2259998 -1.101 0.28
-4.9029999 -6.8070002 -0.87400001 0.23
-4.9289999 -6.8889999 -0.884 0.38999999
-6.27 -8.8079996 -1.184 0.16
-11.783 -16.622999 -2.4070001 0.18000001
-6.125 -8.7209997 -1.164 0.23
-6.632 -9.5019999 -1.283 0.37
-5.5320001 -7.9590001 -1.04 0.25999999
-5.5100002 -7.9809999 -1.041 0.28999999
-5.546 -8.0869999 -1.0549999 0.43000001
-5.5089998 -8.0880003 -1.052 0.34
-5.5050001 -8.1359997 -1.057 0.38999999
-5.54 -8.2440004 -1.071 0.38
-5.0560002 -7.6300001 -0.97100002 0.44999999
-5.0809999 -7.6939998 -0.98000002 0.36000001
-5.0300002 -7.6690001 -0.97399998 0.41
-5.0489998 -7.7509999 -0.98400003 0.34
-5.0180001 -7.757 -0.98199999 0.46000001
-4.9970002 -7.777 -0.98299998 0.2
-5.0120001 -7.855 -0.99299997 0.57999998
-4.4380002 -7.0089998 -0.86199999 0.34
-4.4180002 -7.0009999 -0.86000001 0.20999999
-4.9219999 -7.849 -0.986 0.46000001
-3.9089999 -6.2870002 -0.74800003 0.34
-3.8840001 -6.2909999 -0.74599999 0.31999999
-3.8659999 -6.3060002 -0.74699998 0.33000001
-3.8670001 -6.3520002 -0.75199997 0.43000001
-4.0100002 -6.632 -0.792 0.2
-4.1659999 -6.9120002 -0.833 0.31999999
-4.197 -7.013 -0.84600002 0.18000001
-4.395 -7.3940001 -0.90100002 0.49000001
-4.1079998 -6.9619999 -0.83499998 0.30000001
-4.0830002 -6.9699998 -0.83399999 0.30000001
-4.0619998 -6.9850001 -0.83399999 0.28999999
-4.0409999 -6.9990001 -0.83399999 0.5
-4.6279998 -8.0369997 -0.98699999 0.17
-4.6100001 -8.0649996 -0.98900002 0.27000001
-4.934 -8.691 -1.079 0.44999999
-3.424 -6.092 -0.69499999 0.27000001
-4.3099999 -7.711 -0.93099999 0.44999999
-3.3499999 -6.0500002 -0.685 0.19
-3.6300001 -6.5999999 -0.764 0.28
-3.5969999 -6.5640001 -0.75800002 0.38
-3.5710001 -6.5640001 -0.75700003 0.33000001
-3.546 -6.5689998 -0.75599998 0.23
-3.527 -6.5809999 -0.75599998 0.41999999
-3.53 -6.638 -0.76200002 0.46000001
-3.5150001 -6.6599998 -0.764 0.20999999
-3.5020001 -6.6859999 -0.76599997 0.28999999
-3.4649999 -6.6409998 -0.759 0.34
-3.444 -6.652 -0.759 0.41
-3.6930001 -7.184 -0.83399999 0.20999999
-3.7750001 -7.3979998 -0.86299998 0.47
-4.0159998 -7.928 -0.93699998 0.28999999
-3.967 -7.8930001 -0.93099999 0.37
-4.4679999 -8.9530001 -1.081 0.33000001
-10.834 -21.709 -2.904 0.20999999
-10.638 -21.485001 -2.8670001 0.17
-9.3839998 -19.111 -2.5239999 0.30000001
-9.3620005 -19.218 -2.5350001 0.41999999
-9.243 -19.125999 -2.517 0.15000001
-9.9230003 -20.695 -2.7360001 0.47
-9.8330002 -20.674 -2.7290001 0.28999999
-9.29 -19.614 -2.576 0.36000001
-9.2379999 -19.663 -2.579 0.14
-4.2529998 -9.1599998 -1.092 0.23
-4.2129998 -9.1479998 -1.089 0.56999999
-9.007 -19.652 -2.5650001 0.20999999
-8.9540005 -19.698 -2.5680001 0.54000002
-6.5029998 -14.505 -1.834 0.51999998
-6.3969998 -14.389 -1.8150001 0.34
-4.0929999 -9.309 -1.101 0.20999999
-4.0430002 -9.2740002 -1.095 0.40000001
-4.02 -9.3000002 -1.097 0.36000001
-3.98 -9.2880001 -1.0930001 0.63
-3.9560001 -9.3120003 -1.095 0.36000001
-7.0479999 -16.611 -2.109 0.17
-6.0939999 -14.499 -1.812 0.30000001
-5.9660001 -14.32 -1.785 0.56
-5.96 -14.434 -1.798 0.41999999
-5.9380002 -14.508 -1.806 0.17
-5.849 -14.42 -1.791 0.16
-3.7219999 -9.2860003 -1.08 0.56999999
-3.733 -9.3540001 -1.089 0.27000001
-3.6830001 -9.3140001 -1.082 0.28
-3.645 -9.3039999 -1.079 0.63999999
-3.6760001 -9.4680004 -1.1 0.34
-5.632 -14.604 -1.803 0.36000001
-5.5910001 -14.634 -1.804 0.16
-3.523 -9.3360004 -1.077 0.50999999
-3.5 -9.3629999 -1.079 0.25999999
-3.4679999 -9.323 -1.073 0.61000001
-3.4360001 -9.3260002 -1.072 0.27000001
-5.2620001 -14.382 -1.7589999 0.27000001
-3.3540001 -9.2860003 -1.064 0.38999999
-3.3269999 -9.302 -1.064 0.41
-3.306 -9.335 -1.067 0.34999999
-3.303 -9.4180002 -1.077 0.38
-5.131 -14.663 -1.788 0.19
-3.244 -9.3920002 -1.072 0.31999999
-3.2030001 -9.3710003 -1.067 0.5
-5.0630002 -14.917 -1.816 0.19
-5.0479999 -15.025 -1.8279999 0.5
-4.98 -14.979 -1.8200001 0.30000001
-3.0829999 -9.4029999 -1.066 0.34
-3.0769999 -9.434 -1.0700001 0.27000001
-3.221 -9.9790001 -1.142 0.37
-3.1789999 -9.9549999 -1.137 0.43000001
-3.132 -9.9160004 -1.131 0.51999998
-2.9779999 -9.5360003 -1.079 0.23
-4.7509999 -15.328 -1.853 0.34
-2.9990001 -9.816 -1.114 0.34
-2.7720001 -9.132 -1.021 0.25
-2.9489999 -9.8190002 -1.112 0.20999999
-2.9400001 -9.8999996 -1.122 0.57999998
-2.872 -9.7860003 -1.105 0.23999999
-2.8629999 -9.8690004 -1.115 0.36000001
-2.582 -9.0150003 -1 0.27000001
-2.539 -8.9689999 -0.99299997 0.19
-2.533 -9.0019999 -0.99699998 0.30000001
-2.493 -8.9680004 -0.991 0.56999999
-2.4649999 -8.9779997 -0.99199998 0.38999999
-4.2129998 -15.463 -1.851 0.17
-4.0339999 -14.996 -1.7869999 0.40000001
-4.0229998 -15.145 -1.8049999 0.38999999
-4.006 -15.272 -1.8200001 0.22
-3.9560001 -15.177 -1.807 0.52999997
-3.914 -15.214 -1.8099999 0.20999999
-3.822 -15.053 -1.7869999 0.33000001
-3.773 -15.058 -1.786 0.56999999
-3.789 -15.324 -1.8200001 0.14
-3.7639999 -15.428 -1.832 0.23
-3.78 -15.708 -1.867 0.40000001
-3.661 -15.426 -1.8279999 0.51999998
-3.5810001 -15.2 -1.798 0.25999999
-4.369 -18.781 -2.267 0.34
-3.6129999 -15.775 -1.8710001 0.30000001
-3.4000001 -15.067 -1.776 0.23
-3.372 -15.163 -1.7869999 0.38
-3.3280001 -15.189 -1.789 0.28999999
-3.2909999 -15.136 -1.7819999 0.55000001
-3.2449999 -15.154 -1.783 0.31999999
-3.1930001 -15.145 -1.78 0.47
-3.2809999 -15.801 -1.865 0.22
-3.098 -15.164 -1.78 0.34
-3.0599999 -15.219 -1.786 0.34
-3 -15.168 -1.778 0.34999999
-3.05 -15.546 -1.827 0.57999998
-2.9960001 -15.528 -1.823 0.22
-2.957 -15.592 -1.83 0.19
-2.9719999 -16.223 -1.91 0.62
-3.6900001 -20.464001 -2.46 0.28999999
-2.73 -15.453 -1.808 0.41999999
-3.5940001 -20.485001 -2.461 0.17
-3.5309999 -20.502001 -2.461 0.49000001
-3.47 -20.533001 -2.464 0.30000001
-3.438 -20.737 -2.4890001 0.16
-2.2969999 -14.184 -1.638 0.31999999
-2.2539999 -14.203 -1.64 0.16
-2.483 -15.944 -1.864 0.60000002
-3.277 -21.427999 -2.573 0.20999999
-3.204 -21.176001 -2.54 0.40000001
-2.8940001 -19.559999 -2.329 0.31
-2.8199999 -19.476 -2.3180001 0.38
-2.8069999 -19.825001 -2.3610001 0.20999999
-2.724 -19.686001 -2.342 0.19
-2.967 -21.93 -2.631 0.49000001
-2.602 -19.483999 -2.3150001 0.23
-2.529 -19.398001 -2.303 0.27000001
-2.395 -18.843 -2.23 0.41
-2.296 -18.528 -2.188 0.38
-2.237 -18.528999 -2.188 0.44999999
-2.181 -18.559999 -2.191 0.38
-2.1259999 -18.594 -2.194 0.49000001
-2.1240001 -18.83 -2.224 0.30000001
-2.118 -19.322001 -2.2869999 0.38
-2.059 -19.346001 -2.289 0.38
-1.985 -19.222 -2.2720001 0.54000002
-1.9170001 -19.153 -2.263 0.18000001
-2.845 -29.208 -3.5539999 0.23
-1.803 -19.233999 -2.2709999 0.44999999
-1.748 -19.295 -2.2780001 0.2
-1.913 -21.462999 -2.5569999 0.54000002
-1.204 -14.111 -1.612 0.16
-1.1440001 -13.921 -1.587 0.34
-1.099 -13.909 -1.585 0.54000002
-1.478 -19.353001 -2.283 0.23
-1.536 -20.952 -2.4879999 0.18000001
-1.482 -21.131001 -2.51 0.44999999
-1.34 -19.566 -2.309 0.23
-0.90600002 -13.978 -1.592 0.41
-1.3099999 -21.039 -2.497 0.20999999
-0.82599998 -14.114 -1.609 0.62
-0.78100002 -14.117 -1.609 0.2
-0.72799999 -13.961 -1.589 0.41
-0.68699998 -14.005 -1.594 0.31999999
-0.66100001 -13.922 -1.5829999 0.41
-0.60900003 -13.758 -1.562 0.46000001
-0.56400001 -13.72 -1.557 0.30000001
-0.51999998 -13.702 -1.554 0.56999999
-0.47999999 -13.767 -1.563 0.25
-0.43399999 -13.715 -1.556 0.44999999
-0.391 -13.714 -1.5549999 0.30000001
-0.37400001 -13.86 -1.574 0.52999997
-0.329 -13.787 -1.5650001 0.18000001
-0.285 -13.763 -1.561 0.44999999
-0.241 -13.728 -1.557 0.34999999
-0.199 -13.83 -1.5700001 0.41
-0.155 -13.747 -1.559 0.56999999
-0.176 -20.169001 -2.3800001 0.14
-0.090000004 -13.737 -1.558 0.38
-0.046 -13.654 -1.5470001 0.38
-0.003 -13.644 -1.546 0.38999999
0.039999999 -13.736 -1.558 0.34
0.082999997 -13.767 -1.562 0.5
0.127 -13.858 -1.573 0.31
0.17 -13.864 -1.574 0.41999999
0.192 -13.859 -1.573 0.34
0.234 -13.777 -1.563 0.41999999
0.27599999 -13.673 -1.55 0.36000001
0.31900001 -13.669 -1.549 0.41999999
0.36300001 -13.711 -1.5549999 0.50999999
0.42500001 -14.408 -1.6440001 0.28
0.47400001 -14.518 -1.658 0.31999999
0.49700001 -14.521 -1.659 0.54000002
0.61699998 -16.605 -1.926 0.25999999
0.66600001 -16.537001 -1.9170001 0.2
0.63700002 -14.607 -1.671 0.47999999
0.68000001 -14.541 -1.663 0.43000001
0.72299999 -14.481 -1.655 0.23
0.87400001 -16.52 -1.916 0.40000001
1.098 -20.278 -2.398 0.41
1.165 -20.336 -2.4059999 0.41
0.94 -15.451 -1.781 0.23
0.986 -15.4 -1.774 0.36000001
1.034 -15.393 -1.774 0.30000001
1.0779999 -15.329 -1.766 0.58999997
1.462 -19.995001 -2.365 0.41
1.242 -16.568001 -1.926 0.25
1.295 -16.584 -1.928 0.20999999
1.234 -15.154 -1.745 0.54000002
1.408 -16.676001 -1.941 0.17
1.326 -15.11 -1.7410001 0.23999999
1.3660001 -15.021 -1.73 0.51999998
1.546 -16.459999 -1.915 0.2
1.433 -14.981 -1.725 0.55000001
1.638 -16.601 -1.934 0.19
1.674 -16.434 -1.913 0.44
1.584 -15.053 -1.737 0.44
1.6160001 -14.91 -1.719 0.43000001
1.6950001 -15.195 -1.756 0.27000001
1.835 -16.004 -1.8609999 0.2
1.882 -16.200001 -1.887 0.51999998
1.938 -16.237 -1.892 0.25
1.983 -16.18 -1.886 0.47
2.027 -16.118 -1.878 0.34
2.075 -16.087999 -1.875 0.47999999
2.131 -16.122999 -1.881 0.34999999
2.187 -16.157 -1.886 0.34
2.2019999 -16.080999 -1.877 0.34
2.2550001 -16.086 -1.878 0.28999999
2.306 -16.087 -1.8789999 0.47
2.355 -16.066 -1.877 0.31999999
2.3710001 -15.827 -1.847 0.46000001
2.428 -15.864 -1.853 0.28999999
2.4679999 -15.798 -1.846 0.47
2.52 -15.802 -1.847 0.30000001
2.5350001 -15.737 -1.839 0.51999998
2.5669999 -15.625 -1.826 0.28999999
2.5450001 -15.188 -1.77 0.25999999
2.6029999 -15.237 -1.778 0.58999997
2.6960001 -15.491 -1.812 0.31
2.8069999 -15.84 -1.858 0.40000001
2.848 -15.784 -1.852 0.19
2.786 -15.293 -1.789 0.38
3.003 -16.209 -1.909 0.34999999
2.8599999 -15.161 -1.774 0.51999998
3.063 -15.966 -1.88 0.22
2.9070001 -14.895 -1.742 0.47
3.05 -15.374 -1.8049999 0.25
3.036 -15.053 -1.765 0.37
3.023 -14.864 -1.7410001 0.47999999
3.267 -15.82 -1.867 0.36000001
3.141 -14.963 -1.756 0.2
3.1900001 -14.965 -1.758 0.57999998
3.302 -15.257 -1.7970001 0.30000001
3.48 -15.844 -1.875 0.20999999
3.5120001 -15.749 -1.864 0.56999999
3.54 -15.761 -1.867 0.31999999
3.582 -15.717 -1.862 0.22
3.6470001 -15.774 -1.8710001 0.44999999
3.5669999 -15.204 -1.798 0.31999999
3.598 -15.121 -1.789 0.54000002
3.704 -15.146 -1.795 0.61000001
3.7190001 -15.104 -1.79 0.33000001
3.773 -15.117 -1.793 0.19
3.822 -15.113 -1.794 0.31999999
3.8740001 -15.118 -1.7970001 0.44
3.927 -15.129 -1.8 0.27000001
3.961 -15.065 -1.793 0.5
3.9949999 -15.002 -1.786 0.31
4.0079999 -14.954 -1.781 0.49000001
4.052 -14.932 -1.779 0.36000001
4.0910001 -14.888 -1.775 0.31999999
5.763 -20.757 -2.556 0.23999999
4.1789999 -14.845 -1.773 0.34999999
4.2459998 -14.902 -1.783 0.30000001
4.2800002 -14.845 -1.777 0.34999999
4.3000002 -14.825 -1.775 0.58999997
4.3940001 -14.801 -1.775 0.52999997
4.4580002 -14.847 -1.783 0.27000001
4.4860001 -14.77 -1.775 0.23
4.5300002 -14.75 -1.774 0.56
4.855 -15.638 -1.895 0.31999999
4.6079998 -14.755 -1.778 0.25999999
6.5040002 -20.635 -2.5680001 0.34
6.5370002 -20.514 -2.5539999 0.18000001
4.4439998 -13.768 -1.651 0.25
4.493 -13.771 -1.653 0.41
4.533 -13.746 -1.652 0.55000001
4.6040001 -13.816 -1.663 0.31999999
4.6370001 -13.843 -1.668 0.28
4.6680002 -13.792 -1.663 0.38999999
4.7129998 -13.781 -1.664 0.47
5.053 -14.63 -1.78 0.2
4.8530002 -13.905 -1.684 0.60000002
5.1170001 -14.519 -1.77 0.18000001
5.493 -15.438 -1.896 0.49000001
5.2680001 -14.583 -1.784 0.23999999
5.3189998 -14.579 -1.786 0.56999999
5.3759999 -14.592 -1.79 0.33000001
7.652 -20.604 -2.612 0.14
5.3400002 -14.218 -1.743 0.57999998
5.316 -14.019 -1.7180001 0.17
5.3200002 -13.963 -1.712 0.31999999
5.3600001 -13.937 -1.71 0.52999997
5.4089999 -13.933 -1.712 0.28
5.4710002 -13.964 -1.719 0.55000001
5.6430001 -14.271 -1.7640001 0.16
5.737 -14.377 -1.781 0.44999999
5.7410002 -14.258 -1.767 0.36000001
5.6989999 -14.087 -1.744 0.23999999
5.756 -14.102 -1.749 0.47999999
5.8099999 -14.106 -1.752 0.28999999
5.5890002 -13.446 -1.663 0.47999999
5.6370001 -13.443 -1.665 0.31999999
5.6609998 -13.383 -1.659 0.58999997
6 -14.065 -1.756 0.28999999
5.9660001 -13.924 -1.738 0.41999999
6.0250001 -13.94 -1.743 0.31
6.052 -13.882 -1.738 0.60000002
6.151 -13.989 -1.755 0.25
6.1799998 -13.937 -1.751 0.30000001
6.1900001 -13.841 -1.74 0.49000001
6.243 -13.843 -1.743 0.31999999
6.2930002 -13.838 -1.745 0.51999998
6.2909999 -13.776 -1.738 0.36000001
6.329 -13.745 -1.7359999 0.41
6.3769999 -13.734 -1.737 0.43000001
6.2220001 -13.29 -1.678 0.46000001
6.2319999 -13.202 -1.668 0.25
6.2410002 -13.114 -1.658 0.56999999
6.2859998 -13.156 -1.666 0.25999999
6.3140001 -13.108 -1.6619999 0.38999999
6.4679999 -13.322 -1.6950001 0.5
6.3930001 -13.061 -1.661 0.25
6.3299999 -12.83 -1.631 0.47
6.473 -13.017 -1.66 0.30000001
6.4380002 -12.845 -1.638 0.56
6.322 -12.562 -1.599 0.34
6.3649998 -12.549 -1.6 0.30000001
6.3499999 -12.423 -1.585 0.44999999
6.3829999 -12.391 -1.5829999 0.31999999
6.3610001 -12.253 -1.566 0.49000001
6.4109998 -12.255 -1.5700001 0.37
6.5120001 -12.355 -1.587 0.23999999
6.836 -12.922 -1.67 0.44
6.8990002 -12.942 -1.676 0.33000001
6.9990001 -13.033 -1.693 0.61000001
7.059 -13.045 -1.698 0.34
7.0710001 -12.971 -1.6900001 0.30000001
6.9829998 -12.712 -1.656 0.22
6.9949999 -12.64 -1.648 0.56
7.0970001 -12.73 -1.665 0.2
7.1690001 -12.813 -1.679 0.30000001
6.9920001 -12.403 -1.622 0.40000001
6.934 -12.21 -1.597 0.34
6.9720001 -12.188 -1.597 0.5
7.046 -12.228 -1.6059999 0.38
7.1129999 -12.255 -1.613 0.33000001
7.1630001 -12.252 -1.6160001 0.41999999
7.4099998 -12.631 -1.674 0.23
7.948 -13.454 -1.799 0.54000002
7.3260002 -12.308 -1.633 0.28999999
7.3460002 -12.254 -1.628 0.41
7.3699999 -12.207 -1.624 0.41
7.4070001 -12.182 -1.624 0.38
7.4439998 -12.156 -1.624 0.41
7.4689999 -12.154 -1.625 0.31
7.4990001 -12.117 -1.623 0.47999999
7.5409999 -12.1 -1.624 0.43000001
7.592 -12.098 -1.628 0.50999999
7.8569999 -12.434 -1.682 0.2
8.1719999 -12.844 -1.748 0.2
8.0710001 -12.641 -1.719 0.43000001
8.1619997 -12.696 -1.7309999 0.30000001
8.2919998 -12.81 -1.752 0.31
7.9029999 -12.123 -1.652 0.41
7.96 -12.127 -1.656 0.28999999
7.9990001 -12.103 -1.656 0.56
8.132 -12.222 -1.678 0.27000001
8.2229996 -12.275 -1.6900001 0.31999999
8.1800003 -12.169 -1.676 0.33000001
8.1999998 -12.116 -1.6720001 0.54000002
8.2410002 -12.096 -1.673 0.38
8.3269997 -12.14 -1.684 0.38999999
8.3979998 -12.161 -1.691 0.43000001
8.8900003 -12.79 -1.793 0.31999999
8.927 -12.758 -1.7920001 0.46000001
8.9809999 -12.792 -1.8 0.44
9.0830002 -12.852 -1.813 0.23
9.0129995 -12.668 -1.789 0.30000001
9.0570002 -12.644 -1.79 0.58999997
9.1520004 -12.693 -1.802 0.36000001
8.816 -12.145 -1.72 0.28999999
8.7980003 -12.04 -1.7079999 0.31999999
8.8240004 -12.036 -1.709 0.58999997
9.0220003 -12.225 -1.744 0.25
9.1009998 -12.253 -1.753 0.60000002
9.1549997 -12.245 -1.756 0.28999999
9.184 -12.203 -1.7539999 0.38999999
9.2220001 -12.174 -1.7539999 0.5
7.2969999 -9.5609999 -1.339 0.25999999
7.2979999 -9.5310001 -1.336 0.51999998
7.277 -9.4420004 -1.325 0.31
6.0450001 -7.7859998 -1.062 0.31999999
6.0209999 -7.704 -1.051 0.41999999
6.0939999 -7.7480001 -1.062 0.41
6.0819998 -7.6820002 -1.054 0.36000001
6.0809999 -7.632 -1.049 0.44999999
6.0809999 -7.6059999 -1.046 0.34
6.006 -7.4629998 -1.026 0.49000001
6.0079999 -7.4180002 -1.022 0.41
6.0190001 -7.3839998 -1.0190001 0.37
6.0669999 -7.3959999 -1.024 0.31999999
6.1399999 -7.4380002 -1.034 0.30000001
6.138 -7.388 -1.029 0.38999999
6.1069999 -7.3260002 -1.021 0.38
6.1339998 -7.3119998 -1.021 0.36000001
6.1479998 -7.2820001 -1.02 0.40000001
6.1900001 -7.2849998 -1.023 0.34
6.21 -7.263 -1.023 0.46000001
6.2189999 -7.2270002 -1.02 0.41
6.2340002 -7.198 -1.0190001 0.34999999
6.0110002 -6.9180002 -0.97299999 0.44
6.0339999 -6.901 -0.97299999 0.40000001
6.0679998 -6.895 -0.97600001 0.41999999
