# .PCD v0.7 - Point Cloud Data file format
VERSION 0.7
FIELDS x y z intensity
SIZE 4 4 4 4
TYPE F F F F
COUNT 1 1 1 1
WIDTH 1507
HEIGHT 1
VIEWPOINT 0 0 0 1 0 0 0
POINTS 1507
DATA ascii
4.0170002 3.4820001 -1.6900001 0
3.9779999 3.471 -1.678 0
3.9630001 3.48 -1.676 0
3.9590001 3.4979999 -1.679 0
3.9519999 3.503 -1.678 0
3.937 3.5120001 -1.676 0
3.9289999 3.527 -1.678 0
3.915 3.5369999 -1.676 0
3.9030001 3.5480001 -1.676 0
3.8940001 3.562 -1.677 0
3.882 3.573 -1.676 0
3.8729999 3.5769999 -1.675 0
3.8699999 3.5969999 -1.679 0
3.8599999 3.6099999 -1.6799999 0
3.8340001 3.608 -1.673 0
3.842 3.638 -1.682 0
3.819 3.6400001 -1.676 0
3.8080001 3.652 -1.676 0
3.8080001 3.6630001 -1.679 0
3.7909999 3.6700001 -1.676 0
3.78 3.6830001 -1.677 0
3.7780001 3.704 -1.682 0
3.7609999 3.711 -1.679 0
3.737 3.71 -1.673 0
3.734 3.73 -1.677 0
3.7349999 3.743 -1.6799999 0
3.7160001 3.7479999 -1.677 0
3.714 3.7690001 -1.682 0
3.694 3.7720001 -1.678 0
3.681 3.783 -1.677 0
3.6849999 3.8099999 -1.6849999 0
3.671 3.8210001 -1.684 0
3.6670001 3.8280001 -1.6849999 0
3.6400001 3.8239999 -1.678 0
3.6240001 3.8310001 -1.676 0
3.6129999 3.8440001 -1.676 0
3.622 3.878 -1.687 0
3.618 3.8970001 -1.691 0
3.5780001 3.8789999 -1.677 0
3.569 3.8929999 -1.678 0
3.5650001 3.902 -1.6799999 0
3.5480001 3.9070001 -1.677 0
3.529 3.9119999 -1.674 0
3.546 3.9549999 -1.689 0
3.5350001 3.967 -1.689 0
3.52 3.9760001 -1.688 0
3.5020001 3.9809999 -1.6849999 0
3.497 3.9879999 -1.686 0
3.484 3.9979999 -1.6849999 0
3.4760001 4.0139999 -1.688 0
3.4649999 4.026 -1.689 0
3.4430001 4.027 -1.684 0
3.434 4.0419998 -1.686 0
3.402 4.0300002 -1.676 0
3.411 4.0539999 -1.684 0
3.4000001 4.066 -1.6849999 0
3.388 4.0780001 -1.6849999 0
3.352 4.0609999 -1.673 0
3.359 4.0949998 -1.683 0
3.346 4.1059999 -1.683 0
3.3069999 4.0840001 -1.669 0
3.322 4.1160002 -1.681 0
3.2939999 4.1069999 -1.673 0
3.2869999 4.125 -1.676 0
3.2750001 4.1360002 -1.676 0
3.277 4.1659999 -1.6849999 0
3.256 4.1659999 -1.6799999 0
3.2509999 4.1869998 -1.6849999 0
3.23 4.1739998 -1.677 0
3.2079999 4.1719999 -1.6720001 0
3.1989999 4.1880002 -1.674 0
3.2019999 4.2189999 -1.683 0
3.165 4.197 -1.67 0
3.1600001 4.2179999 -1.674 0
3.141 4.2199998 -1.671 0.029999999
3.135 4.2270002 -1.6720001 0.029999999
3.1199999 4.2329998 -1.671 0.029999999
3.112 4.2509999 -1.674 0
3.098 4.2589998 -1.673 0
3.089 4.2750001 -1.676 0
3.0899999 4.3049998 -1.684 0
3.072 4.3080001 -1.682 0
3.046 4.2870002 -1.671 0
3.0369999 4.302 -1.673 0
3.0320001 4.3239999 -1.678 0
3.0109999 4.323 -1.674 0
3.0120001 4.3530002 -1.682 0
2.9820001 4.3390002 -1.673 0
2.9690001 4.3499999 -1.673 0
2.9560001 4.3610001 -1.674 0.029999999
2.9530001 4.3699999 -1.676 0.029999999
2.9349999 4.3730001 -1.673 0.039999999
2.9200001 4.3800001 -1.673 0.029999999
2.9059999 4.3899999 -1.673 0.029999999
2.8959999 4.4029999 -1.674 0.039999999
2.882 4.4130001 -1.674 0.029999999
2.868 4.4219999 -1.674 0.029999999
2.8610001 4.4260001 -1.674 0.029999999
2.8499999 4.4400001 -1.676 0.039999999
2.8399999 4.4549999 -1.679 0.07
2.819 4.4530001 -1.674 0.039999999
2.803 4.4580002 -1.673 0.039999999
2.7950001 4.4770002 -1.677 0.029999999
2.779 4.4819999 -1.676 0.039999999
2.7679999 4.48 -1.673 0.039999999
2.753 4.487 -1.673 0.029999999
2.7449999 4.506 -1.676 0.07
2.7290001 4.5110002 -1.675 0.039999999
2.724 4.5359998 -1.682 0.07
2.71 4.5440001 -1.682 0.079999998
2.687 4.5380001 -1.676 0.14
2.6849999 4.5510001 -1.679 0.17
2.6730001 4.5640001 -1.681 0.20999999
2.6470001 4.553 -1.673 0.22
2.6370001 4.5669999 -1.676 0.27000001
2.6229999 4.5770001 -1.676 0.37
2.612 4.5910001 -1.678 0.34
2.5929999 4.5900002 -1.675 0.44999999
2.5780001 4.599 -1.675 0.28999999
2.5650001 4.5929999 -1.671 0.41
2.559 4.6160002 -1.677 0.34
2.5439999 4.6220002 -1.676 0.40000001
2.526 4.6230001 -1.674 0.38
2.5109999 4.631 -1.674 0.33000001
2.5009999 4.6469998 -1.677 0.41
2.4879999 4.6589999 -1.678 0.31999999
2.477 4.6560001 -1.676 0.46000001
2.4630001 4.664 -1.676 0.36000001
2.448 4.671 -1.676 0.44999999
2.4330001 4.677 -1.675 0.30000001
2.4200001 4.6900001 -1.677 0.33000001
2.4119999 4.7090001 -1.682 0.23
2.395 4.7140002 -1.6799999 0.20999999
2.3859999 4.7140002 -1.679 0.090000004
2.3699999 4.7179999 -1.678 0.15000001
2.358 4.7319999 -1.6799999 0.039999999
2.342 4.7360001 -1.679 0.07
2.3269999 4.744 -1.679 0.039999999
2.3139999 4.756 -1.681 0.07
2.299 4.7610002 -1.6799999 0.15000001
2.2839999 4.75 -1.674 0.039999999
2.2739999 4.7670002 -1.678 0.16
2.256 4.7690001 -1.676 0.19
2.24 4.7740002 -1.676 0.1
2.2260001 4.783 -1.676 0.17
2.201 4.7680001 -1.668 0.050000001
2.187 4.776 -1.669 0.16
2.1730001 4.7659998 -1.663 0.050000001
2.1570001 4.7709999 -1.663 0.17
2.1370001 4.7680001 -1.659 0.050000001
2.125 4.7810001 -1.6619999 0.16
2.105 4.776 -1.6569999 0.050000001
2.0869999 4.7750001 -1.654 0.16
2.073 4.7839999 -1.655 0.18000001
2.0599999 4.777 -1.651 0.17
2.043 4.7779999 -1.649 0.090000004
2.026 4.7789998 -1.647 0.090000004
2.006 4.7750001 -1.6440001 0.090000004
1.9960001 4.7919998 -1.647 0.15000001
1.971 4.7750001 -1.6390001 0.050000001
1.952 4.7709999 -1.635 0.17
1.947 4.7789998 -1.637 0.2
1.932 4.7870002 -1.638 0.1
1.91 4.7750001 -1.631 0.16
1.891 4.7709999 -1.627 0.050000001
1.88 4.7870002 -1.631 0.18000001
1.859 4.777 -1.625 0.11
1.8430001 4.7810001 -1.625 0.18000001
1.8279999 4.7870002 -1.625 0.11
1.818 4.7849998 -1.623 0.16
1.7970001 4.7729998 -1.6160001 0.050000001
1.786 4.7909999 -1.6210001 0.16
1.765 4.7800002 -1.615 0.20999999
1.75 4.7839999 -1.615 0.1
1.733 4.7859998 -1.613 0.15000001
1.71 4.7680001 -1.605 0.050000001
1.707 4.7839999 -1.609 0.16
1.691 4.7849998 -1.608 0.18000001
1.671 4.7779999 -1.604 0.1
1.66 4.7940001 -1.607 0.16
1.638 4.7800002 -1.6 0.050000001
1.617 4.7690001 -1.595 0.18000001
1.604 4.777 -1.596 0.2
1.597 4.7820001 -1.596 0.090000004
1.58 4.783 -1.595 0.15000001
1.562 4.7789998 -1.592 0.050000001
1.55 4.7930002 -1.595 0.17
1.528 4.7740002 -1.587 0.11
1.513 4.7789998 -1.587 0.18000001
1.497 4.7820001 -1.586 0.1
1.493 4.7950001 -1.59 0.16
1.471 4.7779999 -1.582 0.050000001
1.4579999 4.79 -1.585 0.18000001
1.439 4.7820001 -1.58 0.1
1.428 4.7969999 -1.584 0.17
1.411 4.796 -1.582 0.20999999
1.396 4.802 -1.5829999 0.090000004
1.3890001 4.8060002 -1.584 0.16
1.367 4.7849998 -1.575 0.050000001
1.3559999 4.8039999 -1.58 0.16
1.3380001 4.7989998 -1.576 0.050000001
1.329 4.8239999 -1.584 0.15000001
1.311 4.8169999 -1.58 0.19
1.2970001 4.8239999 -1.581 0.18000001
1.28 4.823 -1.579 0.17
1.268 4.809 -1.573 0.17
1.256 4.8239999 -1.577 0.17
1.24 4.8239999 -1.576 0.17
1.226 4.835 -1.5779999 0.17
1.211 4.8390002 -1.5779999 0.17
1.196 4.8429999 -1.5779999 0.17
1.178 4.8369999 -1.575 0.18000001
1.173 4.8460002 -1.5779999 0.17
1.156 4.8439999 -1.576 0.16
1.142 4.8540001 -1.5779999 0.16
1.125 4.848 -1.575 0.16
1.1109999 4.8569999 -1.576 0.17
1.095 4.8600001 -1.576 0.18000001
1.08 4.8639998 -1.576 0.18000001
1.073 4.8670001 -1.577 0.16
1.056 4.8629999 -1.575 0.18000001
1.044 4.881 -1.58 0.17
1.026 4.8720002 -1.575 0.18000001
1.0089999 4.869 -1.573 0.17
0.99400002 4.8740001 -1.574 0.18000001
0.98100001 4.8850002 -1.576 0.18000001
0.97100002 4.8790002 -1.574 0.16
0.958 4.8889999 -1.576 0.17
0.94400001 4.9000001 -1.579 0.18000001
0.92699999 4.8940001 -1.576 0.18000001
0.91100001 4.8979998 -1.576 0.18000001
0.89600003 4.901 -1.576 0.090000004
0.88099998 4.9039998 -1.576 0.090000004
0.86900002 4.927 -1.584 0.039999999
0.86900002 4.9699998 -1.598 0.039999999
0.85500002 4.9850001 -1.602 0
0.84299999 5.0050001 -1.608 0
0.85399997 5.164 -1.6619999 0
0.85699999 5.2839999 -1.7029999 0
0.84600002 5.3189998 -1.714 0
0.82200003 5.2779999 -1.699 0
0.81300002 5.2779999 -1.698 0
0.824 5.454 -1.758 0
0.80800003 5.4660001 -1.761 0
0.79799998 5.5120001 -1.776 0.02
0.78899997 5.572 -1.796 0.07
0.78200001 5.6500001 -1.822 0.19
0.764 5.6500001 -1.821 0.20999999
0.75400001 5.6479998 -1.8200001 0.23
0.73299998 5.6220002 -1.8099999 0.17
0.71499997 5.6220002 -1.8099999 0.17
0.69599998 5.6170001 -1.807 0.1
0.676 5.5970001 -1.799 0.079999998
0.65700001 5.5910001 -1.7970001 0.079999998
0.64200002 5.6079998 -1.802 0.039999999
0.63499999 5.6279998 -1.808 0.14
0.62 5.6529999 -1.816 0.2
0.60100001 5.645 -1.813 0
0.583 5.6420002 -1.811 0.14
0.56300002 5.6259999 -1.8049999 0.050000001
0.546 5.632 -1.807 0.16
0.53100002 5.658 -1.8150001 0.17
0.51999998 5.6360002 -1.807 0.15000001
0.50400001 5.6589999 -1.814 0.17
0.48500001 5.6490002 -1.8099999 0
0.463 5.605 -1.795 0.059999999
0.442 5.5609999 -1.779 0.039999999
0.42500001 5.5739999 -1.783 0.07
0.40700001 5.566 -1.78 0.079999998
0.38999999 5.573 -1.7819999 0.079999998
0.38100001 5.5710001 -1.781 0.15000001
0.36300001 5.559 -1.777 0.039999999
0.34599999 5.5640001 -1.778 0
0.32800001 5.573 -1.781 0
0.31299999 5.6059999 -1.7920001 0.029999999
0.29899999 5.677 -1.816 0.12
0.28200001 5.691 -1.8200001 0.16
0.27200001 5.671 -1.813 0.090000004
0.25400001 5.6599998 -1.809 0.13
0.237 5.6739998 -1.814 0.1
0.219 5.6789999 -1.8150001 0.039999999
0.20200001 5.704 -1.823 0.13
0.183 5.6820002 -1.816 0.050000001
0.16500001 5.6729999 -1.812 0.18000001
0.15800001 5.717 -1.827 0.11
0.138 5.6760001 -1.813 0.090000004
0.121 5.6719999 -1.812 0.090000004
0.104 5.744 -1.836 0.079999998
0.086999997 5.7579999 -1.841 0.079999998
0.068000004 5.7449999 -1.836 0.039999999
0.050000001 5.7529998 -1.839 0.13
0.041000001 5.7509999 -1.8380001 0.20999999
0.023 5.757 -1.84 0.090000004
0.0049999999 5.7680001 -1.844 0.18000001
-0.013 5.7589998 -1.841 0.20999999
-0.030999999 5.7360001 -1.8329999 0.15000001
-0.048999999 5.7490001 -1.837 0.059999999
-0.067000002 5.7340002 -1.832 0.16
-0.075999998 5.7449999 -1.836 0.11
-0.093999997 5.711 -1.825 0
-0.111 5.6500001 -1.804 0
-0.12899999 5.6630001 -1.808 0.059999999
-0.147 5.6939998 -1.819 0
-0.164 5.6500001 -1.8049999 0.029999999
-0.182 5.6589999 -1.808 0.07
-0.189 5.5770001 -1.78 0.039999999
-0.206 5.5809999 -1.781 0.07
-0.22400001 5.5799999 -1.781 0.039999999
-0.241 5.5809999 -1.7819999 0.079999998
-0.259 5.5749998 -1.78 0.039999999
-0.27700001 5.5890002 -1.785 0.07
-0.294 5.5770001 -1.781 0.039999999
-0.31200001 5.5970001 -1.789 0
-0.32300001 5.6360002 -1.802 0.050000001
-0.34799999 5.7519999 -1.842 0.039999999
-0.36399999 5.7280002 -1.834 0.16
-0.38299999 5.7309999 -1.836 0.050000001
-0.40099999 5.73 -1.836 0.07
-0.41800001 5.724 -1.834 0.039999999
-0.435 5.6999998 -1.827 0.16
-0.442 5.6830001 -1.821 0.19
-0.46000001 5.6830001 -1.821 0.090000004
-0.479 5.6869998 -1.823 0.090000004
-0.498 5.7030001 -1.829 0.13
-0.51599997 5.7090001 -1.832 0.23
-0.53299999 5.6960001 -1.8279999 0.19
-0.551 5.6869998 -1.825 0.20999999
-0.56400001 5.7309999 -1.841 0.16
-0.58200002 5.7329998 -1.842 0.050000001
-0.59799999 5.7069998 -1.834 0.14
-0.616 5.7080002 -1.835 0.2
-0.63099998 5.6799998 -1.826 0.18000001
-0.64899999 5.678 -1.826 0.13
-0.66900003 5.691 -1.831 0
-0.67900002 5.7010002 -1.835 0.13
-0.69499999 5.6859999 -1.83 0.050000001
-0.713 5.6820002 -1.83 0.18000001
-0.73199999 5.6890001 -1.8329999 0.18000001
-0.74699998 5.6680002 -1.827 0.18000001
-0.76700002 5.6820002 -1.832 0.2
-0.78600001 5.6859999 -1.834 0.12
-0.796 5.6290002 -1.816 0.14
-0.79699999 5.5689998 -1.796 0.039999999
-0.81199998 5.5479999 -1.789 0.07
-0.82999998 5.5510001 -1.791 0.15000001
-0.84799999 5.5539999 -1.793 0.16
-0.866 5.5510001 -1.793 0.17
-0.88599998 5.5669999 -1.799 0.16
-0.89999998 5.5440001 -1.7920001 0.039999999
-0.90600002 5.5219998 -1.785 0
-0.92900002 5.5570002 -1.798 0.12
-0.963 5.6539998 -1.8329999 0.050000001
-0.97899997 5.6360002 -1.8279999 0.039999999
-0.99800003 5.6430001 -1.831 0.13
-1.021 5.6669998 -1.841 0.1
-1.039 5.6700001 -1.8430001 0.18000001
-1.0470001 5.6589999 -1.839 0.12
-1.061 5.6370001 -1.8329999 0.039999999
-1.077 5.6240001 -1.83 0.029999999
-1.103 5.664 -1.845 0.14
-1.1210001 5.6620002 -1.845 0.20999999
-1.138 5.6529999 -1.8430001 0.090000004
-1.152 5.6339998 -1.8380001 0.039999999
-1.1670001 5.6599998 -1.848 0.14
-1.182 5.6459999 -1.844 0.11
-1.1900001 5.5939999 -1.827 0.039999999
-1.205 5.5770001 -1.823 0.16
-1.233 5.625 -1.841 0.11
-1.2460001 5.5970001 -1.832 0.15000001
-1.266 5.6020002 -1.836 0.12
-1.29 5.6279998 -1.846 0.25999999
-1.2970001 5.6170001 -1.8430001 0.18000001
-1.318 5.6290002 -1.848 0.25
-1.331 5.605 -1.841 0.1
-1.3430001 5.5770001 -1.8329999 0.14
-1.36 5.5700002 -1.832 0.039999999
-1.3789999 5.572 -1.834 0.16
-1.3940001 5.5560002 -1.83 0
-1.335 5.2820001 -1.735 0
-1.311 5.118 -1.679 0.029999999
-1.307 5.0349998 -1.651 0.029999999
-1.301 4.9450002 -1.6210001 0.07
-1.313 4.9260001 -1.6160001 0.15000001
-1.324 4.9070001 -1.6109999 0.16
-1.334 4.8829999 -1.604 0.16
-1.341 4.8769999 -1.602 0.17
-1.359 4.882 -1.605 0.16
-1.3710001 4.8649998 -1.601 0.18000001
-1.385 4.8590002 -1.6 0.18000001
-1.402 4.8600001 -1.602 0.17
-1.4170001 4.8540001 -1.602 0.16
-1.432 4.849 -1.602 0.16
-1.443 4.8579998 -1.605 0.16
-1.4579999 4.8509998 -1.605 0.17
-1.471 4.8400002 -1.602 0.16
-1.488 4.842 -1.605 0.16
-1.5039999 4.8410001 -1.6059999 0.16
-1.52 4.8379998 -1.607 0.17
-1.5369999 4.8390002 -1.609 0.16
-1.548 4.8210001 -1.604 0.18000001
-1.5549999 4.8150001 -1.603 0.17
-1.572 4.816 -1.605 0.17
-1.586 4.8070002 -1.604 0.17
-1.603 4.809 -1.6059999 0.18000001
-1.6160001 4.7989998 -1.604 0.18000001
-1.631 4.7919998 -1.604 0.039999999
-1.646 4.7870002 -1.604 0.16
-1.655 4.79 -1.605 0.050000001
-1.674 4.7950001 -1.609 0.16
-1.682 4.7680001 -1.602 0.050000001
-1.7029999 4.7810001 -1.608 0.17
-1.715 4.7670002 -1.605 0.19
-1.73 4.763 -1.605 0.1
-1.7539999 4.7810001 -1.614 0.15000001
-1.75 4.7480001 -1.603 0.050000001
-1.776 4.7719998 -1.614 0.15000001
-1.785 4.7509999 -1.608 0.050000001
-1.803 4.7519999 -1.6109999 0.17
-1.818 4.7480001 -1.6109999 0.11
-1.836 4.75 -1.614 0.18000001
-1.852 4.7470002 -1.615 0.11
-1.862 4.7519999 -1.618 0.19
-1.878 4.7480001 -1.618 0.11
-1.896 4.7490001 -1.6210001 0.18000001
-1.9119999 4.7459998 -1.622 0.11
-1.927 4.7399998 -1.622 0.2
-1.9450001 4.7410002 -1.625 0.11
-1.957 4.73 -1.623 0.19
-1.976 4.7340002 -1.627 0.11
-1.99 4.7470002 -1.633 0.17
-2.0050001 4.7399998 -1.633 0.20999999
-2.0179999 4.7290001 -1.631 0.1
-2.039 4.7360001 -1.636 0.18000001
-2.0569999 4.737 -1.638 0.11
-2.0739999 4.7360001 -1.64 0.16
-2.089 4.7309999 -1.641 0.20999999
-2.1010001 4.7360001 -1.6440001 0.1
-2.1170001 4.7329998 -1.645 0.18000001
-2.1370001 4.7389998 -1.65 0.11
-2.152 4.7319999 -1.65 0.17
-2.1689999 4.73 -1.652 0.050000001
-2.187 4.73 -1.654 0.17
-2.2030001 4.7249999 -1.655 0.11
-2.2130001 4.7290001 -1.658 0.18000001
-2.2360001 4.7389998 -1.664 0.11
-2.253 4.7350001 -1.665 0.18000001
-2.2709999 4.7350001 -1.668 0.12
-2.286 4.7280002 -1.668 0.17
-2.306 4.7319999 -1.673 0.11
-2.3269999 4.737 -1.677 0.17
-2.3310001 4.7270002 -1.674 0.12
-2.352 4.7309999 -1.679 0.18000001
-2.368 4.7270002 -1.6799999 0.1
-2.385 4.723 -1.682 0.18000001
-2.4070001 4.7290001 -1.687 0.11
-2.424 4.7270002 -1.689 0.18000001
-2.4419999 4.7259998 -1.691 0.2
-2.457 4.7179999 -1.691 0.1
-2.471 4.7259998 -1.696 0.19
-2.4890001 4.7249999 -1.698 0.19
-2.5050001 4.7199998 -1.7 0.090000004
-2.527 4.7259998 -1.705 0.17
-2.54 4.7140002 -1.7029999 0.050000001
-2.5639999 4.723 -1.71 0.17
-2.5829999 4.7220001 -1.712 0.11
-2.5969999 4.7309999 -1.7180001 0.19
-2.6110001 4.7210002 -1.717 0.11
-2.6340001 4.7280002 -1.723 0.18000001
-2.6440001 4.71 -1.719 0.050000001
-2.6619999 4.7080002 -1.721 0.17
-2.6860001 4.7160001 -1.728 0.2
-2.7019999 4.7090001 -1.729 0.16
-2.7119999 4.71 -1.7309999 0.23
-2.72 4.6900001 -1.726 0.039999999
-2.743 4.6960001 -1.732 0.07
-2.756 4.684 -1.7309999 0.14
-2.7720001 4.677 -1.7309999 0.039999999
-2.7909999 4.6760001 -1.734 0.07
-2.802 4.6609998 -1.732 0.15000001
-2.8110001 4.6430001 -1.728 0.16
-2.8199999 4.6409998 -1.729 0.090000004
-2.835 4.6329999 -1.729 0.19
-2.8469999 4.6199999 -1.728 0.19
-2.8640001 4.6149998 -1.729 0.22
-2.8789999 4.6069999 -1.73 0.36000001
-2.8940001 4.598 -1.73 0.34999999
-2.9119999 4.5949998 -1.732 0.38
-2.9159999 4.586 -1.7309999 0.41999999
-2.927 4.5710001 -1.728 0.38999999
-2.948 4.572 -1.732 0.34
-2.961 4.5599999 -1.7309999 0.43000001
-2.9760001 4.552 -1.732 0.38999999
-2.9879999 4.54 -1.7309999 0.38
-3.0020001 4.5300002 -1.7309999 0.40000001
-3.0190001 4.54 -1.7359999 0.36000001
-3.0280001 4.5219998 -1.733 0.47999999
-3.0369999 4.5050001 -1.73 0.31
-3.0550001 4.5019999 -1.732 0.44
-3.086 4.5170002 -1.743 0.41
-3.089 4.4899998 -1.7359999 0.19
-3.109 4.4899998 -1.74 0.28999999
-3.1159999 4.4689999 -1.735 0.039999999
-3.1340001 4.48 -1.7410001 0.07
-3.1370001 4.454 -1.735 0.039999999
-3.1559999 4.4520001 -1.738 0.07
-3.164 4.4330001 -1.734 0.039999999
-3.1900001 4.4400001 -1.7410001 0.07
-3.1949999 4.4180002 -1.7359999 0.039999999
-3.2119999 4.4120002 -1.738 0.07
-3.2119999 4.3979998 -1.734 0.039999999
-3.2360001 4.402 -1.74 0.039999999
-3.243 4.382 -1.7359999 0.07
-3.2639999 4.381 -1.74 0.039999999
-3.28 4.3740001 -1.7410001 0.07
-3.2850001 4.3530002 -1.737 0.039999999
-3.296 4.3379998 -1.735 0.039999999
-3.3169999 4.3530002 -1.743 0.07
-3.326 4.336 -1.7410001 0.039999999
-3.3380001 4.323 -1.74 0
-3.3540001 4.3150001 -1.7410001 0
-3.3610001 4.2969999 -1.738 0
-3.3829999 4.2969999 -1.742 0
-3.398 4.2880001 -1.743 0.059999999
-3.3959999 4.2719998 -1.738 0.039999999
-3.4119999 4.2639999 -1.74 0.039999999
-3.428 4.257 -1.7410001 0
-3.4430001 4.2490001 -1.742 0.059999999
-3.457 4.2379999 -1.742 0.039999999
-3.471 4.2290001 -1.743 0.029999999
-3.4860001 4.2189999 -1.743 0
-3.494 4.2020001 -1.7410001 0
-3.5090001 4.2069998 -1.745 0.029999999
-3.517 4.1900001 -1.743 0.029999999
-3.5339999 4.1830001 -1.745 0.07
-3.5469999 4.1719999 -1.745 0.039999999
-3.552 4.151 -1.74 0.029999999
-3.5710001 4.1469998 -1.743 0
-3.5940001 4.1469998 -1.749 0
-3.5969999 4.1370001 -1.747 0.059999999
-3.612 4.1290002 -1.748 0.039999999
-3.6229999 4.1149998 -1.747 0
-3.6289999 4.0960002 -1.743 0
-3.6470001 4.0900002 -1.7460001 0
-3.664 4.0830002 -1.748 0
-3.675 4.0700002 -1.747 0
-3.6830001 4.066 -1.748 0
-3.6949999 4.053 -1.747 0.029999999
-3.707 4.0409999 -1.747 0.029999999
-3.72 4.0300002 -1.747 0.029999999
-3.7420001 4.0279999 -1.752 0
-3.7490001 4.0100002 -1.749 0
-3.7809999 4.0190001 -1.7589999 0
-3.7750001 3.9879999 -1.75 0
-3.777 3.977 -1.747 0
-3.8150001 3.9920001 -1.76 0
-3.8069999 3.9579999 -1.75 0
-3.823 3.95 -1.752 0
-3.8510001 3.9549999 -1.76 0
-3.845 3.924 -1.75 0
-3.8759999 3.9300001 -1.76 0
-3.865 3.9070001 -1.751 0
-3.9089999 3.927 -1.767 0
-3.8929999 3.8859999 -1.753 0
-3.924 3.8929999 -1.762 0
-3.938 3.882 -1.763 0
-3.947 3.8670001 -1.761 0
-3.9630001 3.858 -1.763 0
-3.9449999 3.8280001 -1.752 0
-3.964 3.823 -1.755 0
-3.9749999 3.809 -1.7539999 0
-3.9879999 3.7980001 -1.755 0
-4.0089998 3.7939999 -1.76 0
-4.0079999 3.7690001 -1.753 0
-4.0469999 3.7820001 -1.766 0
-4.0510001 3.7739999 -1.765 0
-4.0609999 3.7590001 -1.7640001 0
-4.0739999 3.747 -1.765 0
-4.0869999 3.7360001 -1.765 0
-4.085 3.71 -1.7589999 0
-4.0890002 3.691 -1.756 0
-4.1040001 3.681 -1.757 0
-4.1149998 3.668 -1.757 0
-4.1269999 3.6659999 -1.76 0
-4.1409998 3.6559999 -1.761 0
-4.1500001 3.6400001 -1.76 0
-4.164 3.6300001 -1.761 0
-4.1599998 3.6029999 -1.7539999 0
-4.1880002 3.605 -1.761 0
-4.198 3.5899999 -1.761 0
-4.1960001 3.5780001 -1.758 0
-4.2080002 3.5639999 -1.758 0
-4.2270002 3.559 -1.761 0
-4.2309999 3.539 -1.758 0
-4.2480001 3.5309999 -1.761 0
-4.2589998 3.517 -1.761 0
-4.2670002 3.5020001 -1.76 0
-4.2820001 3.5020001 -1.763 0
-4.2930002 3.4890001 -1.763 0
-4.3049998 3.4760001 -1.7640001 0
-4.3130002 3.46 -1.763 0
-4.3189998 3.4430001 -1.761 0
-4.3449998 3.4419999 -1.767 0
-4.3660002 3.4360001 -1.772 0
-4.3520002 3.414 -1.763 0
-4.3790002 3.4130001 -1.77 0
-4.3930001 3.402 -1.772 0
-4.3979998 3.3829999 -1.7690001 0
-4.4050002 3.3670001 -1.768 0
-4.4310002 3.365 -1.774 0
-4.4159999 3.3310001 -1.763 0
-4.415 3.3199999 -1.761 0
-4.4619999 3.3329999 -1.776 0
-4.4429998 3.2980001 -1.7640001 0
-4.4569998 3.286 -1.765 0
-4.4899998 3.289 -1.775 0
-4.48 3.26 -1.767 0
-4.4889998 3.2449999 -1.766 0
-4.5019999 3.233 -1.767 0.029999999
-4.5029998 3.223 -1.765 0.029999999
-4.5139999 3.21 -1.766 0.029999999
-4.52 3.1919999 -1.7640001 0.029999999
-4.5609999 3.2 -1.777 0
-4.54 3.164 -1.7640001 0
-4.559 3.1559999 -1.768 0.029999999
-4.5640001 3.138 -1.766 0.029999999
-4.5749998 3.135 -1.7690001 0.029999999
-4.5900002 3.1240001 -1.77 0.07
-4.5999999 3.1099999 -1.77 0.039999999
-4.5970001 3.0869999 -1.765 0.029999999
-4.6110001 3.076 -1.767 0.13
-4.6240001 3.063 -1.7690001 0.039999999
-4.632 3.0480001 -1.768 0.039999999
-4.6420002 3.043 -1.77 0.07
-4.6479998 3.027 -1.7690001 0.039999999
-4.6539998 3.01 -1.767 0.029999999
-4.6680002 2.9979999 -1.7690001 0.029999999
-4.678 2.984 -1.7690001 0.07
-4.6789999 2.964 -1.766 0.039999999
-4.6929998 2.9519999 -1.768 0.039999999
-4.7160001 2.9560001 -1.775 0.07
-4.7069998 2.9300001 -1.768 0.039999999
-4.7150002 2.914 -1.767 0
-4.7319999 2.905 -1.77 0
-4.7329998 2.885 -1.767 0
-4.7490001 2.8740001 -1.77 0
-4.756 2.858 -1.7690001 0
-4.7659998 2.8440001 -1.77 0
-4.7709999 2.836 -1.77 0
-4.7779999 2.8199999 -1.7690001 0
-4.7849998 2.8039999 -1.7690001 0
-4.822 2.806 -1.779 0
-4.8049998 2.7750001 -1.7690001 0
-4.8049998 2.7550001 -1.766 0
-4.8179998 2.753 -1.7690001 0
-4.836 2.743 -1.773 0
-4.835 2.7219999 -1.7690001 0
-4.8499999 2.711 -1.772 0.029999999
-4.8649998 2.6989999 -1.774 0.029999999
-4.8649998 2.6789999 -1.771 0.029999999
-4.8769999 2.6659999 -1.772 0.029999999
-4.8899999 2.6530001 -1.774 0.029999999
-4.8889999 2.6429999 -1.772 0.029999999
-4.8979998 2.6270001 -1.772 0.029999999
-4.9359999 2.628 -1.784 0
-4.914 2.5969999 -1.772 0
-4.9310002 2.586 -1.776 0
-4.9419999 2.572 -1.777 0
-4.9749999 2.569 -1.7869999 0
-4.9679999 2.556 -1.7819999 0
-4.9770002 2.5409999 -1.783 0
-4.9619999 2.513 -1.774 0
-5 2.513 -1.785 0
-5.006 2.4960001 -1.785 0
-4.9949999 2.471 -1.778 0
-4.9980001 2.4530001 -1.776 0
-5.0159998 2.4419999 -1.779 0
-5.0110002 2.4300001 -1.776 0
-5.02 2.415 -1.777 0
-5.0349998 2.4030001 -1.779 0
-5.0349998 2.3840001 -1.777 0
-5.0479999 2.3699999 -1.779 0
-5.0619998 2.358 -1.781 0
-5.0630002 2.339 -1.779 0
-5.0679998 2.3310001 -1.779 0
-5.086 2.3199999 -1.783 0
-5.0689998 2.293 -1.774 0
-5.0879998 2.283 -1.779 0
-5.1069999 2.2720001 -1.783 0
-5.1059999 2.2520001 -1.78 0
-5.1110001 2.2360001 -1.779 0
-5.1269999 2.233 -1.784 0
-5.125 2.2130001 -1.781 0
-5.1339998 2.198 -1.781 0
-5.1409998 2.181 -1.781 0
-5.1490002 2.1659999 -1.7819999 0
-5.1490002 2.1470001 -1.779 0
-5.1560001 2.131 -1.779 0
-5.1609998 2.1229999 -1.78 0
-5.1729999 2.109 -1.7819999 0
-5.1849999 2.095 -1.784 0
-5.1999998 2.082 -1.7869999 0
-5.2030001 2.0650001 -1.786 0
-5.3410001 1.6289999 -1.781 0
-5.3470001 1.613 -1.781 0
-5.3590002 1.598 -1.784 0
-5.395 1.59 -1.795 0
-5.3720002 1.574 -1.786 0
-5.4060001 1.566 -1.796 0
-5.3850002 1.5420001 -1.7869999 0
-5.4260001 1.535 -1.8 0
-5.3969998 1.508 -1.788 0
-5.3940001 1.489 -1.785 0.029999999
-5.408 1.475 -1.789 0.029999999
-5.4099998 1.466 -1.789 0.029999999
-5.4180002 1.45 -1.79 0
-5.421 1.433 -1.789 0
-5.4180002 1.414 -1.7869999 0
-5.4390001 1.401 -1.7920001 0
-5.447 1.385 -1.794 0
-5.4699998 1.373 -1.8 0
-5.441 1.3559999 -1.789 0
-5.447 1.339 -1.79 0
-5.4580002 1.324 -1.7920001 0
-5.4970002 1.3150001 -1.8049999 0
-5.4920001 1.296 -1.801 0
-5.4650002 1.271 -1.79 0
-5.513 1.2640001 -1.806 0
-5.5009999 1.243 -1.8 0
-5.4990001 1.234 -1.799 0
-5.5190001 1.22 -1.8049999 0
-5.4860001 1.1950001 -1.7920001 0
-5.5159998 1.183 -1.801 0
-5.5009999 1.1619999 -1.794 0
-5.494 1.142 -1.79 0
-5.5359998 1.133 -1.804 0
-5.5430002 1.125 -1.806 0
-5.5100002 1.1 -1.793 0
-5.5170002 1.084 -1.794 0
-5.5170002 1.066 -1.793 0
-5.5219998 1.049 -1.794 0
-5.5250001 1.0319999 -1.794 0
-5.5689998 1.022 -1.808 0
-5.5599999 1.011 -1.804 0
-5.566 0.99400002 -1.8049999 0
-5.5679998 0.97600001 -1.8049999 0
-5.5739999 0.95999998 -1.806 0
-5.5770001 0.94199997 -1.806 0
-5.586 0.92500001 -1.808 0
-5.5510001 0.90200001 -1.795 0
-5.5580001 0.88499999 -1.796 0
-5.5710001 0.87800002 -1.8 0
-5.5640001 0.85900003 -1.7970001 0
-5.5700002 0.84200001 -1.798 0
-5.573 0.82499999 -1.798 0
-5.5770001 0.80699998 -1.799 0
-5.5799999 0.79000002 -1.799 0
-5.6110001 0.77600002 -1.808 0
-5.5840001 0.76300001 -1.799 0
-5.592 0.74699998 -1.801 0
-5.6009998 0.73000002 -1.803 0
-5.5960002 0.71200001 -1.801 0
-5.5949998 0.69300002 -1.799 0
-5.5970001 0.676 -1.799 0
-5.612 0.66000003 -1.804 0
-5.6059999 0.64999998 -1.801 0
-5.5929999 0.63099998 -1.796 0
-5.5999999 0.61400002 -1.798 0
-5.5999999 0.59600002 -1.798 0
-5.6170001 0.57999998 -1.803 0
-5.6149998 0.56199998 -1.801 0
-5.5960002 0.542 -1.794 0
-5.6139998 0.53500003 -1.8 0
-5.5949998 0.51599997 -1.793 0
-5.6129999 0.5 -1.799 0
-5.6209998 0.48199999 -1.801 0
-5.618 0.46399999 -1.799 0
-5.6069999 0.44600001 -1.795 0
-5.619 0.42899999 -1.799 0
-5.612 0.41999999 -1.796 0
-5.619 0.40200001 -1.798 0
-5.6300001 0.38499999 -1.801 0
-5.6290002 0.368 -1.801 0
-5.619 0.34900001 -1.7970001 0
-5.6329999 0.33199999 -1.801 0
-5.625 0.31400001 -1.798 0
-5.6389999 0.30599999 -1.803 0
-5.632 0.28799999 -1.8 0
-5.6370001 0.27000001 -1.801 0
-5.6259999 0.252 -1.798 0
-5.6329999 0.235 -1.799 0
-5.6389999 0.21699999 -1.801 0
-5.6170001 0.207 -1.794 0
-5.6300001 0.19 -1.798 0
-5.6220002 0.17200001 -1.795 0
-5.6300001 0.155 -1.798 0
-5.6339998 0.13699999 -1.799 0
-5.6399999 0.12 -1.801 0
-5.6350002 0.102 -1.799 0
-5.631 0.093000002 -1.798 0
-5.6389999 0.075000003 -1.8 0
-5.6430001 0.057999998 -1.801 0
-5.6430001 0.039999999 -1.801 0
-5.6409998 0.022 -1.801 0
-5.6469998 0.0049999999 -1.803 0
-5.6370001 -0.013 -1.799 0
-5.6409998 -0.022 -1.801 0
-5.6469998 -0.039999999 -1.803 0
-5.6389999 -0.057 -1.8 0
-5.6350002 -0.075000003 -1.799 0
-5.6329999 -0.093000002 -1.798 0
-5.6329999 -0.111 -1.798 0
-5.6420002 -0.12800001 -1.801 0
-5.6300001 -0.13699999 -1.798 0
-5.6430001 -0.155 -1.802 0
-5.6420002 -0.17299999 -1.802 0
-5.6420002 -0.19 -1.802 0
-5.6430001 -0.208 -1.803 0
-5.625 -0.22499999 -1.7970001 0
-5.638 -0.244 -1.801 0
-5.6389999 -0.252 -1.802 0
-5.6589999 -0.271 -1.809 0
-5.6680002 -0.289 -1.812 0
-5.658 -0.30700001 -1.809 0
-5.6430001 -0.324 -1.8049999 0
-5.6329999 -0.34099999 -1.801 0
-5.6300001 -0.359 -1.801 0
-5.6440001 -0.368 -1.806 0
-5.632 -0.38499999 -1.802 0
-5.6360002 -0.403 -1.804 0
-5.6259999 -0.41999999 -1.801 0
-5.6220002 -0.43799999 -1.8 0
-5.625 -0.456 -1.801 0
-5.625 -0.47400001 -1.802 0
-5.6139998 -0.491 -1.799 0
-5.6209998 -0.5 -1.801 0
-5.6040001 -0.51599997 -1.796 0
-5.6209998 -0.53600001 -1.803 0
-5.6160002 -0.55299997 -1.801 0
-5.612 -0.56999999 -1.801 0
-5.6199999 -0.58899999 -1.804 0
-5.6160002 -0.60600001 -1.803 0
-5.6040001 -0.61400002 -1.799 0
-5.6020002 -0.63200003 -1.799 0
-5.6110001 -0.65100002 -1.803 0
-5.5999999 -0.667 -1.8 0
-5.5999999 -0.685 -1.801 0
-5.5970001 -0.70300001 -1.801 0
-5.599 -0.72100002 -1.802 0
-5.6090002 -0.73100001 -1.806 0
-5.6030002 -0.74800003 -1.8049999 0
-5.5780001 -0.76300001 -1.7970001 0
-5.592 -0.78200001 -1.803 0
-5.586 -0.79900002 -1.801 0
-5.5869999 -0.81699997 -1.803 0
-5.5760002 -0.83399999 -1.799 0
-5.5799999 -0.84299999 -1.801 0
-5.5700002 -0.86000001 -1.799 0
-5.5760002 -0.87900001 -1.802 0
-5.573 -0.89600003 -1.802 0
-5.5669999 -0.91299999 -1.801 0
-5.5749998 -0.93199998 -1.8049999 0
-5.572 -0.94999999 -1.8049999 0
-5.5560002 -0.95599997 -1.799 0
-5.5619998 -0.97500002 -1.803 0
-5.5700002 -0.995 -1.807 0
-5.5430002 -1.008 -1.798 0
-5.5450001 -1.026 -1.8 0
-5.5489998 -1.045 -1.803 0
-5.533 -1.0599999 -1.798 0
-5.552 -1.082 -1.806 0
-5.539 -1.0880001 -1.802 0
-5.5300002 -1.104 -1.8 0
-5.5250001 -1.1210001 -1.799 0
-5.5310001 -1.141 -1.803 0
-5.5209999 -1.1569999 -1.801 0
-5.5120001 -1.173 -1.799 0
-5.5139999 -1.192 -1.801 0
-5.5180001 -1.201 -1.803 0
-5.5139999 -1.219 -1.803 0
-5.4920001 -1.232 -1.796 0
-5.493 -1.25 -1.798 0
-5.4889998 -1.268 -1.798 0
-5.494 -1.2869999 -1.801 0
-5.4790001 -1.302 -1.798 0
-5.4809999 -1.311 -1.799 0
-5.4879999 -1.331 -1.803 0
-5.473 -1.346 -1.799 0
-5.4699998 -1.363 -1.799 0
-5.4640002 -1.38 -1.799 0
-5.447 -1.3940001 -1.794 0
-5.4590001 -1.415 -1.8 0
-5.4489999 -1.4220001 -1.798 0
-5.4320002 -1.436 -1.793 0
-5.4590001 -1.461 -1.804 0
-5.4450002 -1.476 -1.801 0
-5.3959999 -1.4809999 -1.785 0
-5.2880001 -1.909 -1.794 0
-5.2909999 -1.928 -1.798 0
-5.2670002 -1.939 -1.791 0
-5.2740002 -1.96 -1.796 0
-5.2519999 -1.97 -1.79 0
-5.27 -1.9859999 -1.798 0
-5.2509999 -1.998 -1.793 0
-5.2379999 -2.0120001 -1.79 0
-5.2329998 -2.029 -1.791 0
-5.2270002 -2.046 -1.791 0
-5.2290001 -2.066 -1.794 0
-5.2470002 -2.092 -1.803 0
-5.2340002 -2.105 -1.801 0
-5.211 -2.1059999 -1.794 0
-5.2290001 -2.132 -1.803 0
-5.21 -2.1440001 -1.798 0.050000001
-5.1960001 -2.1570001 -1.796 0.039999999
-5.217 -2.1849999 -1.806 0
-5.2030001 -2.198 -1.803 0
-5.191 -2.2130001 -1.801 0
-5.1630001 -2.21 -1.7920001 0
-5.1690001 -2.2320001 -1.7970001 0
-5.1669998 -2.25 -1.799 0.029999999
-5.1550002 -2.2639999 -1.7970001 0.029999999
-5.165 -2.2880001 -1.803 0
-5.1589999 -2.3050001 -1.804 0
-5.1550002 -2.323 -1.8049999 0
-5.1570001 -2.3329999 -1.807 0
-5.138 -2.3440001 -1.803 0
-5.1300001 -2.3599999 -1.803 0
-5.1110001 -2.3710001 -1.798 0
-5.132 -2.4000001 -1.809 0
-5.1160002 -2.4119999 -1.806 0
-5.0760002 -2.4130001 -1.794 0
-5.1100001 -2.4389999 -1.808 0
-5.0970001 -2.4519999 -1.806 0
-5.0879998 -2.4679999 -1.8049999 0
-5.0780001 -2.483 -1.8049999 0
-5.0770001 -2.5020001 -1.807 0
-5.0419998 -2.5050001 -1.7970001 0
-5.0339999 -2.52 -1.7970001 0
-5.026 -2.536 -1.7970001 0
-5.0219998 -2.5439999 -1.7970001 0
-5.0229998 -2.5639999 -1.8 0
-5.006 -2.576 -1.7970001 0
-5.0370002 -2.6110001 -1.812 0
-5.0170002 -2.6210001 -1.807 0
-4.9899998 -2.6270001 -1.8 0
-4.9819999 -2.6429999 -1.8 0
-5.0029998 -2.664 -1.8099999 0
-4.9860001 -2.675 -1.807 0
-4.993 -2.6989999 -1.812 0
-4.9809999 -2.7130001 -1.811 0
-4.9439998 -2.7130001 -1.8 0
-4.9619999 -2.743 -1.8099999 0
-4.9429998 -2.753 -1.807 0
-4.9190001 -2.75 -1.799 0
-4.9120002 -2.766 -1.799 0.029999999
-4.9369998 -2.8 -1.812 0
-4.8979998 -2.799 -1.801 0
-4.8889999 -2.8139999 -1.801 0
-4.882 -2.8299999 -1.801 0
-4.8759999 -2.848 -1.803 0
-4.8670001 -2.852 -1.801 0
-4.8629999 -2.8710001 -1.803 0
-4.849 -2.8829999 -1.801 0
-4.869 -2.9159999 -1.812 0
-4.849 -2.924 -1.808 0
-4.8509998 -2.9460001 -1.812 0
-4.8169999 -2.947 -1.803 0
-4.848 -2.9760001 -1.817 0
-4.829 -2.9849999 -1.813 0
-4.7989998 -2.987 -1.8049999 0
-4.789 -3.0020001 -1.8049999 0
-4.8039999 -3.0320001 -1.814 0
-4.7940001 -3.0480001 -1.814 0
-4.79 -3.066 -1.816 0
-4.7529998 -3.053 -1.803 0
-4.7399998 -3.066 -1.802 0.029999999
-4.737 -3.085 -1.8049999 0.029999999
-4.7290001 -3.1010001 -1.8049999 0.039999999
-4.7160001 -3.1129999 -1.804 0
-4.711 -3.131 -1.806 0
-4.704 -3.148 -1.807 0
-4.6960001 -3.1530001 -1.806 0
-4.7059999 -3.1819999 -1.814 0
-4.677 -3.184 -1.807 0
-4.6690001 -3.2 -1.807 0
-4.6539998 -3.211 -1.8049999 0
-4.6409998 -3.224 -1.804 0
-4.6680002 -3.2639999 -1.819 0
-4.652 -3.2639999 -1.8150001 0
-4.625 -3.266 -1.808 0
-4.6220002 -3.286 -1.811 0
-4.612 -3.3010001 -1.811 0
-4.5939999 -3.3099999 -1.808 0
-4.5869999 -3.3269999 -1.809 0
-4.598 -3.3559999 -1.818 0
-4.5689998 -3.358 -1.8099999 0
-4.5619998 -3.3640001 -1.8099999 0.029999999
-4.5570002 -3.382 -1.812 0.029999999
-4.5440001 -3.3940001 -1.811 0.029999999
-4.5310001 -3.408 -1.8099999 0.029999999
-4.5240002 -3.424 -1.812 0
-4.513 -3.438 -1.812 0
-4.5190001 -3.4649999 -1.819 0
-4.5120001 -3.471 -1.818 0
-4.513 -3.494 -1.823 0
-4.494 -3.503 -1.8200001 0
-4.4619999 -3.5009999 -1.811 0
-4.4569998 -3.5190001 -1.814 0
-4.4390001 -3.527 -1.8099999 0.029999999
-4.4289999 -3.5420001 -1.811 0.029999999
-4.427 -3.552 -1.812 0.039999999
-4.4050002 -3.5569999 -1.808 0.029999999
-4.4229999 -3.595 -1.821 0
-4.415 -3.6110001 -1.822 0
-4.4039998 -3.625 -1.822 0
-4.388 -3.635 -1.8200001 0
-4.3629999 -3.638 -1.814 0
-4.3649998 -3.651 -1.818 0
-4.3369999 -3.651 -1.8099999 0
-4.3499999 -3.6860001 -1.821 0
-4.3400002 -3.701 -1.822 0
-4.3260002 -3.7119999 -1.821 0
-4.3239999 -3.734 -1.825 0
-4.3039999 -3.74 -1.821 0
-4.2989998 -3.7479999 -1.822 0
-4.2729998 -3.7490001 -1.816 0
-4.2589998 -3.76 -1.814 0
-4.2449999 -3.7720001 -1.814 0
-4.2350001 -3.7869999 -1.814 0
-4.223 -3.8 -1.814 0
-4.2069998 -3.809 -1.812 0
-4.204 -3.819 -1.814 0
-4.211 -3.8499999 -1.823 0
-4.1750002 -3.8410001 -1.812 0
-4.1739998 -3.8640001 -1.817 0
-4.1729999 -3.888 -1.822 0
-4.164 -3.9030001 -1.823 0
-4.1560001 -3.9200001 -1.825 0
-4.1230001 -3.914 -1.816 0
-4.119 -3.9230001 -1.817 0
-4.1030002 -3.9319999 -1.8150001 0
-4.099 -3.9530001 -1.819 0.07
-4.0949998 -3.974 -1.823 0
-4.0939999 -3.9979999 -1.8279999 0
-4.0570002 -3.987 -1.817 0
-4.0710001 -4.0139999 -1.827 0
-4.0339999 -4.0019999 -1.8150001 0
-4.0409999 -4.0339999 -1.824 0
-4.006 -4.0250001 -1.814 0
-4.0209999 -4.0640001 -1.827 0
-3.984 -4.053 -1.8150001 0
-3.9679999 -4.0630002 -1.814 0
-3.9679999 -4.0869999 -1.819 0
-3.951 -4.0830002 -1.814 0
-3.9419999 -4.099 -1.816 0
-3.9349999 -4.118 -1.819 0
-3.9170001 -4.125 -1.817 0
-3.904 -4.1370001 -1.817 0
-3.892 -4.151 -1.818 0.029999999
-3.875 -4.1589999 -1.816 0.029999999
-3.872 -4.1680002 -1.817 0.029999999
-3.878 -4.2010002 -1.827 0
-3.848 -4.1950002 -1.818 0
-3.849 -4.2220001 -1.825 0
-3.8139999 -4.211 -1.814 0
-3.809 -4.2319999 -1.819 0.11
-3.7880001 -4.2360001 -1.8150001 0.039999999
-3.7880001 -4.2490001 -1.818 0.07
-3.7709999 -4.257 -1.816 0.039999999
-3.7579999 -4.2680001 -1.816 0.029999999
-3.75 -4.2870002 -1.819 0.07
-3.733 -4.2950001 -1.818 0.039999999
-3.7149999 -4.3010001 -1.8150001 0.029999999
-3.711 -4.3239999 -1.8200001 0.07
-3.6960001 -4.3200002 -1.816 0.039999999
-3.6849999 -4.3340001 -1.817 0.07
-3.664 -4.3369999 -1.813 0.039999999
-3.651 -4.3499999 -1.814 0
-3.6429999 -4.369 -1.817 0.059999999
-3.622 -4.3709998 -1.813 0.039999999
-3.6140001 -4.3889999 -1.816 0.13
-3.599 -4.3979998 -1.8150001 0.039999999
-3.599 -4.4130001 -1.819 0.07
-3.579 -4.4169998 -1.816 0.079999998
-3.5639999 -4.427 -1.8150001 0.079999998
-3.5439999 -4.4299998 -1.812 0.039999999
-3.5380001 -4.4520001 -1.816 0.07
-3.5209999 -4.4580002 -1.814 0.039999999
-3.5150001 -4.4650002 -1.8150001 0.07
-3.5 -4.4749999 -1.814 0.039999999
-3.48 -4.4790001 -1.811 0.039999999
-3.4719999 -4.4970002 -1.814 0.079999998
-3.457 -4.5079999 -1.814 0.039999999
-3.447 -4.5229998 -1.816 0.07
-3.427 -4.526 -1.813 0.039999999
-3.424 -4.5380001 -1.816 0.039999999
-3.4089999 -4.5469999 -1.8150001 0
-3.3989999 -4.5640001 -1.818 0.059999999
-3.378 -4.5650001 -1.814 0.039999999
-3.3699999 -4.585 -1.818 0.07
-3.3529999 -4.5910001 -1.816 0.039999999
-3.348 -4.6149998 -1.821 0.07
-3.342 -4.6220002 -1.822 0.16
-3.323 -4.6259999 -1.819 0.039999999
-3.3139999 -4.645 -1.823 0.079999998
-3.2920001 -4.6440001 -1.818 0.039999999
-3.2869999 -4.6680002 -1.824 0.07
-3.2690001 -4.6739998 -1.822 0.079999998
-3.2550001 -4.6859999 -1.823 0.079999998
-3.2360001 -4.6900001 -1.8200001 0.039999999
-3.2309999 -4.698 -1.821 0.07
-3.2130001 -4.7030001 -1.819 0.039999999
-3.2060001 -4.724 -1.824 0.079999998
-3.1889999 -4.7309999 -1.823 0.039999999
-3.1760001 -4.744 -1.824 0.079999998
-3.155 -4.7449999 -1.8200001 0.039999999
-3.1459999 -4.7639999 -1.824 0.07
-3.1370001 -4.7659998 -1.823 0.039999999
-3.1229999 -4.7779999 -1.823 0.079999998
-3.0999999 -4.776 -1.819 0.039999999
-3.096 -4.802 -1.825 0.07
-3.0780001 -4.8070002 -1.823 0.039999999
-3.0610001 -4.8150001 -1.823 0.15000001
-3.0439999 -4.8210001 -1.821 0.11
-3.0380001 -4.8280001 -1.822 0.19
-3.0109999 -4.8189998 -1.8150001 0.23999999
-2.987 -4.8140001 -1.809 0.31999999
-2.973 -4.8249998 -1.8099999 0.27000001
-2.948 -4.8189998 -1.803 0.27000001
-2.9300001 -4.823 -1.801 0.20999999
-2.9330001 -4.8629999 -1.814 0.38999999
-2.9200001 -4.8579998 -1.8099999 0.31
-2.902 -4.862 -1.808 0.31
-2.8800001 -4.8610001 -1.804 0.30000001
-2.8670001 -4.8740001 -1.8049999 0.25999999
-2.849 -4.8779998 -1.803 0.15000001
-2.8239999 -4.8699999 -1.7970001 0.28999999
-2.8039999 -4.8709998 -1.794 0.23
-2.786 -4.8569999 -1.7869999 0.17
-2.7750001 -4.8740001 -1.79 0.2
-2.75 -4.8649998 -1.783 0.50999999
-2.747 -4.8969998 -1.7920001 0.25
-2.73 -4.902 -1.79 0.12
-2.7179999 -4.9169998 -1.793 0.17
-2.6849999 -4.8940001 -1.781 0.050000001
-2.681 -4.9050002 -1.783 0.17
-2.652 -4.8889999 -1.774 0.050000001
-2.6400001 -4.902 -1.776 0.15000001
-2.628 -4.9169998 -1.778 0.19
-2.602 -4.9050002 -1.77 0.1
-2.585 -4.9109998 -1.77 0.18000001
-2.5650001 -4.9109998 -1.767 0.2
-2.55 -4.9000001 -1.761 0.090000004
-2.5320001 -4.9029999 -1.7589999 0.16
-2.5150001 -4.908 -1.758 0.050000001
-2.4990001 -4.9159999 -1.758 0.16
-2.4749999 -4.9070001 -1.751 0.050000001
-2.4579999 -4.9109998 -1.75 0.17
-2.437 -4.908 -1.7460001 0.050000001
-2.4230001 -4.8990002 -1.7410001 0.16
-2.408 -4.9060001 -1.7410001 0.050000001
-2.3929999 -4.9159999 -1.7410001 0.16
-2.372 -4.9109998 -1.737 0.18000001
-2.3529999 -4.9120002 -1.734 0.16
-2.3310001 -4.9050002 -1.729 0.039999999
-2.316 -4.914 -1.73 0.15000001
-2.3039999 -4.908 -1.726 0.19
-2.28 -4.8979998 -1.72 0.039999999
-2.263 -4.902 -1.7180001 0.16
-2.2490001 -4.9120002 -1.72 0.2
-2.2279999 -4.9050002 -1.714 0.1
-2.2130001 -4.914 -1.715 0.17
-2.198 -4.921 -1.715 0.20999999
-2.1849999 -4.914 -1.711 0.1
-2.1670001 -4.9159999 -1.709 0.17
-2.1459999 -4.9089999 -1.704 0.050000001
-2.131 -4.9169998 -1.705 0.17
-2.1129999 -4.9169998 -1.702 0.050000001
-2.098 -4.9250002 -1.7029999 0.16
-2.0799999 -4.927 -1.701 0.18000001
-2.073 -4.9299998 -1.701 0.17
-2.0550001 -4.9310002 -1.699 0.18000001
-2.0380001 -4.934 -1.698 0.18000001
-2.023 -4.9419999 -1.698 0.17
-2.006 -4.9450002 -1.697 0.18000001
-1.99 -4.9499998 -1.696 0.17
-1.976 -4.961 -1.698 0.17
-1.962 -4.948 -1.692 0.18000001
-1.951 -4.9650002 -1.696 0.17
-1.933 -4.9660001 -1.694 0.17
-1.92 -4.9790001 -1.697 0.16
-1.902 -4.9780002 -1.694 0.16
-1.88 -4.9679999 -1.689 0.039999999
-1.8660001 -4.9770002 -1.6900001 0.14
-1.8430001 -4.9640002 -1.683 0.19
-1.834 -4.9629998 -1.682 0.1
-1.822 -4.9790001 -1.6849999 0.090000004
-1.806 -4.9829998 -1.6849999 0.090000004
-1.791 -4.9910002 -1.6849999 0.090000004
-1.78 -5.0110002 -1.691 0.079999998
-1.761 -5.007 -1.687 0
-1.739 -4.9949999 -1.681 0.13
-1.719 -4.9640002 -1.669 0.050000001
-1.702 -4.9640002 -1.6670001 0.16
-1.688 -4.974 -1.669 0.2
-1.668 -4.967 -1.664 0.1
-1.651 -4.967 -1.6619999 0.18000001
-1.635 -4.9699998 -1.6619999 0.11
-1.63 -5.0100002 -1.674 0.20999999
-1.6210001 -5.007 -1.6720001 0.2
-1.618 -5.053 -1.687 0.17
-1.599 -5.0479999 -1.683 0.090000004
-1.585 -5.0580001 -1.6849999 0.18000001
-1.567 -5.0560002 -1.682 0.050000001
-1.549 -5.053 -1.6799999 0.18000001
-1.5319999 -5.0549998 -1.678 0.19
-1.52 -5.0440001 -1.674 0.14
-1.501 -5.0380001 -1.67 0.27000001
-1.485 -5.0430002 -1.67 0.2
-1.466 -5.0370002 -1.666 0.20999999
-1.448 -5.0359998 -1.664 0.28
-1.431 -5.0370002 -1.663 0.2
-1.415 -5.039 -1.6619999 0.12
-1.409 -5.0489998 -1.665 0.17
-1.386 -5.026 -1.655 0.20999999
-1.375 -5.0500002 -1.6619999 0.2
-1.357 -5.0450001 -1.659 0.23
-1.3430001 -5.0570002 -1.6619999 0.1
-1.3279999 -5.0630002 -1.6619999 0.2
-1.313 -5.073 -1.664 0.11
-1.302 -5.0619998 -1.66 0.18000001
-1.289 -5.0749998 -1.663 0.19
-1.274 -5.086 -1.665 0.090000004
-1.2589999 -5.092 -1.666 0.079999998
-1.242 -5.0910001 -1.664 0.039999999
-1.227 -5.1020002 -1.6670001 0.079999998
-1.211 -5.1040001 -1.666 0.079999998
-1.2029999 -5.1059999 -1.666 0.090000004
-1.1849999 -5.0999999 -1.663 0.14
-1.1670001 -5.098 -1.661 0.20999999
-1.152 -5.1040001 -1.6619999 0.1
-1.1390001 -5.1209998 -1.666 0.15000001
-1.118 -5.1059999 -1.66 0.20999999
-1.105 -5.1199999 -1.663 0.18000001
-1.096 -5.118 -1.6619999 0.18000001
-1.079 -5.1160002 -1.66 0.16
-1.063 -5.1209998 -1.661 0.039999999
-1.051 -5.1430001 -1.6670001 0.079999998
-1.03 -5.1240001 -1.66 0.039999999
-1.013 -5.125 -1.659 0.07
-1 -5.1440001 -1.664 0.079999998
-0.98100001 -5.1300001 -1.658 0.079999998
-0.972 -5.1300001 -1.658 0.15000001
-0.95999998 -5.1490002 -1.663 0.16
-0.94099998 -5.1389999 -1.659 0.039999999
-0.92500001 -5.1420002 -1.659 0.079999998
-0.91000003 -5.151 -1.661 0.039999999
-0.89200002 -5.1459999 -1.658 0.07
-0.88300002 -5.1420002 -1.656 0.039999999
-0.86900002 -5.1560001 -1.66 0.079999998
-0.852 -5.1550002 -1.659 0.079999998
-0.83600003 -5.1570001 -1.659 0.039999999
-0.81999999 -5.1599998 -1.659 0.07
-0.801 -5.1479998 -1.654 0.15000001
-0.78399998 -5.1459999 -1.653 0.039999999
-0.76899999 -5.1009998 -1.636 0.16
-0.74800003 -5.0710001 -1.625 0.19
-0.722 -5.0079999 -1.603 0.17
-0.708 -5.0219998 -1.607 0.25
-0.68900001 -5.0029998 -1.6 0.19
-0.67799997 -5.0349998 -1.61 0.25
-0.66100001 -5.0279999 -1.607 0.2
-0.65100002 -5.0120001 -1.601 0.12
-0.63599998 -5.02 -1.603 0.19
-0.63099998 -5.1059999 -1.632 0.19
-0.61799997 -5.138 -1.642 0.039999999
-0.60600001 -5.1700001 -1.653 0.07
-0.59100002 -5.1820002 -1.656 0.079999998
-0.574 -5.178 -1.654 0.039999999
-0.55800003 -5.1820002 -1.654 0.079999998
-0.551 -5.1939998 -1.658 0.13
-0.53399998 -5.1919999 -1.6569999 0.23999999
-0.514 -5.158 -1.645 0.090000004
-0.49700001 -5.1529999 -1.643 0.090000004
-0.48300001 -5.1739998 -1.649 0.039999999
-0.46700001 -5.1810002 -1.651 0.07
-0.46000001 -5.1929998 -1.655 0.079999998
-0.44299999 -5.1869998 -1.653 0.039999999
-0.428 -5.1960001 -1.655 0.07
-0.41100001 -5.197 -1.655 0.079999998
-0.39399999 -5.1890001 -1.652 0.079999998
-0.37799999 -5.1859999 -1.651 0.16
-0.36199999 -5.2030001 -1.656 0.16
-0.352 -5.1669998 -1.6440001 0.16
-0.33199999 -5.1230001 -1.628 0.039999999
-0.317 -5.1389999 -1.633 0.16
-0.30000001 -5.125 -1.628 0.050000001
-0.285 -5.151 -1.636 0.17
-0.27000001 -5.1669998 -1.642 0.18000001
-0.255 -5.1859999 -1.648 0.16
-0.24699999 -5.1830001 -1.647 0.18000001
-0.23 -5.184 -1.647 0.039999999
-0.214 -5.1810002 -1.645 0.16
-0.197 -5.177 -1.6440001 0.18000001
-0.18099999 -5.184 -1.646 0.16
-0.16500001 -5.1789999 -1.6440001 0.17
-0.149 -5.1919999 -1.649 0.039999999
-0.133 -5.1950002 -1.649 0.07
-0.125 -5.204 -1.653 0.079999998
-0.108 -5.1900001 -1.647 0.039999999
-0.092 -5.197 -1.65 0.07
-0.075999998 -5.1960001 -1.649 0.039999999
-0.059 -5.1939998 -1.649 0.07
-0.043000001 -5.1960001 -1.649 0.039999999
-0.035 -5.2059999 -1.653 0.07
-0.018999999 -5.204 -1.652 0.079999998
-0.0020000001 -5.1939998 -1.649 0.15000001
0.014 -5.1789999 -1.6440001 0.16
0.029999999 -5.1700001 -1.64 0.090000004
0.046999998 -5.1789999 -1.6440001 0.079999998
0.063000001 -5.1900001 -1.647 0.039999999
0.071000002 -5.1880002 -1.647 0.07
0.086999997 -5.1820002 -1.645 0.079999998
0.103 -5.1560001 -1.636 0.090000004
0.12 -5.1799998 -1.6440001 0.079999998
0.13600001 -5.1490002 -1.6339999 0.090000004
0.153 -5.1849999 -1.646 0.039999999
0.169 -5.1880002 -1.647 0.07
0.186 -5.1950002 -1.65 0.079999998
0.19400001 -5.1929998 -1.649 0.079999998
0.20999999 -5.1900001 -1.649 0.15000001
0.226 -5.178 -1.645 0.16
0.241 -5.1570001 -1.638 0.039999999
0.25600001 -5.1329999 -1.63 0.16
0.27200001 -5.119 -1.625 0.19
0.289 -5.131 -1.63 0.18000001
0.29800001 -5.1539998 -1.638 0.18000001
0.31400001 -5.145 -1.635 0.16
0.33000001 -5.1459999 -1.636 0.039999999
0.345 -5.1339998 -1.632 0.16
0.35800001 -5.072 -1.6109999 0.050000001
0.377 -5.1199999 -1.628 0.14
0.39300001 -5.1230001 -1.6289999 0.11
0.40099999 -5.1139998 -1.627 0.18000001
0.41499999 -5.085 -1.617 0.11
0.433 -5.1160002 -1.628 0.18000001
0.44800001 -5.0929999 -1.6210001 0.050000001
0.463 -5.0840001 -1.618 0
0.47999999 -5.092 -1.622 0
0.48800001 -5.0939999 -1.622 0
0.50999999 -5.1539998 -1.6440001 0
0.52399999 -5.1339998 -1.637 0
2.641 -4.8470001 -1.76 0
2.6429999 -4.816 -1.75 0
2.6619999 -4.8140001 -1.753 0
2.665 -4.802 -1.75 0
2.6789999 -4.7919998 -1.749 0
2.697 -4.7880001 -1.751 0.029999999
2.717 -4.7880001 -1.7539999 0.039999999
2.7279999 -4.7729998 -1.752 0.039999999
2.7409999 -4.7610002 -1.75 0.029999999
2.7590001 -4.757 -1.752 0.029999999
2.763 -4.7459998 -1.75 0.039999999
2.7780001 -4.7389998 -1.75 0.029999999
2.796 -4.7350001 -1.752 0.039999999
2.8069999 -4.7199998 -1.75 0.029999999
2.819 -4.7059999 -1.748 0.039999999
2.8340001 -4.697 -1.748 0
2.8499999 -4.6900001 -1.749 0
2.852 -4.678 -1.745 0
2.8699999 -4.6729999 -1.747 0
2.892 -4.677 -1.752 0.07
2.8940001 -4.6469998 -1.744 0.039999999
2.914 -4.6459999 -1.747 0.039999999
2.931 -4.6420002 -1.749 0.07
2.9389999 -4.6209998 -1.745 0.039999999
2.9460001 -4.6170001 -1.745 0.039999999
2.964 -4.6139998 -1.747 0.07
2.971 -4.592 -1.742 0.039999999
2.9890001 -4.5890002 -1.745 0.039999999
3.003 -4.5780001 -1.744 0.039999999
3.013 -4.5619998 -1.7410001 0.039999999
3.03 -4.5570002 -1.743 0.07
3.0309999 -4.5430002 -1.74 0.039999999
3.049 -4.5380001 -1.7410001 0.07
3.0680001 -4.5359998 -1.745 0.15000001
3.073 -4.513 -1.739 0.039999999
3.089 -4.506 -1.74 0.07
3.095 -4.4840002 -1.735 0.039999999
3.1170001 -4.487 -1.74 0.07
3.1210001 -4.4770002 -1.738 0.039999999
3.131 -4.461 -1.7359999 0.07
3.1389999 -4.4429998 -1.732 0.039999999
3.155 -4.4349999 -1.733 0.029999999
3.171 -4.428 -1.734 0.07
3.177 -4.4070001 -1.73 0.039999999
3.194 -4.402 -1.732 0.039999999
3.194 -4.388 -1.728 0
3.2119999 -4.3839998 -1.7309999 0.059999999
3.2219999 -4.368 -1.728 0.039999999
3.2349999 -4.3569999 -1.728 0.039999999
3.2460001 -4.3429999 -1.726 0.039999999
3.263 -4.3369999 -1.728 0.029999999
3.276 -4.3270001 -1.728 0.029999999
3.2869999 -4.3260002 -1.73 0.07
3.296 -4.3099999 -1.727 0.14
3.3099999 -4.3010001 -1.728 0.039999999
3.326 -4.2940001 -1.729 0.039999999
3.345 -4.2909999 -1.732 0.039999999
3.359 -4.2800002 -1.732 0
3.3699999 -4.2659998 -1.7309999 0
3.3729999 -4.257 -1.729 0
3.4100001 -4.276 -1.742 0
3.4030001 -4.2399998 -1.7309999 0
3.4170001 -4.2290001 -1.7309999 0
3.4219999 -4.2080002 -1.727 0
3.4419999 -4.2059999 -1.7309999 0
3.46 -4.2010002 -1.733 0
3.47 -4.1999998 -1.735 0.059999999
3.4749999 -4.1789999 -1.7309999 0.039999999
3.4890001 -4.1690001 -1.7309999 0.029999999
3.51 -4.1669998 -1.735 0
3.5190001 -4.152 -1.733 0
3.5309999 -4.1389999 -1.732 0.029999999
3.5510001 -4.1370001 -1.7359999 0
3.55 -4.1230001 -1.732 0
3.5580001 -4.1059999 -1.73 0
3.5739999 -4.0970001 -1.7309999 0
3.589 -4.0890002 -1.732 0.029999999
3.599 -4.0749998 -1.7309999 0.029999999
3.6159999 -4.0679998 -1.733 0.029999999
3.6270001 -4.0549998 -1.732 0.029999999
3.6400001 -4.0560002 -1.7359999 0.07
3.6440001 -4.0349998 -1.7309999 0.039999999
3.6600001 -4.0279999 -1.733 0
3.6919999 -4.0370002 -1.743 0
3.6789999 -3.9979999 -1.73 0
3.7149999 -4.0110002 -1.7410001 0
3.7049999 -3.9760001 -1.7309999 0
3.7119999 -3.97 -1.7309999 0
3.744 -3.9790001 -1.74 0
3.7379999 -3.948 -1.7309999 0
3.7520001 -3.938 -1.732 0
3.78 -3.9419999 -1.74 0
3.7720001 -3.9100001 -1.73 0
3.789 -3.902 -1.732 0
3.793 -3.895 -1.7309999 0
3.802 -3.8789999 -1.729 0
3.832 -3.8859999 -1.738 0
3.8310001 -3.8599999 -1.732 0
3.8340001 -3.839 -1.727 0
3.869 -3.849 -1.738 0
3.858 -3.8150001 -1.727 0
3.8629999 -3.8069999 -1.727 0
3.8729999 -3.7939999 -1.726 0
3.882 -3.779 -1.725 0
3.885 -3.757 -1.72 0
3.9119999 -3.76 -1.727 0
3.915 -3.7390001 -1.723 0
3.9300001 -3.73 -1.725 0
3.931 -3.72 -1.723 0
3.9619999 -3.7260001 -1.732 0
3.9779999 -3.717 -1.734 0
3.9690001 -3.6849999 -1.724 0
3.9719999 -3.665 -1.72 0
3.9909999 -3.6589999 -1.723 0
3.9920001 -3.6370001 -1.719 0
4.0009999 -3.6340001 -1.72 0
4.0149999 -3.6229999 -1.721 0
4.0219998 -3.6070001 -1.72 0
4.0250001 -3.5869999 -1.716 0
4.046 -3.5829999 -1.72 0
4.0549998 -3.5680001 -1.719 0
4.059 -3.549 -1.716 0
4.0689998 -3.546 -1.7180001 0
4.0830002 -3.536 -1.719 0
4.0869999 -3.517 -1.716 0
4.112 -3.516 -1.722 0
4.1059999 -3.4879999 -1.714 0
4.1209998 -3.4790001 -1.716 0
4.1529999 -3.4849999 -1.726 0
4.1589999 -3.4779999 -1.726 0
4.1409998 -3.441 -1.7130001 0
4.1490002 -3.425 -1.712 0
4.1669998 -3.418 -1.715 0
4.1960001 -3.421 -1.723 0
4.21 -3.4100001 -1.725 0
4.2119999 -3.3900001 -1.721 0
4.217 -3.3829999 -1.721 0
4.2280002 -3.3699999 -1.721 0
4.2459998 -3.362 -1.724 0
4.2309999 -3.329 -1.7130001 0
4.2399998 -3.3139999 -1.712 0
4.2709999 -3.3169999 -1.721 0
4.2740002 -3.2980001 -1.7180001 0
4.2750001 -3.2880001 -1.716 0
4.303 -3.2880001 -1.724 0
4.2940001 -3.26 -1.716 0
4.283 -3.23 -1.707 0
4.3189998 -3.2360001 -1.7180001 0
4.3280001 -3.2219999 -1.717 0
4.342 -3.211 -1.719 0
4.3189998 -3.1830001 -1.707 0
4.3299999 -3.171 -1.707 0
4.348 -3.1630001 -1.711 0
4.3470001 -3.141 -1.706 0
4.3800001 -3.1440001 -1.716 0
4.388 -3.1289999 -1.715 0
