# .PCD v0.7 - Point Cloud Data file format
VERSION 0.7
FIELDS x y z intensity
SIZE 4 4 4 4
TYPE F F F F
COUNT 1 1 1 1
WIDTH 1413
HEIGHT 1
VIEWPOINT 0 0 0 1 0 0 0
POINTS 1413
DATA ascii
-3.408 -5.3649998 -1.846 0.23
-3.375 -5.3499999 -1.836 0.17
-3.358 -5.3600001 -1.836 0.28999999
-3.3369999 -5.3639998 -1.834 0.23999999
-3.3310001 -5.3730001 -1.835 0.18000001
-3.3139999 -5.3829999 -1.835 0.27000001
-3.3010001 -5.4000001 -1.837 0.23
-3.28 -5.4039998 -1.835 0.17
-3.2539999 -5.3990002 -1.83 0.27000001
-3.2409999 -5.4159999 -1.832 0.23999999
-3.221 -5.421 -1.83 0.19
-3.2030001 -5.4099998 -1.824 0.28
-3.188 -5.4229999 -1.825 0.23
-3.174 -5.4380002 -1.827 0.18000001
-3.1470001 -5.4310002 -1.821 0.25999999
-3.1329999 -5.4460001 -1.823 0.23999999
-3.1170001 -5.4580002 -1.824 0.17
-3.086 -5.4429998 -1.8150001 0.25999999
-3.0769999 -5.447 -1.8150001 0.23
-3.0610001 -5.4590001 -1.8150001 0.17
-3.039 -5.46 -1.812 0.25999999
-3.02 -5.4660001 -1.811 0.22
-3.006 -5.4809999 -1.813 0.18000001
-2.98 -5.4749999 -1.808 0.25999999
-2.964 -5.4860001 -1.808 0.22
-2.9519999 -5.4840002 -1.806 0.18000001
-2.9300001 -5.4850001 -1.803 0.27000001
-2.9159999 -5.5009999 -1.8049999 0.23
-2.898 -5.5079999 -1.8049999 0.2
-2.8770001 -5.5100002 -1.802 0.25
-2.8570001 -5.5139999 -1.801 0.22
-2.836 -5.5159998 -1.798 0.2
-2.823 -5.5120001 -1.795 0.27000001
-2.8080001 -5.5250001 -1.796 0.23999999
-2.793 -5.5380001 -1.798 0.25
-2.7650001 -5.5250001 -1.791 0.18000001
-2.7449999 -5.5279999 -1.789 0.25999999
-2.7349999 -5.552 -1.794 0.23999999
-2.7119999 -5.5510001 -1.791 0.18000001
-2.698 -5.5430002 -1.786 0.25999999
-2.6889999 -5.5689998 -1.7920001 0.20999999
-2.652 -5.5359998 -1.778 0.15000001
-2.635 -5.546 -1.779 0.31
-2.6240001 -5.5679998 -1.783 0.23
-2.605 -5.572 -1.7819999 0.18000001
-2.579 -5.5630002 -1.776 0.27000001
-2.5780001 -5.5830002 -1.7819999 0.25
-2.55 -5.5679998 -1.774 0.19
-2.5280001 -5.566 -1.77 0.27000001
-2.5150001 -5.5840001 -1.774 0.23999999
-2.494 -5.585 -1.772 0.19
-2.473 -5.5840001 -1.7690001 0.27000001
-2.46 -5.6030002 -1.772 0.23
-2.448 -5.599 -1.77 0.19
-2.4260001 -5.5960002 -1.766 0.27000001
-2.405 -5.5970001 -1.7640001 0.25
-2.3889999 -5.6059999 -1.765 0.18000001
-2.3670001 -5.605 -1.762 0.28
-2.3570001 -5.6300001 -1.768 0.23
-2.3310001 -5.6160002 -1.76 0.18000001
-2.316 -5.6059999 -1.756 0.27000001
-2.3080001 -5.6360002 -1.763 0.25
-2.279 -5.6149998 -1.7539999 0.19
-2.257 -5.6129999 -1.751 0.27000001
-2.2460001 -5.6360002 -1.756 0.23
-2.2179999 -5.6160002 -1.747 0.18000001
-2.2 -5.6230001 -1.747 0.27000001
-2.198 -5.645 -1.753 0.23
-2.1719999 -5.6279998 -1.7460001 0.18000001
-2.1530001 -5.632 -1.744 0.28
-2.1389999 -5.6490002 -1.748 0.25
-2.1140001 -5.6360002 -1.742 0.18000001
-2.095 -5.6389999 -1.74 0.25999999
-2.0799999 -5.6550002 -1.743 0.23999999
-2.069 -5.651 -1.7410001 0.18000001
-2.046 -5.6430001 -1.7359999 0.27000001
-2.0320001 -5.6599998 -1.74 0.23
-2.0090001 -5.652 -1.735 0.16
-1.988 -5.6469998 -1.7309999 0.28999999
-1.975 -5.6680002 -1.7359999 0.23999999
-1.952 -5.658 -1.7309999 0.2
-1.943 -5.6609998 -1.7309999 0.25
-1.929 -5.678 -1.734 0.23
-1.902 -5.6570001 -1.726 0.18000001
-1.8839999 -5.6630001 -1.726 0.27000001
-1.8710001 -5.6830001 -1.73 0.23999999
-1.848 -5.6739998 -1.726 0.18000001
-1.824 -5.6599998 -1.719 0.27000001
-1.823 -5.6869998 -1.727 0.23
-1.794 -5.658 -1.716 0.18000001
-1.775 -5.6599998 -1.714 0.25999999
-1.761 -5.678 -1.7180001 0.23
-1.739 -5.6690001 -1.714 0.15000001
-1.721 -5.6729999 -1.7130001 0.28
-1.707 -5.6929998 -1.7180001 0.23
-1.692 -5.6750002 -1.711 0.18000001
-1.673 -5.677 -1.71 0.25999999
-1.659 -5.6950002 -1.714 0.23
-1.6339999 -5.6739998 -1.706 0.18000001
-1.619 -5.6890001 -1.709 0.28
-1.6 -5.6919999 -1.7079999 0.23999999
-1.581 -5.6929998 -1.707 0.17
-1.567 -5.6750002 -1.701 0.25999999
-1.551 -5.6880002 -1.7029999 0.23999999
-1.53 -5.6810002 -1.7 0.25
-1.513 -5.6880002 -1.7 0.2
-1.495 -5.6939998 -1.701 0.25
-1.475 -5.6900001 -1.698 0.19
-1.4529999 -5.678 -1.692 0.13
-1.448 -5.6950002 -1.697 0.20999999
-1.428 -5.6900001 -1.694 0.2
-1.409 -5.6890001 -1.692 0.25
-1.388 -5.684 -1.689 0.18000001
-1.3660001 -5.6700001 -1.684 0.25
-1.351 -5.6849999 -1.687 0.19
-1.34 -5.678 -1.684 0.25
-1.324 -5.6900001 -1.687 0.19
-1.302 -5.6789999 -1.682 0.25
-1.2869999 -5.6919999 -1.6849999 0.18000001
-1.2640001 -5.6760001 -1.678 0.23999999
-1.247 -5.684 -1.679 0.18000001
-1.229 -5.6859999 -1.679 0.25
-1.211 -5.6880002 -1.678 0.23
-1.2 -5.6820002 -1.676 0.17
-1.181 -5.6799998 -1.674 0.25999999
-1.1619999 -5.678 -1.6720001 0.23
-1.1440001 -5.6799998 -1.6720001 0.17
-1.125 -5.6760001 -1.669 0.25999999
-1.1059999 -5.6739998 -1.668 0.23
-1.089 -5.6810002 -1.669 0.17
-1.079 -5.6789999 -1.668 0.25999999
-1.061 -5.6820002 -1.668 0.18000001
-1.039 -5.6609998 -1.66 0.25
-1.023 -5.6760001 -1.663 0.16
-1.003 -5.664 -1.659 0.25999999
-0.98500001 -5.6690001 -1.659 0.22
-0.96799999 -5.6719999 -1.659 0.18000001
-0.95599997 -5.6550002 -1.653 0.27000001
-0.93900001 -5.6669998 -1.656 0.19
-0.92000002 -5.6589999 -1.653 0.25
-0.90399998 -5.6729999 -1.656 0.18000001
-0.884 -5.6620002 -1.652 0.25
-0.866 -5.6630001 -1.652 0.16
-0.85399997 -5.6459999 -1.646 0.25999999
-0.838 -5.6620002 -1.65 0.18000001
-0.81800002 -5.6490002 -1.645 0.25
-0.801 -5.6570001 -1.647 0.22
-0.78399998 -5.6599998 -1.647 0.2
-0.76300001 -5.6409998 -1.64 0.23999999
-0.74599999 -5.6459999 -1.641 0.22
-0.736 -5.6370001 -1.638 0.19
-0.71700001 -5.6360002 -1.637 0.27000001
-0.69999999 -5.6420002 -1.638 0.25
-0.68099999 -5.6339998 -1.635 0.18000001
-0.66399997 -5.6420002 -1.637 0.25999999
-0.64600003 -5.6389999 -1.635 0.19
-0.62699997 -5.6269999 -1.631 0.25
-0.611 -5.6459999 -1.636 0.19
-0.59899998 -5.619 -1.627 0.25
-0.58200002 -5.6279998 -1.63 0.19
-0.56400001 -5.6279998 -1.6289999 0.25
-0.546 -5.6240001 -1.627 0.18000001
-0.52700001 -5.6110001 -1.623 0.25
-0.51099998 -5.6279998 -1.627 0.18000001
-0.491 -5.6100001 -1.622 0.25
-0.48300001 -5.6199999 -1.624 0.22
-0.46599999 -5.6220002 -1.624 0.17
-0.44600001 -5.6020002 -1.618 0.25999999
-0.42899999 -5.6110001 -1.62 0.2
-0.41100001 -5.6009998 -1.617 0.25
-0.39399999 -5.6040001 -1.617 0.16
-0.384 -5.5970001 -1.615 0.25999999
-0.36700001 -5.6100001 -1.619 0.18000001
-0.34900001 -5.592 -1.613 0.25
-0.33199999 -5.6139998 -1.619 0.2
-0.31299999 -5.5809999 -1.609 0.25
-0.296 -5.5949998 -1.613 0.18000001
-0.278 -5.5830002 -1.609 0.25
-0.27000001 -5.6040001 -1.615 0.23
-0.25099999 -5.572 -1.605 0.17
-0.233 -5.5710001 -1.604 0.25999999
-0.21699999 -5.5910001 -1.61 0.18000001
-0.198 -5.5650001 -1.602 0.25
-0.18099999 -5.5770001 -1.6059999 0.18000001
-0.163 -5.566 -1.602 0.25
-0.146 -5.5609999 -1.6 0.18000001
-0.13699999 -5.546 -1.596 0.23999999
-0.12 -5.579 -1.6059999 0.18000001
-0.102 -5.5500002 -1.597 0.25
-0.083999999 -5.5679998 -1.602 0.22
-0.067000002 -5.5469999 -1.596 0.12
-0.048999999 -5.54 -1.5930001 0.20999999
-0.032000002 -5.5359998 -1.592 0.18000001
-0.023 -5.5489998 -1.596 0.25999999
-0.0060000001 -5.5440001 -1.594 0.18000001
0.011 -5.5279999 -1.59 0.23999999
0.028999999 -5.5380001 -1.5930001 0.23
0.046 -5.526 -1.589 0.18000001
0.063000001 -5.52 -1.587 0.25999999
0.071999997 -5.5279999 -1.59 0.22
0.089000002 -5.5219998 -1.5880001 0.17
0.106 -5.506 -1.5829999 0.25999999
0.124 -5.527 -1.59 0.19
0.141 -5.4980001 -1.581 0.25
0.15800001 -5.507 -1.584 0.19
0.176 -5.5050001 -1.5829999 0.25
0.184 -5.5 -1.582 0.17
0.20100001 -5.4809999 -1.576 0.25
0.219 -5.4990001 -1.582 0.18000001
0.235 -5.4759998 -1.575 0.23
0.25299999 -5.4980001 -1.582 0.18000001
0.27000001 -5.4840002 -1.5779999 0.25
0.287 -5.4790001 -1.577 0.22
0.296 -5.4899998 -1.58 0.20999999
0.31200001 -5.4720001 -1.575 0.25
0.329 -5.4710002 -1.575 0.18000001
0.34599999 -5.4640002 -1.573 0.25
0.36500001 -5.4780002 -1.5779999 0.18000001
0.38100001 -5.4640002 -1.574 0.23999999
0.39899999 -5.4720001 -1.577 0.18000001
0.405 -5.4460001 -1.569 0.25
0.42300001 -5.4569998 -1.572 0.16
0.44 -5.4499998 -1.571 0.25999999
0.458 -5.461 -1.575 0.18000001
0.47299999 -5.4369998 -1.568 0.25
0.49200001 -5.4489999 -1.572 0.18000001
0.50800002 -5.4380002 -1.569 0.23999999
0.51700002 -5.441 -1.5700001 0.16
0.53299999 -5.4330001 -1.568 0.25999999
0.551 -5.441 -1.571 0.18000001
0.56699997 -5.4299998 -1.568 0.25
0.58600003 -5.4429998 -1.573 0.18000001
0.60100001 -5.4190001 -1.566 0.25
0.61900002 -5.4260001 -1.569 0.17
0.62599999 -5.4180002 -1.567 0.23999999
0.64399999 -5.4229999 -1.569 0.18000001
0.66100001 -5.4190001 -1.568 0.25
0.68000001 -5.4289999 -1.572 0.18000001
0.69400001 -5.4060001 -1.5650001 0.25
0.71499997 -5.434 -1.575 0.19
0.72799999 -5.4050002 -1.567 0.12
0.73799998 -5.4099998 -1.568 0.20999999
0.75599998 -5.415 -1.571 0.17
0.77100003 -5.401 -1.567 0.27000001
0.78799999 -5.4000001 -1.568 0.18000001
0.80400002 -5.3920002 -1.566 0.25
0.82300001 -5.4029999 -1.5700001 0.19
0.838 -5.3829999 -1.5650001 0.12
0.84799999 -5.3909998 -1.568 0.20999999
0.86400002 -5.3829999 -1.566 0.17
0.87900001 -5.3709998 -1.563 0.27000001
0.89700001 -5.3759999 -1.5650001 0.18000001
0.91299999 -5.369 -1.564 0.23
0.935 -5.3909998 -1.572 0.2
0.94599998 -5.3579998 -1.562 0.11
0.95999998 -5.3839998 -1.571 0.18000001
0.97100002 -5.3509998 -1.562 0.12
0.98799998 -5.348 -1.562 0.2
1.003 -5.3390002 -1.5599999 0.11
1.022 -5.3470001 -1.564 0.20999999
1.039 -5.342 -1.563 0.11
1.058 -5.348 -1.566 0.19
1.064 -5.335 -1.562 0.11
1.082 -5.3379998 -1.564 0.18000001
1.098 -5.3309999 -1.563 0.2
1.114 -5.3249998 -1.562 0.18000001
1.1289999 -5.316 -1.561 0.039999999
1.147 -5.3140001 -1.561 0
1.164 -5.316 -1.563 0
1.179 -5.3410001 -1.571 0
1.189 -5.309 -1.562 0
1.21 -5.3239999 -1.568 0
1.221 -5.296 -1.561 0
1.24 -5.3010001 -1.564 0
1.257 -5.2989998 -1.564 0
1.274 -5.2950001 -1.564 0
1.285 -5.3060002 -1.568 0
1.309 -5.3319998 -1.5779999 0
3.1259999 -4.9349999 -1.687 0
3.135 -4.915 -1.683 0
3.154 -4.9099998 -1.6849999 0
3.253 -4.9099998 -1.701 0
3.2880001 -4.9299998 -1.7130001 0
3.299 -4.9109998 -1.71 0
3.316 -4.9039998 -1.711 0
3.3399999 -4.9060001 -1.716 0
3.3469999 -4.8990002 -1.715 0
3.3599999 -4.8860002 -1.714 0
3.3729999 -4.8720002 -1.7130001 0.029999999
3.382 -4.8520002 -1.709 0.039999999
3.4089999 -4.8590002 -1.716 0.16
3.4170001 -4.8369999 -1.711 0.19
3.4519999 -4.8540001 -1.722 0.19
3.4389999 -4.8210001 -1.711 0.23
3.4579999 -4.8150001 -1.7130001 0.17
3.4809999 -4.8140001 -1.717 0.25
3.497 -4.8049998 -1.7180001 0.18000001
3.51 -4.7909999 -1.717 0.25
3.539 -4.7979999 -1.724 0.20999999
3.5369999 -4.7639999 -1.715 0.12
3.5539999 -4.7719998 -1.72 0.18000001
3.55 -4.7350001 -1.71 0.23
3.566 -4.7259998 -1.711 0.19
3.5780001 -4.711 -1.71 0.12
3.619 -4.7329998 -1.723 0.20999999
3.618 -4.7020001 -1.715 0.17
3.6229999 -4.678 -1.71 0.25999999
3.651 -4.6989999 -1.72 0.2
3.648 -4.665 -1.711 0.23
3.6730001 -4.6669998 -1.717 0.18000001
3.6819999 -4.6479998 -1.714 0.25
3.6930001 -4.632 -1.712 0.16
3.7060001 -4.619 -1.711 0.25999999
3.7349999 -4.625 -1.7180001 0.18000001
3.7249999 -4.5970001 -1.71 0.13
3.747 -4.5949998 -1.714 0.2
3.766 -4.5879998 -1.716 0.11
3.78 -4.5760002 -1.716 0.18000001
3.7820001 -4.5500002 -1.71 0.22
3.8150001 -4.5599999 -1.7180001 0.17
3.8150001 -4.5320001 -1.712 0.25
3.8210001 -4.5240002 -1.711 0.15000001
3.8429999 -4.5209999 -1.715 0.25999999
3.846 -4.4959998 -1.71 0.23
3.859 -4.4819999 -1.709 0.20999999
3.8929999 -4.493 -1.7180001 0.16
3.881 -4.4510002 -1.706 0.050000001
3.9030001 -4.448 -1.71 0.18000001
3.9219999 -4.4549999 -1.716 0.11
3.938 -4.4460001 -1.717 0.18000001
3.941 -4.4200001 -1.711 0.050000001
3.971 -4.4260001 -1.719 0.18000001
3.9630001 -4.3899999 -1.709 0.11
3.994 -4.3959999 -1.717 0.15000001
3.9990001 -4.3730001 -1.7130001 0.23
4 -4.3610001 -1.71 0.16
4.013 -4.3470001 -1.71 0.23
4.0339999 -4.3429999 -1.7130001 0.1
4.0609999 -4.3439999 -1.719 0.17
4.0479999 -4.3039999 -1.707 0.050000001
4.072 -4.302 -1.712 0.17
4.0830002 -4.2870002 -1.711 0.2
4.086 -4.276 -1.709 0.1
4.1170001 -4.2810001 -1.717 0.15000001
4.1110001 -4.2490001 -1.7079999 0.050000001
4.1259999 -4.237 -1.709 0.17
4.1420002 -4.2270002 -1.71 0.19
4.1539998 -4.2129998 -1.71 0.1
4.178 -4.224 -1.717 0.17
4.171 -4.1900001 -1.7079999 0.20999999
4.1900001 -4.1830001 -1.711 0.1
4.2010002 -4.1680002 -1.71 0.18000001
4.2160001 -4.1560001 -1.711 0.050000001
4.2329998 -4.1469998 -1.7130001 0.16
4.2350001 -4.1230001 -1.7079999 0.19
4.244 -4.119 -1.709 0.039999999
4.2680001 -4.1160002 -1.714 0.14
4.2690001 -4.0910001 -1.7079999 0.20999999
4.2789998 -4.0749998 -1.707 0.1
4.2870002 -4.0580001 -1.705 0.16
4.2989998 -4.0430002 -1.705 0.18000001
4.3109999 -4.0289998 -1.705 0.039999999
4.322 -4.026 -1.707 0.16
4.3260002 -4.0050001 -1.7029999 0.050000001
4.3499999 -4.0019999 -1.7079999 0.14
4.3569999 -3.983 -1.705 0.050000001
4.3759999 -3.9760001 -1.7079999 0.16
4.3860002 -3.9590001 -1.707 0.18000001
4.3909998 -3.9389999 -1.704 0.039999999
4.4029999 -3.937 -1.707 0.16
4.415 -3.9230001 -1.707 0.2
4.428 -3.9100001 -1.707 0.16
4.4390001 -3.8940001 -1.706 0.16
4.4460001 -3.8770001 -1.704 0.17
4.454 -3.859 -1.7029999 0.18000001
4.4780002 -3.855 -1.707 0.16
4.4829998 -3.8469999 -1.707 0.16
4.4959998 -3.8340001 -1.707 0.18000001
4.5040002 -3.816 -1.705 0.18000001
4.52 -3.8050001 -1.707 0.039999999
4.5380001 -3.796 -1.71 0.15000001
4.5339999 -3.7679999 -1.7029999 0.050000001
4.5539999 -3.7609999 -1.707 0.14
4.5539999 -3.7490001 -1.704 0.18000001
4.5599999 -3.73 -1.702 0.18000001
4.585 -3.727 -1.707 0.18000001
4.5939999 -3.71 -1.706 0.039999999
4.6040001 -3.694 -1.705 0.15000001
4.6079998 -3.674 -1.7029999 0.050000001
4.632 -3.6689999 -1.707 0.15000001
4.6279998 -3.654 -1.704 0.050000001
4.652 -3.6489999 -1.7079999 0.16
4.6560001 -3.6289999 -1.705 0.19
4.6609998 -3.6099999 -1.7029999 0.18000001
4.6799998 -3.6010001 -1.706 0.090000004
4.697 -3.5910001 -1.7079999 0.16
4.7010002 -3.5699999 -1.705 0.050000001
4.7199998 -3.573 -1.711 0.16
4.7129998 -3.5439999 -1.704 0.050000001
4.737 -3.539 -1.7079999 0.16
4.7480001 -3.5239999 -1.7079999 0.050000001
4.757 -3.5079999 -1.7079999 0.17
4.7600002 -3.487 -1.705 0.050000001
4.7849998 -3.4820001 -1.71 0.15000001
4.777 -3.4649999 -1.705 0.050000001
4.7969999 -3.4560001 -1.7079999 0.15000001
4.803 -3.438 -1.707 0.050000001
4.8169999 -3.425 -1.7079999 0.16
4.823 -3.4070001 -1.706 0.050000001
4.8540001 -3.4059999 -1.714 0.16
4.8410001 -3.3740001 -1.705 0.050000001
4.8540001 -3.372 -1.7079999 0.16
4.8540001 -3.349 -1.704 0.050000001
4.8790002 -3.3429999 -1.709 0.16
4.8779998 -3.3210001 -1.705 0.050000001
4.9000001 -3.313 -1.709 0.16
4.8969998 -3.289 -1.704 0.050000001
4.9169998 -3.2909999 -1.71 0.15000001
4.9219999 -3.2720001 -1.7079999 0.050000001
4.9369998 -3.26 -1.71 0.17
4.9439998 -3.2420001 -1.7079999 0.18000001
4.9530001 -3.2249999 -1.7079999 0.17
4.9569998 -3.2060001 -1.705 0.16
4.973 -3.194 -1.7079999 0.18000001
5.0019999 -3.2019999 -1.717 0.16
4.993 -3.174 -1.71 0.16
5 -3.1559999 -1.7079999 0.17
5.0219998 -3.148 -1.7130001 0.16
5.0159998 -3.1229999 -1.707 0.17
5.0180001 -3.102 -1.704 0.039999999
5.0599999 -3.1059999 -1.716 0.16
5.0320001 -3.0780001 -1.704 0.050000001
5.0599999 -3.073 -1.711 0.16
5.066 -3.0550001 -1.71 0.050000001
5.0760002 -3.039 -1.71 0.15000001
5.0799999 -3.0209999 -1.7079999 0.19
5.098 -3.0090001 -1.711 0.17
5.086 -2.9809999 -1.7029999 0.039999999
5.112 -2.9849999 -1.711 0.18000001
5.1129999 -2.9649999 -1.7079999 0.050000001
5.1290002 -2.9519999 -1.71 0.17
5.1399999 -2.937 -1.711 0.19
5.1479998 -2.9200001 -1.71 0.16
5.1529999 -2.902 -1.709 0.17
5.158 -2.8829999 -1.707 0.18000001
5.1570001 -2.872 -1.705 0.039999999
5.1760001 -2.8610001 -1.709 0.07
5.1830001 -2.8440001 -1.7079999 0.15000001
5.1960001 -2.8299999 -1.71 0.039999999
5.1939998 -2.8080001 -1.706 0.07
5.2080002 -2.7939999 -1.7079999 0.079999998
5.2290001 -2.7839999 -1.712 0.079999998
5.2249999 -2.7709999 -1.709 0.079999998
5.2329998 -2.7550001 -1.709 0.090000004
5.2470002 -2.7409999 -1.711 0.090000004
5.223 -2.7079999 -1.7 0
5.1669998 -2.6589999 -1.677 0
4.6890001 -2.3970001 -1.5089999 0
4.671 -2.3699999 -1.5 0
4.6669998 -2.358 -1.497 0
4.6760001 -2.3440001 -1.497 0
4.645 -2.3110001 -1.484 0
4.6680002 -2.3039999 -1.49 0
4.677 -2.29 -1.49 0
4.6630001 -2.2650001 -1.483 0
4.6950002 -2.2620001 -1.492 0
4.724 -2.267 -1.5 0
4.7480001 -2.26 -1.506 0
4.8210001 -2.276 -1.529 0
4.8270001 -2.26 -1.528 0
4.8839998 -2.2679999 -1.545 0.07
4.954 -2.2809999 -1.567 0.15000001
4.9419999 -2.257 -1.5599999 0.36000001
4.9790001 -2.2639999 -1.571 0
5.0409999 -2.273 -1.59 0.059999999
5.0890002 -2.2750001 -1.604 0
5.099 -2.2609999 -1.605 0
5.2410002 -2.303 -1.65 0.029999999
5.4330001 -2.3659999 -1.7130001 0.16
5.4349999 -2.3469999 -1.711 0.2
5.4369998 -2.3369999 -1.71 0.18000001
5.4390001 -2.3180001 -1.7079999 0.1
5.4780002 -2.3139999 -1.719 0.17
5.4689999 -2.29 -1.714 0.20999999
5.4770002 -2.273 -1.714 0.1
5.4780002 -2.2539999 -1.712 0.18000001
5.48 -2.2349999 -1.71 0.2
5.4850001 -2.227 -1.711 0.090000004
5.4990001 -2.2119999 -1.7130001 0.17
5.4899998 -2.1889999 -1.7079999 0.050000001
5.513 -2.178 -1.7130001 0.17
5.5079999 -2.155 -1.709 0.2
5.5159998 -2.1389999 -1.71 0.1
5.5279999 -2.1240001 -1.711 0.17
5.5240002 -2.112 -1.709 0.22
5.533 -2.095 -1.71 0.20999999
5.5300002 -2.075 -1.707 0.1
5.5370002 -2.0569999 -1.707 0.19
5.5380001 -2.0380001 -1.705 0.11
5.5679998 -2.029 -1.7130001 0.16
5.5510001 -2.003 -1.705 0.12
5.5570002 -1.9960001 -1.706 0.2
5.573 -1.9809999 -1.709 0.25999999
5.5679998 -1.96 -1.705 0.28
5.5809999 -1.9450001 -1.7079999 0.28
5.5819998 -1.926 -1.706 0.27000001
5.5929999 -1.91 -1.7079999 0.28
5.592 -1.89 -1.705 0.30000001
5.6009998 -1.883 -1.707 0.25999999
5.6100001 -1.867 -1.7079999 0.28
5.6139998 -1.848 -1.7079999 0.28
5.6139998 -1.829 -1.706 0.28
5.6290002 -1.814 -1.709 0.28999999
5.6290002 -1.795 -1.707 0.28
5.6389999 -1.778 -1.7079999 0.28999999
5.6409998 -1.7690001 -1.7079999 0.28999999
5.6420002 -1.75 -1.707 0.30000001
5.632 -1.728 -1.702 0.11
5.6560001 -1.716 -1.7079999 0.17
5.645 -1.693 -1.7029999 0.22
5.6700001 -1.681 -1.709 0.19
5.6630001 -1.66 -1.705 0.12
5.6750002 -1.653 -1.7079999 0.18000001
5.671 -1.633 -1.705 0.11
5.6999998 -1.622 -1.7130001 0.18000001
5.671 -1.595 -1.702 0.23
5.6929998 -1.581 -1.707 0.18000001
5.678 -1.558 -1.701 0.25
5.6919999 -1.543 -1.704 0.1
5.698 -1.535 -1.705 0.18000001
5.6950002 -1.515 -1.7029999 0.11
5.704 -1.498 -1.704 0.20999999
5.7140002 -1.4809999 -1.705 0.11
5.7059999 -1.46 -1.701 0.18000001
5.7189999 -1.4450001 -1.704 0.11
5.7309999 -1.438 -1.707 0.2
5.7280002 -1.418 -1.705 0.11
5.7360001 -1.401 -1.706 0.2
5.7410002 -1.383 -1.706 0.11
5.7639999 -1.369 -1.712 0.17
5.7490001 -1.347 -1.706 0.22
5.763 -1.331 -1.709 0.16
5.7389998 -1.316 -1.701 0.050000001
5.7519999 -1.3 -1.704 0.16
5.7729998 -1.285 -1.709 0.1
5.7729998 -1.267 -1.7079999 0.15000001
5.7529998 -1.243 -1.7 0.050000001
5.783 -1.2309999 -1.7079999 0.18000001
5.77 -1.209 -1.7029999 0.11
5.7789998 -1.201 -1.705 0.18000001
5.7740002 -1.181 -1.7029999 0.2
5.7719998 -1.1619999 -1.701 0.090000004
5.7810001 -1.145 -1.7029999 0.16
5.7849998 -1.127 -1.7029999 0.050000001
5.8010001 -1.1109999 -1.707 0.16
5.7950001 -1.091 -1.704 0.18000001
5.8010001 -1.073 -1.704 0.090000004
5.7979999 -1.064 -1.7029999 0.18000001
5.8039999 -1.046 -1.704 0.19
5.8130002 -1.028 -1.705 0.18000001
5.8010001 -1.008 -1.701 0.039999999
5.8080001 -0.99000001 -1.702 0.16
5.8049998 -0.97100002 -1.7 0.050000001
5.816 -0.954 -1.7029999 0.17
5.8130002 -0.94400001 -1.701 0.11
5.8429999 -0.93000001 -1.71 0.15000001
5.7979999 -0.90399998 -1.6950001 0.050000001
5.816 -0.88800001 -1.7 0.16
5.829 -0.87199998 -1.7029999 0.050000001
5.8330002 -0.85299999 -1.7029999 0.16
5.823 -0.84299999 -1.7 0.050000001
5.8429999 -0.82700002 -1.705 0.16
5.8169999 -0.80500001 -1.696 0.050000001
5.836 -0.78899997 -1.701 0.16
5.8429999 -0.77100003 -1.7029999 0.2
5.8280001 -0.75 -1.697 0.090000004
5.849 -0.73400003 -1.7029999 0.15000001
5.8330002 -0.72299999 -1.698 0.050000001
5.849 -0.70599997 -1.702 0.16
5.8400002 -0.68699998 -1.698 0.19
5.855 -0.67000002 -1.7029999 0.090000004
5.8670001 -0.65200001 -1.705 0.16
5.8439999 -0.63099998 -1.698 0.050000001
5.8590002 -0.61400002 -1.702 0.16
5.8429999 -0.60299999 -1.697 0.050000001
5.8579998 -0.58600003 -1.701 0.16
5.8600001 -0.56800002 -1.701 0.050000001
5.8660002 -0.55000001 -1.702 0.18000001
5.8559999 -0.52999997 -1.698 0.050000001
5.875 -0.51300001 -1.704 0.16
5.8530002 -0.493 -1.697 0.2
5.8600001 -0.484 -1.698 0.1
5.8979998 -0.46900001 -1.71 0.16
5.855 -0.447 -1.696 0.050000001
5.8660002 -0.42899999 -1.699 0.17
5.862 -0.41 -1.697 0.050000001
5.8899999 -0.39399999 -1.705 0.14
5.862 -0.373 -1.697 0.050000001
5.8769999 -0.35600001 -1.701 0.16
5.862 -0.34599999 -1.696 0.2
5.8800001 -0.32800001 -1.701 0.16
5.8639998 -0.30899999 -1.696 0.050000001
5.8779998 -0.29100001 -1.7 0.18000001
5.8740001 -0.27200001 -1.698 0.1
5.895 -0.255 -1.705 0.16
5.8600001 -0.244 -1.694 0.050000001
5.8870001 -0.227 -1.702 0.18000001
5.8860002 -0.208 -1.701 0.11
5.8920002 -0.19 -1.7029999 0.18000001
5.8699999 -0.171 -1.696 0.11
5.888 -0.153 -1.701 0.18000001
5.8860002 -0.134 -1.701 0.11
5.8860002 -0.125 -1.701 0.18000001
5.8850002 -0.106 -1.7 0.11
5.881 -0.088 -1.699 0.18000001
5.8779998 -0.068999998 -1.698 0.2
5.8930001 -0.050999999 -1.7029999 0.1
5.9120002 -0.032000002 -1.7079999 0.17
5.8800001 -0.014 -1.698 0.22
5.8930001 -0.0049999999 -1.7029999 0.1
5.7249999 0.0040000002 -1.71 0.27000001
5.723 0.022 -1.71 0.28
5.7249999 0.039999999 -1.71 0.28
5.717 0.048 -1.7079999 0.28999999
5.7210002 0.066 -1.709 0.25999999
5.7210002 0.083999999 -1.709 0.28
5.724 0.102 -1.71 0.28
5.7179999 0.12 -1.709 0.28
5.7160001 0.138 -1.7079999 0.31
5.723 0.156 -1.71 0.28999999
5.7280002 0.16599999 -1.712 0.25
5.7150002 0.183 -1.7079999 0.31
5.7160001 0.20100001 -1.709 0.28999999
5.7129998 0.219 -1.7079999 0.25
5.711 0.237 -1.707 0.30000001
5.7249999 0.255 -1.712 0.27000001
5.6939998 0.27200001 -1.7029999 0.17
5.7119999 0.28200001 -1.709 0.30000001
5.7129998 0.30000001 -1.709 0.25
5.6950002 0.317 -1.704 0.27000001
5.7129998 0.336 -1.71 0.27000001
5.7259998 0.35499999 -1.714 0.28
5.6859999 0.37 -1.702 0.18000001
5.7059999 0.38999999 -1.709 0.28999999
5.7049999 0.39899999 -1.709 0.25
5.698 0.41600001 -1.707 0.28
5.7030001 0.43399999 -1.709 0.27000001
5.7010002 0.45199999 -1.709 0.27000001
5.6919999 0.47 -1.706 0.28
5.7080002 0.48899999 -1.712 0.23999999
5.6890001 0.505 -1.706 0.20999999
5.7020001 0.51499999 -1.71 0.28999999
5.6929998 0.53299999 -1.7079999 0.25
5.698 0.551 -1.71 0.25999999
5.6760001 0.56699997 -1.704 0.18000001
5.6950002 0.58700001 -1.71 0.28999999
5.6849999 0.60399997 -1.7079999 0.23999999
5.6799998 0.62199998 -1.707 0.28
5.684 0.63099998 -1.709 0.28
5.684 0.64899999 -1.709 0.27000001
5.6960001 0.66900003 -1.714 0.25999999
5.6729999 0.68400002 -1.707 0.22
5.691 0.704 -1.714 0.25999999
5.6719999 0.72000003 -1.7079999 0.25
5.6810002 0.73900002 -1.712 0.23
5.6589999 0.74599999 -1.705 0.18000001
5.6700001 0.76499999 -1.709 0.30000001
5.6599998 0.78200001 -1.707 0.23
5.6739998 0.80199999 -1.712 0.28999999
5.6609998 0.81800002 -1.709 0.27000001
5.6560001 0.83600003 -1.7079999 0.28999999
5.6609998 0.85500002 -1.71 0.25
5.658 0.86299998 -1.71 0.27000001
5.651 0.88 -1.709 0.28999999
5.645 0.898 -1.707 0.27000001
5.6550002 0.917 -1.712 0.25999999
5.6430001 0.93400002 -1.709 0.28999999
5.6430001 0.95200002 -1.71 0.25999999
5.652 0.972 -1.714 0.27000001
5.645 0.98000002 -1.712 0.27000001
5.6430001 0.99800003 -1.712 0.27000001
5.625 1.013 -1.707 0.28999999
5.6350002 1.033 -1.712 0.25
5.6149998 1.0470001 -1.706 0.19
5.6209998 1.067 -1.709 0.28999999
5.612 1.0829999 -1.707 0.25
5.6100001 1.092 -1.707 0.27000001
5.6160002 1.112 -1.71 0.28
5.605 1.128 -1.7079999 0.27000001
5.618 1.149 -1.714 0.25999999
5.598 1.163 -1.7079999 0.30000001
5.5960002 1.181 -1.709 0.28
5.5960002 1.199 -1.71 0.27000001
5.5939999 1.2079999 -1.71 0.25
5.579 1.223 -1.706 0.25
5.598 1.2460001 -1.714 0.31999999
5.579 1.26 -1.709 0.28999999
5.573 1.277 -1.7079999 0.28999999
5.5749998 1.296 -1.71 0.27000001
5.5609999 1.311 -1.707 0.28
5.5669999 1.322 -1.709 0.28
5.573 1.342 -1.7130001 0.28999999
5.5619998 1.357 -1.71 0.31
5.559 1.375 -1.711 0.30000001
5.5510001 1.392 -1.71 0.31
5.5469999 1.409 -1.71 0.28999999
5.539 1.426 -1.709 0.27000001
5.5419998 1.436 -1.71 0.31
5.5339999 1.452 -1.709 0.28999999
5.5110002 1.465 -1.7029999 0.22
5.5209999 1.4859999 -1.7079999 0
5.5 1.499 -1.7029999 0
5.506 1.5190001 -1.706 0.11
5.507 1.538 -1.7079999 0.25
5.4990001 1.545 -1.706 0.30000001
5.494 1.562 -1.706 0.28
5.507 1.585 -1.712 0.30000001
5.4840002 1.597 -1.706 0.31
5.4840002 1.6160001 -1.7079999 0.27000001
5.474 1.631 -1.706 0.25999999
5.4650002 1.647 -1.705 0.31
5.4749999 1.66 -1.709 0.28
5.474 1.678 -1.71 0.27000001
5.4590001 1.693 -1.707 0.25999999
5.4569998 1.711 -1.709 0.31999999
5.461 1.7309999 -1.712 0.28
5.448 1.7460001 -1.709 0.28999999
5.4390001 1.762 -1.7079999 0.30000001
5.4460001 1.773 -1.711 0.30000001
5.4260001 1.785 -1.706 0.27000001
5.4330001 1.807 -1.71 0.28999999
5.4229999 1.823 -1.709 0.28999999
5.4190001 1.84 -1.71 0.28
5.4120002 1.857 -1.709 0.30000001
5.402 1.872 -1.7079999 0.28999999
5.4029999 1.882 -1.709 0.27000001
5.3920002 1.897 -1.707 0.27000001
5.3870001 1.915 -1.7079999 0.28
5.3740001 1.929 -1.706 0.31
5.3639998 1.9450001 -1.704 0.28
5.3850002 1.971 -1.714 0.25999999
5.3629999 1.982 -1.7079999 0.28
5.3509998 1.987 -1.705 0.30000001
5.3530002 2.0079999 -1.7079999 0.27000001
5.3470001 2.0239999 -1.7079999 0.28999999
5.335 2.039 -1.706 0.31
5.329 2.056 -1.706 0.28999999
5.3280001 2.075 -1.7079999 0.25999999
5.323 2.092 -1.709 0.28
5.3109999 2.0969999 -1.706 0.31
5.3039999 2.1140001 -1.706 0.27000001
5.2919998 2.128 -1.704 0.28
5.303 2.152 -1.71 0.28
5.2810001 2.1619999 -1.704 0.27000001
5.277 2.1800001 -1.706 0.28999999
5.2810001 2.201 -1.709 0.28
5.2740002 2.2079999 -1.7079999 0.28
5.2600002 2.221 -1.706 0.25999999
5.256 2.2390001 -1.707 0.27000001
5.2550001 2.2579999 -1.709 0.25999999
5.237 2.27 -1.705 0.27000001
5.2350001 2.289 -1.707 0.27000001
5.2280002 2.3050001 -1.707 0.27000001
5.2210002 2.312 -1.706 0.28999999
5.2189999 2.3310001 -1.707 0.25
5.2080002 2.346 -1.706 0.19
5.2140002 2.368 -1.711 0.27000001
5.2020001 2.382 -1.709 0.23999999
5.1789999 2.391 -1.704 0.19
5.1880002 2.4159999 -1.71 0.25999999
5.1789999 2.421 -1.7079999 0.25
5.177 2.4400001 -1.71 0.25
5.1500001 2.447 -1.7029999 0.17
5.1750002 2.4790001 -1.715 0.28
5.1490002 2.4860001 -1.7079999 0.23999999
5.1420002 2.503 -1.709 0.27000001
5.138 2.5209999 -1.71 0.25999999
5.1240001 2.5239999 -1.706 0.27000001
5.118 2.5409999 -1.707 0.25
5.1279998 2.566 -1.714 0.23999999
5.098 2.5710001 -1.706 0.19
5.105 2.595 -1.711 0.30000001
5.0939999 2.609 -1.71 0.23999999
5.0739999 2.6099999 -1.704 0.2
5.085 2.635 -1.711 0.25999999
5.0809999 2.654 -1.7130001 0.23999999
5.0580001 2.6619999 -1.707 0.27000001
5.0440001 2.675 -1.706 0.2
5.053 2.7 -1.712 0.28
5.0409999 2.714 -1.71 0.20999999
5.0300002 2.7179999 -1.7079999 0.19
5.04 2.744 -1.715 0.28999999
5.0149999 2.7509999 -1.709 0.20999999
5.0009999 2.7639999 -1.707 0.18000001
5.0120001 2.79 -1.714 0.30000001
4.9949999 2.8010001 -1.711 0.25
4.973 2.8099999 -1.706 0.17
4.987 2.8280001 -1.7130001 0.28999999
4.9660001 2.8369999 -1.709 0.25
4.967 2.858 -1.712 0.28
4.9569998 2.8729999 -1.712 0.25999999
4.9439998 2.8859999 -1.71 0.25999999
4.9400001 2.905 -1.712 0.27000001
4.9380002 2.924 -1.715 0.25999999
4.9229999 2.937 -1.7130001 0.27000001
4.9070001 2.938 -1.709 0.25999999
4.9060001 2.9579999 -1.712 0.28
4.8940001 2.971 -1.71 0.27000001
4.8920002 2.9920001 -1.714 0.28999999
4.8769999 3.003 -1.711 0.27000001
4.862 3.0150001 -1.709 0.28999999
4.8579998 3.0339999 -1.711 0.28
4.8610001 3.046 -1.714 0.27000001
4.8509998 3.0610001 -1.714 0.28999999
4.8460002 3.0799999 -1.716 0.23999999
4.8369999 3.095 -1.716 0.28999999
4.8210001 3.1059999 -1.714 0.27000001
4.8080001 3.119 -1.712 0.28999999
4.809 3.131 -1.715 0.28
4.8010001 3.1470001 -1.715 0.28999999
4.783 3.1570001 -1.712 0.28
4.7870002 3.181 -1.7180001 0.25
4.776 3.1949999 -1.717 0.30000001
4.763 3.2079999 -1.716 0.25999999
4.7509999 3.2219999 -1.715 0.28999999
4.7470002 3.23 -1.716 0.28999999
4.7360001 3.244 -1.715 0.28999999
4.73 3.2620001 -1.717 0.27000001
4.7140002 3.273 -1.715 0.28
4.7199998 3.3 -1.721 0.25
4.7090001 3.313 -1.721 0.27000001
4.6929998 3.325 -1.719 0.28999999
4.691 3.3340001 -1.72 0.27000001
4.678 3.3469999 -1.719 0.28999999
4.6669998 3.362 -1.719 0.28999999
4.664 3.382 -1.722 0.27000001
4.6469998 3.392 -1.72 0.31999999
4.6370001 3.4070001 -1.72 0.28999999
4.6259999 3.421 -1.72 0.28999999
4.6110001 3.4219999 -1.716 0.27000001
4.6129999 3.4449999 -1.721 0.28999999
4.598 3.4560001 -1.719 0.28999999
4.5809999 3.4660001 -1.717 0.28
4.579 3.487 -1.72 0.27000001
4.572 3.5050001 -1.722 0.25
4.54 3.503 -1.714 0.19
4.5560002 3.527 -1.722 0.28
4.533 3.5320001 -1.717 0.25
4.5380001 3.559 -1.724 0.23999999
4.506 3.5569999 -1.715 0.2
4.5139999 3.586 -1.723 0.28999999
4.4949999 3.5940001 -1.72 0.25
4.4910002 3.6140001 -1.723 0.28
4.487 3.6229999 -1.724 0.23
4.4650002 3.628 -1.72 0.17
4.46 3.6470001 -1.722 0.28999999
4.4439998 3.6570001 -1.72 0.23999999
4.4310002 3.6700001 -1.72 0.16
4.4330001 3.6949999 -1.725 0.28999999
4.4109998 3.7 -1.721 0.25
4.414 3.7149999 -1.724 0.25999999
4.4070001 3.7320001 -1.726 0.27000001
4.3920002 3.743 -1.725 0.25999999
4.3839998 3.7609999 -1.727 0.27000001
4.3639998 3.767 -1.723 0.2
4.3579998 3.786 -1.726 0.25999999
4.3499999 3.803 -1.728 0.22
4.3410001 3.8080001 -1.726 0.18000001
4.3369999 3.8280001 -1.729 0.28
4.3130002 3.8310001 -1.724 0.23
4.3070002 3.8499999 -1.727 0.2
4.3070002 3.875 -1.732 0.25999999
4.2820001 3.8770001 -1.727 0.23
4.27 3.8900001 -1.727 0.2
4.2740002 3.9059999 -1.7309999 0.27000001
4.256 3.914 -1.729 0.2
4.2509999 3.934 -1.732 0.23999999
4.23 3.9389999 -1.728 0.23999999
4.223 3.9579999 -1.7309999 0.22
4.2080002 3.9690001 -1.729 0.25
4.2020001 3.9879999 -1.732 0.1
4.1890001 3.9879999 -1.729 0.2
4.1680002 3.994 -1.726 0.16
4.1739998 4.0240002 -1.734 0.25999999
4.1560001 4.0320001 -1.7309999 0.23
4.1399999 4.0419998 -1.73 0.2
4.1339998 4.0619998 -1.733 0.25999999
4.1199999 4.073 -1.732 0.23
4.1110001 4.0770001 -1.7309999 0.18000001
4.1079998 4.099 -1.735 0.25999999
4.0929999 4.1110001 -1.735 0.19
4.0749998 4.118 -1.732 0.23999999
4.0700002 4.1389999 -1.7359999 0.19
4.0650001 4.1599998 -1.74 0.12
4.0349998 4.1550002 -1.732 0.20999999
4.0300002 4.1630001 -1.732 0.2
4.0359998 4.1960001 -1.742 0.25999999
4.0009999 4.1849999 -1.7309999 0.19
4.0029998 4.2140002 -1.738 0.23
3.9909999 4.2280002 -1.739 0.23
3.9719999 4.2340002 -1.7359999 0.18000001
3.9660001 4.2550001 -1.74 0.27000001
3.954 4.2550001 -1.737 0.23999999
3.9289999 4.2550001 -1.732 0.19
3.9319999 4.2859998 -1.74 0.25999999
3.9189999 4.2979999 -1.74 0.19
3.9000001 4.3049998 -1.737 0.12
3.8800001 4.3099999 -1.734 0.20999999
3.882 4.3390002 -1.742 0.20999999
3.8699999 4.3390002 -1.739 0.14
3.8510001 4.3460002 -1.737 0.20999999
3.8399999 4.3610001 -1.738 0.18000001
3.8299999 4.3769999 -1.74 0.27000001
3.8169999 4.3889999 -1.74 0.20999999
3.7950001 4.3930001 -1.7359999 0.18000001
3.7880001 4.4120002 -1.739 0.28999999
3.7820001 4.4190001 -1.74 0.25
3.773 4.4369998 -1.742 0.19
3.7590001 4.4489999 -1.742 0.27000001
3.733 4.4460001 -1.7359999 0.23999999
3.73 4.4710002 -1.742 0.25999999
3.7060001 4.4710002 -1.737 0.25999999
3.6960001 4.487 -1.738 0.27000001
3.698 4.5040002 -1.743 0.27000001
3.681 4.5110002 -1.742 0.27000001
3.6619999 4.5170002 -1.739 0.31999999
3.6589999 4.5430002 -1.745 0.25999999
3.6389999 4.5469999 -1.742 0.28999999
3.6270001 4.5619998 -1.743 0.27000001
3.618 4.579 -1.7460001 0.28
3.608 4.5819998 -1.745 0.27000001
3.5940001 4.5929999 -1.745 0.27000001
3.5769999 4.6009998 -1.743 0.27000001
3.5599999 4.6090002 -1.742 0.34
3.556 4.6339998 -1.748 0.31
3.5339999 4.6360002 -1.744 0.27000001
3.5190001 4.6459999 -1.743 0.28999999
3.5150001 4.6560001 -1.745 0.31999999
3.497 4.6620002 -1.743 0.30000001
3.4890001 4.6820002 -1.747 0.30000001
3.474 4.6929998 -1.747 0.31
3.457 4.7010002 -1.7460001 0.28999999
3.4460001 4.717 -1.748 0.31
3.4300001 4.7259998 -1.747 0.28999999
3.424 4.7329998 -1.748 0.31
3.402 4.7340002 -1.744 0.28
3.3959999 4.757 -1.749 0.31
3.378 4.763 -1.747 0.31
3.3670001 4.7800002 -1.749 0.28999999
3.348 4.7849998 -1.747 0.31
3.3380001 4.803 -1.75 0.28999999
3.326 4.802 -1.748 0.31
3.3150001 4.8179998 -1.75 0.28
3.3 4.829 -1.75 0.28
3.2820001 4.835 -1.748 0.28999999
3.267 4.8449998 -1.748 0.31
3.2579999 4.8649998 -1.752 0.31999999
3.2390001 4.8699999 -1.75 0.30000001
3.2349999 4.8800001 -1.752 0.28999999
3.2219999 4.8930001 -1.753 0.30000001
3.1989999 4.8920002 -1.749 0.28
3.1849999 4.9039998 -1.749 0.30000001
3.175 4.9229999 -1.753 0.31
3.155 4.9250002 -1.75 0.28999999
3.135 4.9289999 -1.748 0.23
3.135 4.9450002 -1.752 0.23
3.1229999 4.961 -1.7539999 0.34
3.108 4.9720001 -1.755 0.37
3.095 4.9850001 -1.756 0.47
3.075 4.9889998 -1.7539999 0.52999997
3.063 5.0050001 -1.756 0.57999998
3.0469999 5.013 -1.756 0.56
3.0409999 5.0209999 -1.757 0.55000001
3.02 5.0219998 -1.7539999 0.54000002
3.0090001 5.04 -1.757 0.52999997
2.9890001 5.0430002 -1.7539999 0.5
2.973 5.0500002 -1.7539999 0.49000001
2.9590001 5.0630002 -1.755 0.47999999
2.944 5.0739999 -1.756 0.43000001
2.938 5.0819998 -1.757 0.41999999
2.9230001 5.0929999 -1.757 0.43000001
2.9030001 5.0949998 -1.755 0.58999997
2.8870001 5.1040001 -1.755 0.38
2.8629999 5.0999999 -1.75 0.5
2.8440001 5.1040001 -1.748 0.46000001
2.8340001 5.1230001 -1.752 0.41
2.822 5.1209998 -1.749 0.27000001
2.809 5.1350002 -1.751 0.31999999
2.789 5.1370001 -1.749 0.34
2.77 5.1399999 -1.747 0.33000001
2.7579999 5.1560001 -1.749 0.34999999
2.7379999 5.158 -1.747 0.36000001
2.714 5.1529999 -1.742 0.33000001
2.6960001 5.1560001 -1.74 0.33000001
2.6849999 5.1560001 -1.738 0.33000001
2.6659999 5.1589999 -1.737 0.33000001
2.642 5.152 -1.7309999 0.33000001
2.6300001 5.1690001 -1.734 0.34999999
2.6010001 5.152 -1.725 0.31
2.586 5.1630001 -1.726 0.38
2.5650001 5.1609998 -1.723 0.31
2.5580001 5.1669998 -1.723 0.34999999
2.5339999 5.1589999 -1.7180001 0.34
2.517 5.1659999 -1.717 0.37
2.4960001 5.165 -1.714 0.31999999
2.477 5.1659999 -1.712 0.38
2.457 5.1669998 -1.709 0.30000001
2.437 5.1659999 -1.706 0.31999999
2.4289999 5.1700001 -1.706 0.34999999
2.4070001 5.165 -1.702 0.30000001
2.391 5.1739998 -1.7029999 0.37
2.3710001 5.1729999 -1.7 0.33000001
2.3510001 5.1719999 -1.696 0.28999999
2.3310001 5.1729999 -1.694 0.36000001
2.316 5.1820002 -1.6950001 0.31999999
2.306 5.1820002 -1.693 0.34
2.2850001 5.178 -1.6900001 0.31999999
2.2639999 5.1729999 -1.6849999 0.34
2.2460001 5.177 -1.684 0.34
2.2249999 5.1739998 -1.681 0.33000001
2.21 5.184 -1.682 0.34
2.1900001 5.1820002 -1.679 0.31999999
2.178 5.177 -1.676 0.28999999
2.1600001 5.1799998 -1.675 0.34999999
2.141 5.1799998 -1.6720001 0.34
2.122 5.1799998 -1.67 0.31999999
2.1040001 5.1830001 -1.668 0.34999999
2.0869999 5.1880002 -1.668 0.34
2.0669999 5.1849999 -1.665 0.31999999
2.056 5.1810002 -1.6619999 0.31999999
2.0380001 5.1830001 -1.661 0.31
2.0179999 5.1799998 -1.6569999 0.34
1.999 5.1789999 -1.655 0.30000001
1.9809999 5.1799998 -1.653 0.37
1.96 5.1739998 -1.649 0.30000001
1.947 5.1890001 -1.652 0.36000001
1.9349999 5.1810002 -1.648 0.34
1.918 5.1869998 -1.648 0.33000001
1.901 5.1900001 -1.647 0.31
1.881 5.1869998 -1.6440001 0.34
1.867 5.1999998 -1.647 0.37
1.841 5.1789999 -1.637 0.25999999
1.8279999 5.1919999 -1.64 0.34999999
1.818 5.1890001 -1.638 0.34
1.8 5.191 -1.637 0.31999999
1.7819999 5.1919999 -1.635 0.31999999
1.765 5.1950002 -1.6339999 0.36000001
1.7460001 5.1939998 -1.632 0.34
1.727 5.1900001 -1.6289999 0.30000001
1.712 5.2010002 -1.631 0.36000001
1.7029999 5.2020001 -1.63 0.31
1.687 5.2049999 -1.6289999 0.34
1.673 5.2179999 -1.632 0.34
1.649 5.2010002 -1.625 0.33000001
1.633 5.2059999 -1.625 0.38999999
1.615 5.2059999 -1.623 0.31
1.602 5.2220001 -1.626 0.36000001
1.585 5.2249999 -1.626 0.34
1.577 5.23 -1.626 0.28999999
1.561 5.2360001 -1.627 0.34999999
1.5420001 5.2319999 -1.624 0.31999999
1.527 5.2420001 -1.626 0.34999999
1.5089999 5.2420001 -1.624 0.34
1.4960001 5.2589998 -1.628 0.33000001
1.49 5.2670002 -1.63 0.31999999
1.464 5.2389998 -1.619 0.28999999
1.452 5.2620001 -1.625 0.36000001
1.437 5.27 -1.626 0.34
1.415 5.256 -1.62 0.30000001
1.399 5.2600002 -1.62 0.31
1.383 5.2670002 -1.6210001 0.34
1.363 5.2600002 -1.617 0.38
1.357 5.2709999 -1.62 0.31999999
1.344 5.2859998 -1.624 0.38
1.325 5.2810001 -1.6210001 0.31999999
1.306 5.2779999 -1.618 0.37
1.295 5.303 -1.625 0.38
1.274 5.29 -1.62 0.34999999
1.256 5.2880001 -1.618 0.34
1.249 5.2940001 -1.619 0.41
1.229 5.2870002 -1.615 0.31999999
1.214 5.2979999 -1.618 0.36000001
1.198 5.302 -1.618 0.43000001
1.175 5.2800002 -1.609 0.37
1.16 5.2909999 -1.612 0.37
1.145 5.2979999 -1.613 0.38
1.135 5.2940001 -1.6109999 0.41
1.1210001 5.3109999 -1.615 0.33000001
1.105 5.3179998 -1.617 0.38
1.085 5.3070002 -1.612 0.34999999
1.0700001 5.3140001 -1.613 0.37
1.0549999 5.3260002 -1.6160001 0.34
1.0369999 5.3239999 -1.614 0.25
1.026 5.3130002 -1.61 0.38999999
1.012 5.3330002 -1.615 0.28
0.991 5.3099999 -1.607 0.50999999
0.97299999 5.3049998 -1.604 0.33000001
0.954 5.2950001 -1.6 0.52999997
0.93900001 5.3070002 -1.603 0.34
0.92199999 5.3099999 -1.603 0.41999999
0.91399997 5.316 -1.604 0.41
0.89600003 5.3109999 -1.602 0.33000001
0.88200003 5.329 -1.607 0.31999999
0.866 5.335 -1.608 0.43000001
0.84899998 5.3400002 -1.609 0.28
0.83200002 5.3410001 -1.608 0.46000001
0.81599998 5.3449998 -1.609 0.43000001
0.80699998 5.3429999 -1.608 0.31999999
0.79100001 5.3509998 -1.609 0.43000001
0.77499998 5.3569999 -1.6109999 0.36000001
0.75199997 5.3200002 -1.598 0.31
0.73699999 5.335 -1.602 0.5
0.72299999 5.3579998 -1.609 0.30000001
0.704 5.3400002 -1.602 0.43000001
0.68900001 5.355 -1.6059999 0.36000001
0.67699999 5.3340001 -1.599 0.44999999
0.66000003 5.3340001 -1.598 0.44
0.64399999 5.342 -1.6 0.31
0.62699997 5.342 -1.6 0.47999999
0.611 5.3449998 -1.6 0.28999999
0.59299999 5.336 -1.597 0.47999999
0.58399999 5.3309999 -1.595 0.31
0.565 5.3119998 -1.5880001 0.46000001
0.54900002 5.323 -1.591 0.36000001
0.53299999 5.3330002 -1.594 0.38
0.51700002 5.342 -1.596 0.41
0.498 5.3270001 -1.59 0.38
0.47600001 5.2729998 -1.573 0.40000001
0.46700001 5.2610002 -1.569 0.41
0.45899999 5.3590002 -1.6 0.27000001
0.44100001 5.3429999 -1.594 0.56
0.42399999 5.3410001 -1.5930001 0.34
0.405 5.3119998 -1.5829999 0.44999999
0.38999999 5.336 -1.59 0.31999999
0.37200001 5.3249998 -1.587 0.43000001
0.35600001 5.3400002 -1.591 0.34
0.347 5.3309999 -1.5880001 0.44
0.33000001 5.3260002 -1.586 0.44
0.31400001 5.3439999 -1.592 0.38999999
0.29800001 5.3569999 -1.595 0.34
0.28099999 5.3540001 -1.594 0.41
0.26300001 5.322 -1.584 0.41
0.248 5.3559999 -1.594 0.34999999
0.23999999 5.3629999 -1.597 0.43000001
0.222 5.3590002 -1.595 0.37
0.206 5.3610001 -1.595 0.38
0.189 5.3639998 -1.596 0.34999999
0.17200001 5.3660002 -1.597 0.38999999
0.155 5.3460002 -1.59 0.41
0.138 5.3559999 -1.5930001 0.33000001
0.12899999 5.3439999 -1.589 0.44999999
0.113 5.3600001 -1.594 0.31
0.096000001 5.362 -1.595 0.44
0.079000004 5.3660002 -1.596 0.33000001
0.063000001 5.3720002 -1.598 0.44
0.046 5.3610001 -1.594 0.41
0.028999999 5.3740001 -1.598 0.36000001
0.021 5.3839998 -1.601 0.34999999
0.0040000002 5.3779998 -1.6 0.43000001
-0.013 5.3899999 -1.603 0.30000001
-0.029999999 5.382 -1.601 0.44
-0.046999998 5.369 -1.597 0.44999999
-0.064000003 5.3909998 -1.604 0.28
-0.081 5.3829999 -1.601 0.51999998
-0.089000002 5.3759999 -1.599 0.41
-0.106 5.368 -1.597 0.38
-0.123 5.3899999 -1.604 0.30000001
-0.14 5.3899999 -1.604 0.5
-0.15700001 5.395 -1.6059999 0.34
-0.175 5.4000001 -1.608 0.38999999
-0.191 5.3940001 -1.6059999 0.33000001
-0.208 5.395 -1.6059999 0.36000001
-0.21699999 5.3889999 -1.604 0.34999999
-0.234 5.3889999 -1.604 0.41
-0.25099999 5.3920002 -1.6059999 0.23
-0.26699999 5.3769999 -1.601 0.5
-0.285 5.3920002 -1.6059999 0.34999999
-0.301 5.3850002 -1.604 0.46000001
-0.31900001 5.3979998 -1.609 0.36000001
-0.32600001 5.368 -1.6 0.44999999
-0.34299999 5.3730001 -1.601 0.38
-0.36000001 5.382 -1.604 0.44
-0.377 5.3709998 -1.601 0.36000001
-0.39300001 5.3579998 -1.598 0.46000001
-0.41100001 5.3740001 -1.603 0.31
-0.42699999 5.3600001 -1.599 0.50999999
-0.43700001 5.3870001 -1.608 0.30000001
-0.454 5.382 -1.607 0.47999999
-0.47099999 5.388 -1.609 0.38999999
-0.48899999 5.3909998 -1.6109999 0.40000001
-0.50599998 5.3969998 -1.613 0.36000001
-0.523 5.3969998 -1.614 0.38999999
-0.54000002 5.3930001 -1.613 0.43000001
-0.55000001 5.402 -1.6160001 0.44999999
-0.56599998 5.3959999 -1.615 0.40000001
-0.58399999 5.4000001 -1.617 0.34999999
-0.60000002 5.3959999 -1.6160001 0.34
-0.61699998 5.395 -1.6160001 0.43000001
-0.63499999 5.395 -1.617 0.41
-0.65100002 5.3889999 -1.615 0.34
-0.66000003 5.3930001 -1.617 0.38999999
-0.67699999 5.3930001 -1.618 0.25
-0.69199997 5.3759999 -1.613 0.41999999
-0.70999998 5.3790002 -1.615 0.41
-0.72500002 5.3639998 -1.6109999 0.38999999
-0.74299997 5.3649998 -1.612 0.43000001
-0.76099998 5.3720002 -1.615 0.34
-0.76899999 5.3730001 -1.615 0.36000001
-0.78500003 5.3590002 -1.612 0.43000001
-0.80299997 5.3639998 -1.614 0.41
-0.81699997 5.3470001 -1.609 0.43000001
-0.838 5.369 -1.617 0.34
-0.85299999 5.355 -1.614 0.41
-0.87 5.3520002 -1.614 0.41
-0.875 5.3319998 -1.608 0.38
-0.88099998 5.263 -1.586 0.41
-0.89899999 5.2680001 -1.589 0.41
-0.91900003 5.2859998 -1.595 0.43000001
-0.94199997 5.3200002 -1.608 0.23
-0.96200001 5.3340001 -1.613 0.54000002
-0.97799999 5.3309999 -1.613 0.36000001
-0.99800003 5.3449998 -1.618 0.28
-1.007 5.3449998 -1.619 0.5
-1.018 5.3099999 -1.609 0.38999999
-1.0369999 5.3179998 -1.612 0.36000001
-1.057 5.3340001 -1.618 0.37
-1.071 5.3150001 -1.614 0.38
-1.09 5.323 -1.617 0.38
-1.11 5.3379998 -1.623 0.36000001
-1.12 5.3439999 -1.626 0.34
-1.136 5.335 -1.624 0.43000001
-1.154 5.3369999 -1.626 0.38
-1.173 5.3460002 -1.63 0.38
-1.191 5.348 -1.632 0.40000001
-1.21 5.3520002 -1.6339999 0.36000001
-1.225 5.3410001 -1.632 0.41
-1.2309999 5.3280001 -1.628 0.36000001
-1.244 5.3070002 -1.623 0.38999999
-1.273 5.3590002 -1.641 0.27000001
-1.274 5.2880001 -1.619 0.52999997
-1.286 5.2649999 -1.613 0.38
-1.311 5.2930002 -1.623 0.36000001
-1.321 5.263 -1.615 0.38
-1.34 5.303 -1.6289999 0.41999999
-1.365 5.3319998 -1.64 0.40000001
-1.381 5.3280001 -1.64 0.33000001
-1.398 5.322 -1.6390001 0.34999999
-1.416 5.3249998 -1.642 0.25999999
-1.424 5.2870002 -1.631 0.47
-1.447 5.3060002 -1.6390001 0.36000001
-1.456 5.3060002 -1.6390001 0.44999999
-1.473 5.3010001 -1.6390001 0.30000001
-1.476 5.2490001 -1.623 0.49000001
-1.5140001 5.3200002 -1.648 0.36000001
-1.53 5.3130002 -1.648 0.36000001
-1.546 5.3060002 -1.647 0.36000001
-1.564 5.3049998 -1.648 0.27000001
-1.5599999 5.2620001 -1.635 0.38999999
-1.566 5.2210002 -1.623 0.44
-1.5880001 5.2340002 -1.6289999 0.36000001
-1.6 5.2129998 -1.623 0.37
-1.635 5.2719998 -1.645 0.44
-1.638 5.2210002 -1.6289999 0.33000001
-1.659 5.23 -1.6339999 0.43000001
-1.676 5.257 -1.6440001 0.40000001
-1.696 5.2620001 -1.648 0.27000001
-1.689 5.184 -1.623 0.37
-1.706 5.1810002 -1.624 0.33000001
-1.737 5.2189999 -1.6390001 0.31999999
-1.749 5.2010002 -1.6339999 0.34999999
-1.768 5.2020001 -1.637 0.33000001
-1.7920001 5.2199998 -1.645 0.36000001
-1.771 5.131 -1.615 0.31
-1.806 5.1810002 -1.6339999 0.31999999
-1.789 5.0799999 -1.602 0.36000001
-1.821 5.1209998 -1.618 0.28999999
-1.864 5.191 -1.643 0.36000001
-1.8890001 5.2080002 -1.651 0.38
-1.904 5.1989999 -1.65 0.34999999
-1.913 5.1989999 -1.651 0.28999999
-1.931 5.197 -1.653 0.31999999
-1.948 5.1929998 -1.653 0.52999997
-1.969 5.1989999 -1.6569999 0.31
-1.979 5.1750002 -1.651 0.31999999
-2.0020001 5.1880002 -1.658 0.33000001
-2.0209999 5.1869998 -1.66 0.46000001
-2.0350001 5.1999998 -1.665 0.31
-2.05 5.1900001 -1.664 0.34
-2.0669999 5.1849999 -1.665 0.36000001
-2.0880001 5.191 -1.669 0.28999999
-2.099 5.1719999 -1.665 0.37
-2.1289999 5.1989999 -1.676 0.41
-2.1500001 5.2030001 -1.6799999 0.25999999
-2.1570001 5.1960001 -1.679 0.25999999
-2.174 5.1929998 -1.6799999 0.31
-2.1730001 5.1440001 -1.665 0.44999999
-2.2079999 5.1830001 -1.681 0.25
-2.2190001 5.1630001 -1.677 0.43000001
-2.2449999 5.1789999 -1.6849999 0.37
-2.2579999 5.1630001 -1.682 0.41
-2.2679999 5.165 -1.684 0.37
-2.293 5.177 -1.6900001 0.36000001
-2.312 5.177 -1.693 0.36000001
-2.332 5.177 -1.6950001 0.44999999
-2.348 5.1690001 -1.6950001 0.36000001
-2.3670001 5.1690001 -1.698 0.38999999
-2.388 5.1719999 -1.701 0.41
-2.3989999 5.152 -1.697 0.36000001
-2.405 5.145 -1.696 0.36000001
-2.4360001 5.1680002 -1.707 0.41
-2.4590001 5.1739998 -1.712 0.46000001
-2.4779999 5.1739998 -1.714 0.34
-2.4979999 5.1729999 -1.717 0.31999999
-2.507 5.151 -1.712 0.36000001
-2.5380001 5.1739998 -1.723 0.36000001
-2.54 5.1560001 -1.7180001 0.38
-2.556 5.1479998 -1.7180001 0.38999999
-2.5880001 5.1729999 -1.729 0.36000001
-2.6059999 5.1680002 -1.7309999 0.33000001
-2.6170001 5.1479998 -1.726 0.47
-2.638 5.1500001 -1.73 0.38
-2.665 5.164 -1.738 0.36000001
-2.674 5.1609998 -1.738 0.46000001
-2.7030001 5.1760001 -1.747 0.31999999
-2.7249999 5.1799998 -1.751 0.31
-2.7479999 5.1830001 -1.756 0.41
-2.773 5.191 -1.762 0.2
-2.7869999 5.1789999 -1.76 0.5
-2.8039999 5.1719999 -1.761 0.44999999
-2.812 5.1659999 -1.76 0.28999999
-2.8310001 5.1620002 -1.762 0.46000001
-2.8540001 5.1659999 -1.767 0.34999999
-2.8740001 5.164 -1.77 0.38
-2.8900001 5.1550002 -1.77 0.37
-2.9100001 5.1529999 -1.772 0.43000001
-2.8989999 5.0949998 -1.7539999 0.38999999
-2.915 5.1040001 -1.7589999 0.41
-2.951 5.131 -1.773 0.20999999
-2.9760001 5.1370001 -1.778 0.51999998
-3.0039999 5.1490002 -1.786 0.43000001
-3.0339999 5.1620002 -1.795 0.41
-3.0510001 5.1539998 -1.795 0.31999999
-3.0680001 5.1459999 -1.796 0.33000001
-3.0829999 5.1339998 -1.795 0.28
-3.0899999 5.1269999 -1.794 0.31999999
-3.105 5.1160002 -1.793 0.28999999
-3.1210001 5.1059999 -1.793 0.37
-3.142 5.1040001 -1.796 0.36000001
-3.158 5.0939999 -1.796 0.41
-3.1789999 5.092 -1.799 0.41999999
-3.1949999 5.0819998 -1.799 0.40000001
-3.2090001 5.0869999 -1.803 0.40000001
-3.2190001 5.0669999 -1.799 0.49000001
-3.237 5.0599999 -1.801 0.31
-3.247 5.0419998 -1.798 0.51999998
-3.2720001 5.0450001 -1.802 0.31999999
-3.279 5.0219998 -1.798 0.54000002
-3.3 5.0190001 -1.801 0.34
-3.3080001 5.0139999 -1.801 0.44
-3.3199999 4.9990001 -1.799 0.37
-3.3380001 4.9920001 -1.8 0.55000001
-3.3629999 4.9949999 -1.8049999 0.40000001
-3.3670001 4.967 -1.799 0.55000001
-3.385 4.96 -1.8 0.43000001
-3.4130001 4.967 -1.807 0.41999999
-3.4100001 4.9460001 -1.801 0.30000001
-3.4330001 4.9460001 -1.8049999 0.31999999
-3.451 4.9400001 -1.807 0.30000001
-3.4530001 4.9089999 -1.799 0.28
-3.4779999 4.9120002 -1.804 0.31
-3.4990001 4.9089999 -1.807 0.30000001
-3.5109999 4.8930001 -1.8049999 0.30000001
-3.5250001 4.8800001 -1.8049999 0.31
-3.536 4.8790002 -1.807 0.31
-3.5539999 4.8709998 -1.808 0.30000001
-3.5680001 4.8590002 -1.807 0.30000001
-3.592 4.8600001 -1.812 0.28999999
-3.592 4.8270001 -1.804 0.30000001
-3.6110001 4.822 -1.806 0.30000001
-3.622 4.8210001 -1.808 0.28
-3.635 4.8060002 -1.807 0.28999999
-3.6559999 4.802 -1.8099999 0.31999999
-3.6760001 4.7969999 -1.812 0.28999999
-3.671 4.7600002 -1.802 0.28999999
-3.6949999 4.7600002 -1.807 0.31999999
-3.7179999 4.7589998 -1.811 0.28999999
-3.717 4.7410002 -1.806 0.30000001
-3.7349999 4.7340002 -1.808 0.31
-3.7509999 4.724 -1.809 0.28999999
-3.7609999 4.7059999 -1.806 0.28999999
-3.779 4.6989999 -1.808 0.30000001
-3.799 4.6929998 -1.8099999 0.30000001
-3.7980001 4.6609998 -1.802 0.28999999
-3.8199999 4.658 -1.806 0.28999999
-3.832 4.658 -1.809 0.30000001
-3.8329999 4.6300001 -1.802 0.28
-3.8529999 4.6240001 -1.804 0.31999999
-3.8670001 4.612 -1.804 0.30000001
-3.8759999 4.592 -1.801 0.28999999
-3.8959999 4.5869999 -1.804 0.28999999
-3.9089999 4.573 -1.804 0.28999999
-3.911 4.5619998 -1.801 0.27000001
-3.931 4.5549998 -1.804 0.27000001
-3.9549999 4.5539999 -1.809 0.25999999
-3.9579999 4.5289998 -1.803 0.27000001
-3.9719999 4.5159998 -1.803 0.28
-3.99 4.5079999 -1.8049999 0.28999999
-3.9990001 4.4899998 -1.802 0.25999999
-4.0029998 4.4790001 -1.801 0.28999999
-4.02 4.4710002 -1.802 0.28999999
-4.04 4.4640002 -1.8049999 0.25
-4.0370002 4.4330001 -1.7970001 0.2
-4.073 4.4439998 -1.807 0.28999999
