# .PCD v0.7 - Point Cloud Data file format
VERSION 0.7
FIELDS x y z intensity
SIZE 4 4 4 4
TYPE F F F F
COUNT 1 1 1 1
WIDTH 1424
HEIGHT 1
VIEWPOINT 0 0 0 1 0 0 0
POINTS 1424
DATA ascii
-12.941 23.848 0.48100001 0.2
-13.021 23.816 0.48199999 0.40000001
-13.393 24.313999 0.48800001 0.11
-13.555 24.517 0.49000001 0
-13.363 23.992001 0.48500001 0.1
-13.373 23.833 0.48300001 0.27000001
-13.492 23.868999 0.484 0.28
-13.476 23.667 0.48199999 0.22
-13.558 23.638 0.48300001 0.23
-13.55 23.454 0.48100001 0
-15.145 26.114 0.51200002 0
-14.192 24.298 0.49200001 0.16
-14.229 24.186001 0.491 0.19
-14.305 24.143 0.491 0
-14.385 24.104 0.491 0.079999998
-15.566 25.893999 0.51300001 0.16
-15.584 25.74 0.51099998 0.17
-15.559 25.608 0.50999999 0.13
-15.68 25.625999 0.51099998 0.16
-14.411 23.389999 0.48500001 0.17
-14.479 23.336 0.48500001 0.30000001
-14.516 23.233 0.484 0.15000001
-15.476 24.594 0.50099999 0.34
-15.64 24.681999 0.50300002 0
-15.875 24.965 0.50599998 0
-15.974 24.948 0.50700003 0
-18.181 28.191999 0.546 0
-14.179 21.847 0.47 0
-14.219 21.759001 0.47 0
-17.017 25.853001 0.51999998 0.090000004
-14.244 21.500999 0.46799999 0
-16.701 24.945999 0.51099998 0
-16.830999 24.969999 0.51200002 0
-17.990999 26.507999 0.53100002 0.13
-14.699 21.52 0.47099999 0.16
-14.754 21.455 0.47 0.20999999
-14.784 21.355 0.47 0
-14.829 21.205999 0.46900001 0
-18.964001 26.927 0.54000002 0
-19.191999 27.069 0.54299998 0
-19.319 27.066999 0.54299998 0.079999998
-15.746 21.924 0.47999999 0.16
-15.762 21.802 0.479 0.25
-15.729 21.684999 0.47799999 0.25
-15.802 21.641001 0.47799999 0.33000001
-15.834 21.542999 0.477 0.27000001
-15.902 21.493999 0.477 0.2
-16.08 21.591 0.479 0.46000001
-16.201 21.612 0.47999999 0.23
-16.252001 21.539 0.47999999 0.25999999
-16.274 21.497 0.47999999 0.31
-16.362 21.473 0.47999999 0.25
-16.417999 21.407 0.47999999 0.16
-16.502001 21.375999 0.47999999 0.47
-17.789 22.743999 0.49900001 0.47
-17.858999 22.76 0.5 0.18000001
-17.882999 22.643999 0.49900001 0
-18.011999 22.66 0.5 0
-18.082001 22.601999 0.5 0.050000001
-18.105 22.486 0.49900001 0.13
-17.497 21.593 0.48800001 0.18000001
-17.702 21.705999 0.49000001 0.17
-17.666 21.593 0.48899999 0.19
-15.498 18.827 0.454 0.15000001
-15.484 18.690001 0.45300001 0.98000002
-15.448 18.528 0.45100001 0.99000001
-15.461 18.426001 0.44999999 0.99000001
-15.457 18.304001 0.449 0.99000001
-15.432 18.159 0.44800001 0.99000001
-15.42 18.087999 0.447 0.99000001
-15.411 17.962 0.44600001 0.99000001
-15.406 17.841999 0.44499999 0.99000001
-15.409 17.733 0.44499999 0.99000001
-15.387 17.596001 0.44299999 0.99000001
-15.4 17.5 0.44299999 0.99000001
-15.392 17.381001 0.442 0.99000001
-15.36 17.290001 0.44100001 0.99000001
-15.358 17.179001 0.44 0.99000001
-15.333 17.042999 0.43900001 0.99000001
-15.357 16.962 0.43799999 0.99000001
-15.336 16.832001 0.43700001 0.99000001
-15.349 16.740999 0.43700001 0.99000001
-15.337 16.622999 0.43599999 0.99000001
-15.301 16.533001 0.435 0.99000001
-15.307 16.434999 0.43399999 0.99000001
-15.3 16.323999 0.433 0.99000001
-15.301 16.223 0.433 0.99000001
-15.286 16.106001 0.43200001 0.99000001
-15.309 16.028999 0.43099999 0.99000001
-15.237 15.904 0.43000001 0.99000001
-15.261 15.828 0.42899999 0.99000001
-15.245 15.713 0.428 0.99000001
-15.249 15.619 0.428 0.99000001
-15.388 15.662 0.42899999 0.74000001
-15.312 15.488 0.42699999 0.28999999
-20.790001 20.884001 0.505 0
-20.386 20.415001 0.49900001 0.059999999
-20.216999 19.993 0.495 0.28999999
-16.341999 16.066 0.43900001 0.1
-20.514 20.033001 0.49700001 0.11
-20.677 20.065001 0.498 0.13
-20.789 20.048 0.49900001 0.16
-21.138 20.256001 0.50300002 0.20999999
-21.048 20.107 0.50099999 0.23999999
-21.136 20.063999 0.50199997 0
-22.552999 21.271999 0.52100003 0
-27.740999 25.993999 0.59100002 0
-27.947001 26.021999 0.59299999 0
-27.849001 25.768999 0.59100002 0
-23.862 22.014999 0.53500003 0
-24.039 22.038 0.537 0
-24.056 21.916 0.53600001 0
-24.011 21.737 0.53500003 0.090000004
-23.306999 20.968 0.52399999 0.18000001
-23.423 20.940001 0.52499998 0.31
-23.332001 20.726999 0.523 0.25
-23.056 20.417 0.51800001 0.11
-23.111 20.337 0.51800001 0.15000001
-23.396999 20.459 0.52100003 0.090000004
-23.534 20.448 0.52200001 0.13
-23.548 20.330999 0.52200001 0
-18.615 15.977 0.45500001 0
-28.452999 24.247999 0.58499998 0
-18.67 15.872 0.45500001 0
-29.337999 24.764 0.59500003 0
-31.413 26.344999 0.62099999 0
-31.812 26.34 0.625 0
-31.291 25.743999 0.61699998 0
-30.931999 25.285999 0.611 0
-30.855 25.143 0.60900003 0
-31.007999 25.106001 0.61000001 0
-30.917 24.872 0.60799998 0
-31.222 24.955999 0.611 0
-31.068001 24.674 0.60799998 0
-31.219 24.634001 0.60900003 0
-31.451 24.657 0.611 0
-33.404999 26.101999 0.63599998 0
-33.508999 26.014 0.63599998 0
-32.317001 24.927999 0.62 0.029999999
-32.367001 24.804001 0.61900002 0
-32.344002 24.625999 0.61799997 0
-32.504002 24.587 0.61900002 0
-32.264999 24.327 0.616 0
-32.282001 24.181 0.61500001 0
-32.327 24.056999 0.61400002 0
-32.398998 23.952999 0.61400002 0
-32.32 23.737 0.61199999 0
-32.379002 23.625 0.61199999 0
-32.298 23.410999 0.61000001 0
-32.366001 23.382 0.611 0
-34.535999 24.783001 0.63700002 0
-29.704 21.039 0.57499999 0.090000004
-29.650999 20.862 0.574 0
-29.780001 20.813 0.574 0.07
-29.858 20.728001 0.57499999 0.079999998
-29.896 20.684999 0.57499999 0
-29.999001 20.617001 0.57499999 0
-30.632999 20.910999 0.58200002 0
-29.531 20.024 0.56800002 0
-31.448 21.177999 0.58999997 0
-32.707001 21.875999 0.60500002 0.059999999
-30.405001 20.201 0.57599998 0
-30.830999 20.413 0.58099997 0
-29.684 19.521 0.56599998 0
-29.695 19.395 0.56599998 0
-29.764999 19.306999 0.56599998 0
-29.714001 19.142 0.56400001 0
-29.827999 19.083 0.565 0
-29.910999 19.004999 0.565 0
-31.049999 19.659 0.579 0
-31.173 19.599001 0.579 0
-30.75 19.200001 0.574 0
-31.469999 19.511 0.58099997 0
-31.622 19.468 0.58200002 0
-31.750999 19.41 0.583 0
-31.372 19.044001 0.57800001 0
-31.322001 18.945999 0.57700002 0
-31.445999 18.886999 0.57800001 0
-31.153 18.577999 0.574 0
-31.148001 18.441999 0.57300001 0
-31.337999 18.422001 0.57499999 0
-31.417 18.336 0.57499999 0
-32.148998 18.628 0.583 0
-32.089001 18.525 0.58200002 0
-31.898001 18.282 0.579 0.059999999
-31.809999 18.099001 0.57700002 0
-31.739 17.927 0.57599998 0
-31.445999 17.632 0.57200003 0
-31.216999 17.375 0.56800002 0
-31.361 17.391001 0.56999999 0
-31.221001 17.184999 0.56699997 0
-32.417999 17.709999 0.57999998 0.090000004
-32.341 17.537001 0.579 0
-32.409 17.441999 0.579 0
-36.490002 19.488001 0.625 0
-34.023998 18.035 0.59600002 0
-35.973 18.995001 0.61799997 0
-36.095001 18.914 0.61900002 0
-36.234001 18.841999 0.62 0
-36.351002 18.757999 0.62099999 0
-38.451 19.687 0.64399999 0
-37.021 18.809999 0.62699997 0
-36.859001 18.582001 0.62400001 0
-36.493 18.326 0.62 0
-36.682999 18.277 0.62099999 0
-36.648998 18.117001 0.62 0
-36.596001 17.948 0.61900002 0
-36.796001 17.903 0.62099999 0
-37.201 17.955 0.625 0
-36.650002 17.548 0.61799997 0
-36.618999 17.462999 0.61699998 0
-36.731998 17.375 0.61799997 0
-37.123001 17.417 0.62199998 0
-37.091 17.26 0.62099999 0
-36.958 17.056999 0.61900002 0
-37.164001 17.011 0.62 0
-37.151001 16.864 0.61900002 0
-36.938999 16.698 0.61699998 0
-37.324001 16.731001 0.62099999 0
-37.287998 16.573999 0.62 0
-37.062 16.334999 0.616 0
-37.311001 16.305 0.61900002 0
-37.437 16.219999 0.61900002 0
-42.846001 18.479 0.67900002 0
-46.446999 19.857 0.71799999 0
-46.377998 19.656 0.71600002 0
-47.734001 20.052999 0.73000002 0
-46.057999 19.18 0.71100003 0
-45.596001 18.82 0.70599997 0
-45.644001 18.672001 0.70599997 0
-45.777 18.643 0.70700002 0
-45.297001 18.282 0.70099998 0
-45.158001 18.061001 0.699 0
-45.285 17.947001 0.699 0
-42.765999 16.795 0.671 0
-42.623001 16.584 0.66900003 0
-42.862999 16.523001 0.671 0.07
-42.359001 16.1 0.66500002 0.14
-42.318001 15.933 0.66399997 0.99000001
-42.298 15.774 0.66299999 0.99000001
-42.312 15.628 0.66299999 0.99000001
-42.331001 15.484 0.66299999 0.99000001
-42.312 15.326 0.662 0.99000001
-42.298 15.246 0.662 0.99000001
-42.319 15.104 0.66100001 0.99000001
-42.316002 14.953 0.66100001 0.99000001
-42.298 14.797 0.66000003 0.99000001
-42.513 14.723 0.662 0.74000001
-42.214001 14.471 0.65799999 0
-42.341 14.366 0.65899998 0
-47.535999 16.042 0.71399999 0
-44.481998 14.858 0.68099999 0
-44.139 14.589 0.67699999 0
-44.263 14.476 0.67799997 0
-47.216 15.276 0.70899999 0
-44.694 14.307 0.68099999 0
-47.910999 15.169 0.71499997 0
-44.653999 14.062 0.68000001 0
-44.870998 13.976 0.68199998 0
-46.936001 14.456 0.70300001 0
-46.182999 14.066 0.69499999 0
-46.195999 13.912 0.69499999 0
-47.727001 14.208 0.70999998 0
-45.945 13.522 0.69099998 0
-60.466999 17.478001 0.84299999 0
-61.164001 17.471001 0.85000002 0
-46.151001 13.033 0.69199997 0
-46.082001 12.857 0.69099998 0
-61.743 17.009001 0.85399997 0
-61.063 16.306999 0.84600002 0
-61 16.084999 0.84500003 0
-61.685001 16.058001 0.85100001 0
-60.305 15.296 0.83600003 0
-60.362 15.209 0.83600003 0
-60.423 15.023 0.83600003 0
-61.293999 14.627 0.84399998 0
-61.654999 14.509 0.847 0
-62.297001 14.144 0.85299999 0
-64.137001 14.138 0.87099999 0
-64.150002 13.93 0.87 0
-63.719002 13.418 0.86500001 0
-63.647999 13.298 0.86400002 0
-76.879997 -15.031 0.99900001 0
-76.774002 -15.261 0.99800003 0
-76.674004 -16.245001 0.99900001 0
-76.446999 -16.448 0.99699998 0
-76.547997 -16.596001 0.99900001 0
-75.764 -17.424999 0.99299997 0
-77.146004 -18.254999 1.008 0
-76.176003 -18.405001 0.99900001 0
-70.792 -17.573 0.94400001 0
-70.536003 -17.745001 0.94199997 0
-62.300999 -16.191999 0.85799998 0
-62.236 -16.384001 0.85699999 0
-62.109001 -16.559 0.85699999 0
-62.491001 -16.872 0.861 0
-61.861 -16.91 0.85500002 0
-62.705002 -17.459 0.86500001 0
-61.903999 -17.445 0.85699999 0
-60.207001 -17.58 0.84100002 0
-59.806 -17.667 0.83700001 0
-59.647999 -17.825001 0.83600003 0
-59.381001 -17.846001 0.83399999 0
-59.181 -17.989 0.83200002 0
-59.058998 -18.155001 0.83200002 0
-58.777 -18.27 0.829 0
-58.82 -18.487 0.82999998 0
-58.247002 -18.809999 0.82599998 0
-58.349998 -19.249001 0.82800001 0
-58.174999 -19.802 0.82800001 0
-65.672997 -22.934 0.91000003 0
-50.328999 -18.551001 0.74900001 0
-49.973999 -18.778 0.74699998 0
-49.654999 -18.836 0.74400002 0
-49.618 -19 0.74400002 0
-48.728001 -18.834999 0.73500001 0
-48.486 -18.829 0.73299998 0
-48.298 -18.931 0.73100001 0
-48.337002 -19.121 0.73199999 0
-48.196999 -19.240999 0.73199999 0
-48.123001 -19.386999 0.73100001 0
-41.862 -17.014 0.66399997 0
-41.459 -17.002001 0.66000003 0
-41.084999 -16.924 0.65600002 0
-40.381001 -16.782 0.64899999 0
-41.391998 -17.356001 0.66100001 0
-41.598999 -17.597 0.66399997 0
-41.630001 -17.764 0.66500002 0
-40.717999 -17.525999 0.65499997 0
-40.660999 -17.653 0.65499997 0
-41.014 -17.882999 0.65899998 0
-40.519001 -17.819 0.65399998 0
-40.991001 -18.18 0.66000003 0
-40.244999 -18.000999 0.653 0
-40.205002 -18.135 0.653 0
-40.98 -18.639999 0.662 0
-44.953999 -20.621 0.70700002 0
-40.113998 -18.474001 0.653 0
-39.914001 -18.534 0.65200001 0
-40.049999 -18.75 0.65399998 0
-44.471001 -20.993999 0.704 0
-38.556999 -18.347 0.639 0
-38.754002 -18.815001 0.64300001 0
-48.623001 -23.804001 0.75400001 0
-48.425999 -23.896 0.75300002 0
-47.955002 -23.851 0.74800003 0
-47.512001 -23.816999 0.74400002 0
-47.269001 -23.881001 0.74199998 0
-47.310001 -24.087999 0.74400002 0
-47.060001 -24.054001 0.741 0
-47.310001 -24.370001 0.745 0
-47.275002 -24.540001 0.745 0
-47.333 -24.759001 0.74699998 0
-43.348999 -22.847 0.70200002 0
-43.228001 -22.957001 0.70200002 0
-43.345001 -23.107 0.704 0
-43.542 -23.388 0.70700002 0
-46.672001 -25.26 0.74299997 0
-43.32 -23.620001 0.70599997 0
-40.945 -22.490999 0.67900002 0
-40.971001 -22.673 0.68000001 0
-35.414001 -19.74 0.61699998 0
-37.152 -20.785999 0.63700002 0
-37.311001 -21.030001 0.63999999 0
-37.021 -21.018999 0.63700002 0
-36.863998 -21.084 0.63599998 0
-36.490002 -21.021999 0.63300002 0
-36.275002 -21.049999 0.63099998 0
-37.548 -21.948 0.64700001 0
-35.036999 -20.552 0.61799997 0
-34.916 -20.628 0.61699998 0
-34.528 -20.545 0.61299998 0
-34.485001 -20.667 0.61299998 0
-34.926998 -21.082001 0.61900002 0.07
-34.209 -20.795 0.61199999 0
-32.451 -19.864 0.59200001 0.079999998
-32.599998 -20.027 0.59399998 0
-32.619999 -20.18 0.59500003 0
-32.438 -20.209 0.59299999 0.11
-32.317001 -20.274 0.59299999 0.1
-32.131001 -20.299 0.59100002 0.079999998
-31.931 -20.313 0.58999997 0.079999998
-31.905001 -20.438 0.58999997 0
-31.922001 -20.518999 0.59100002 0
-29.594999 -19.153 0.56300002 0.07
-29.652 -19.322001 0.565 0.090000004
-29.705 -19.49 0.56599998 0
-29.752001 -19.655001 0.56800002 0.050000001
-29.702999 -19.757 0.56800002 0
-29.804001 -19.892 0.56900001 0
-29.875999 -20.076 0.57099998 0
-29.496 -19.955 0.56699997 0
-29.233 -19.910999 0.565 0
-29.52 -20.243 0.56900001 0.11
-29.423 -20.313 0.56900001 0.1
-28.033001 -19.482 0.55199999 0.079999998
-28.049999 -19.559 0.55299997 0
-28.150999 -19.761 0.55500001 0
-24.780001 -17.507999 0.514 0.11
-24.374001 -17.336 0.509 0.27000001
-24.91 -17.834999 0.51700002 0.15000001
-24.719999 -17.818001 0.51499999 0.38999999
-24.476999 -17.759001 0.51300001 0.18000001
-24.601 -17.908001 0.51499999 0.27000001
-24.285999 -17.796 0.51099998 0.16
-24.110001 -17.783001 0.50999999 0.33000001
-24.021999 -17.834999 0.50999999 0.20999999
-23.962 -17.908001 0.50999999 0.25
-23.944 -18.011999 0.50999999 0.18000001
-23.566999 -17.844 0.50599998 0.33000001
-23.544001 -17.885 0.50599998 0.25
-23.459 -17.937 0.50599998 0.2
-23.424999 -18.027 0.50599998 0.36000001
-23.469 -18.179001 0.50700003 0.25999999
-23.513 -18.332001 0.509 0.17
-23.361 -18.330999 0.50700003 0.14
-21.815001 -17.172001 0.48800001 0.15000001
-23.424 -18.561001 0.509 0.20999999
-23.361 -18.629999 0.509 0.12
-23.233 -18.646999 0.50800002 0.16
-23.177 -18.723 0.50800002 0
-23.149 -18.820999 0.509 0
-22.658001 -18.540001 0.50300002 0.14
-22.628 -18.573999 0.50300002 0.20999999
-21.212 -17.521 0.48500001 0.34999999
-21.091999 -17.534 0.484 0.20999999
-20.941999 -17.521 0.48300001 0.31999999
-19.864 -16.724001 0.47 0.18000001
-20.790001 -17.617001 0.48300001 0.2
-20.669001 -17.625999 0.48199999 0
-20.253 -17.326 0.477 0
-20.393999 -17.558001 0.479 0
-19.256001 -16.681999 0.465 0.12
-19.17 -16.712999 0.46399999 0.18000001
-19.127001 -16.781 0.46399999 0.28999999
-18.368 -16.216999 0.45500001 0.18000001
-18.330999 -16.287001 0.45500001 0.41999999
-19.076 -17.004 0.465 0.19
-18.951 -17 0.465 0.18000001
-18.030001 -16.274 0.45300001 0.34
-18.552999 -16.853001 0.461 0.20999999
-20.172001 -18.444 0.48300001 0.16
-18.275999 -16.812 0.458 0.34999999
-18.153999 -16.753 0.45699999 0.23999999
-17.865999 -16.59 0.454 0
-17.885 -16.712999 0.45500001 0
-21.443001 -20.173 0.505 0
-21.275 -20.141001 0.50300002 0
-21.416 -20.402 0.50599998 0
-21.952 -21.046 0.51499999 0
-16.57 -15.927 0.43900001 0.13
-16.496 -15.956 0.43900001 0.23
-16.299 -15.864 0.43700001 0.36000001
-16.396999 -16.061001 0.43900001 0.20999999
-15.098 -14.879 0.421 0.17
-15.055 -14.93 0.42199999 0.38
-14.991 -14.96 0.421 0.28
-15 -15.017 0.42199999 0.37
-15.907 -16.027 0.435 0.28999999
-15.842 -16.063 0.435 0.41999999
-14.893 -15.193 0.42199999 0.2
-14.785 -15.178 0.421 0.33000001
-14.907 -15.4 0.42399999 0.30000001
-14.9 -15.49 0.42399999 0.37
-15.485 -16.150999 0.433 0.30000001
-15.72 -16.499001 0.43799999 0.16
-15.514 -16.386 0.435 0.16
-15.532 -16.509001 0.43599999 0.47999999
-15.483 -16.559999 0.43599999 0.23
-15.616 -16.808001 0.43900001 0.14
-14.417 -15.613 0.42199999 0.36000001
-14.353 -15.593 0.421 0.30000001
-14.146 -15.465 0.419 0.44999999
-14.147 -15.564 0.41999999 0.31
-14.042 -15.546 0.419 0.27000001
-14.009 -15.608 0.419 0.25999999
-13.916 -15.603 0.419 0.33000001
-13.84 -15.566 0.41800001 0.27000001
-13.766 -15.581 0.417 0.46000001
-13.796 -15.715 0.419 0.28999999
-14.157 -16.23 0.42500001 0.23
-13.304 -15.347 0.41299999 0.28999999
-13.33 -15.475 0.414 0.25
-13.291 -15.528 0.414 0.34
-13.305 -15.594 0.414 0.43000001
-13.309 -15.699 0.41499999 0.34
-13.157 -15.618 0.414 0.28
-13.117 -15.67 0.414 0.36000001
-13.126 -15.782 0.41499999 0.23
-13.786 -16.684 0.426 0.57999998
-13.046 -15.887 0.41499999 0.18000001
-12.902 -15.762 0.41299999 0.25
-12.822 -15.765 0.41299999 0.36000001
-12.971 -16.051001 0.41600001 0.38
-13.019 -16.215 0.417 0.34999999
-12.765 -16.000999 0.414 0.33000001
-13.383 -16.886999 0.42500001 0.2
-12.765 -16.157 0.41499999 0.34999999
-13.4 -17.072001 0.42699999 0.23
-13.251 -16.993 0.42500001 0.31999999
-13.173 -17.003 0.42500001 0.38
-13.136 -17.065001 0.42500001 0.27000001
-13.002 -17.000999 0.42399999 0.36000001
-12.921 -17.004999 0.42300001 0.36000001
-12.864 -16.985001 0.42300001 0.44999999
-12.845 -17.072001 0.42300001 0.28
-12.67 -16.948999 0.421 0.37
-12.69 -17.087999 0.42199999 0.27000001
-12.589 -17.063999 0.42199999 0.37
-12.658 -17.271 0.42399999 0.25
-12.517 -17.191 0.42199999 0.38999999
-12.67 -17.459999 0.42500001 0.28
-12.418 -17.225 0.42199999 0.34
-12.43 -17.357 0.42300001 0.28999999
-12.02 -16.895 0.417 0.28999999
-11.919 -16.864 0.41600001 0.19
-11.924 -16.985001 0.417 0.57999998
-11.731 -16.822001 0.41499999 0.2
-11.123 -16.000999 0.40400001 0.22
-11.821 -17.122999 0.41800001 0.28999999
-11.766 -17.158001 0.417 0.38999999
-11.591 -17.016001 0.41499999 0.20999999
-11.383 -16.823999 0.41299999 0.34
-11.862 -17.653999 0.42199999 0.14
-11.111 -16.645 0.40900001 0.25999999
-11.098 -16.683001 0.41 0.38
-11.141 -16.863001 0.41100001 0.25
-11.522 -17.561001 0.419 0.23
-11.393 -17.483999 0.41800001 0.38
-11.272 -17.417999 0.417 0.31
-11.234 -17.478001 0.417 0.31
-11.172 -17.441999 0.417 0.23
-10.986 -17.271 0.414 0.54000002
-10.995 -17.405001 0.41499999 0.23
-10.928 -17.421 0.41499999 0.17
-10.931 -17.547001 0.41600001 0.33000001
-10.859 -17.554001 0.41600001 0.19
-10.779 -17.549 0.41499999 0.22
-10.819 -17.674999 0.417 0.28
-10.754 -17.693001 0.41600001 0.31
-10.68 -17.698 0.41600001 0.25999999
-10.484 -17.496 0.41299999 0.52999997
-10.737 -18.179001 0.421 0.31
-10.422 -17.77 0.41499999 0.50999999
-10.517 -17.997 0.41800001 0.25
-10.488 -18.079 0.41800001 0.15000001
-10.403 -18.061001 0.41800001 0.41
-10.307 -18.025999 0.417 0.18000001
-10.272 -18.097 0.41800001 0.34999999
-10.252 -18.195 0.41800001 0
-12.583 -22.426001 0.46700001 0
-16.228001 -29.152 0.54400003 0
-9.5930004 -17.468 0.40900001 0.23
-9.5050001 -17.438999 0.40799999 0.34999999
-9.4680004 -17.5 0.40799999 0.25999999
-9.3529997 -17.419001 0.40700001 0.33000001
-9.3190002 -17.421 0.40700001 0.37
-9.2320004 -17.388 0.40599999 0.31
-9.0050001 -17.09 0.40200001 0.28
-8.9370003 -17.091 0.40200001 0.38
-9.0039997 -17.351999 0.405 0.17
-8.9289999 -17.341 0.40400001 0.36000001
-8.868 -17.357 0.40400001 0.25999999
-8.6630001 -17.018999 0.40000001 0.36000001
-8.6660004 -17.159 0.40200001 0.37
-8.6169996 -17.195 0.40200001 0.31
-8.5579996 -17.212999 0.40200001 0.22
-8.5080004 -17.249001 0.40200001 0.25
-8.4020004 -17.169001 0.40000001 0.33000001
-10.735 -22.128 0.456 0.14
-8.3430004 -17.254 0.40099999 0.34
-9.1140003 -19.007 0.41999999 0.23
-7.6100001 -16.118999 0.38699999 0.57999998
-9.1219997 -19.493999 0.42500001 0.23
-8.9870005 -19.363001 0.42300001 0.23
-8.9569998 -19.458 0.42399999 0.31
-8.2770004 -18.052 0.40799999 0.27000001
-7.9530001 -17.487 0.40099999 0.2
-8.1120005 -17.988001 0.40700001 0.38
-7.9250002 -17.722 0.403 0.36000001
-7.7449999 -17.465 0.40000001 0.36000001
-7.5250001 -17.112 0.396 0.23999999
-6.8699999 -15.684 0.38 0.27000001
-6.8249998 -15.715 0.38 0.28999999
-7.211 -16.753 0.39199999 0.28999999
-7.1020002 -16.643 0.38999999 0.41
-6.9809999 -16.500999 0.38800001 0.33000001
-7.2729998 -17.346001 0.39700001 0.22
-6.5580001 -15.774 0.38 0.37
-6.5359998 -15.79 0.38 0.36000001
-6.3959999 -15.59 0.37799999 0.18000001
-6.0669999 -14.919 0.37 0.51999998
-6.0770001 -15.079 0.37200001 0.27000001
-6.0180001 -15.068 0.37099999 0.25999999
-6.2480001 -15.792 0.37900001 0.41
-6.0560002 -15.446 0.375 0.23
-5.9559999 -15.26 0.373 0.47
-6.006 -15.535 0.37599999 0.28
-5.8330002 -15.228 0.37200001 0.34
-5.8720002 -15.477 0.375 0.34999999
-6.0650001 -16.139 0.38100001 0.23
-6.04 -16.23 0.382 0.41999999
-6.164 -16.642 0.38699999 0.28999999
-5.9590001 -16.245001 0.382 0.28999999
-6.033 -16.608999 0.38600001 0.20999999
-5.6240001 -15.632 0.375 0.38
-5.6399999 -15.833 0.377 0.43000001
-5.6370001 -15.984 0.37900001 0.27000001
-5.559 -15.921 0.37799999 0.34
-5.415 -15.585 0.37400001 0.31
-5.3379998 -15.521 0.373 0.43000001
-5.3179998 -15.623 0.37400001 0.37
-5.1620002 -15.319 0.37099999 0.43000001
-5.1409998 -15.419 0.37200001 0.27000001
-5.0890002 -15.423 0.37099999 0.34
-5.1729999 -15.846 0.37599999 0.40000001
-5.171 -15.927 0.37599999 0.28999999
-5.1040001 -15.89 0.37599999 0.46000001
-5.1370001 -16.169001 0.37900001 0.33000001
-5.099 -16.226999 0.37900001 0.19
-4.7270002 -15.201 0.368 0.31999999
-4.6719999 -15.193 0.368 0.56
-5.0999999 -16.687 0.384 0.2
-5.0630002 -16.757 0.384 0.36000001
-4.9879999 -16.695999 0.38299999 0.41999999
-4.9400001 -16.726999 0.384 0.31999999
-4.4910002 -15.377 0.36899999 0.22
-4.4169998 -15.3 0.368 0.38
-4.3829999 -15.366 0.36899999 0.41
-4.3400002 -15.306 0.368 0.27000001
-4.1719999 -14.886 0.36300001 0.40000001
-4.1269999 -14.908 0.36399999 0.44999999
-4.178 -15.28 0.36700001 0.36000001
-4.1339998 -15.309 0.368 0.40000001
-4.1550002 -15.581 0.37 0.30000001
-4.0939999 -15.547 0.37 0.46000001
-4.1259999 -15.774 0.37200001 0.34
-4.0180001 -15.557 0.37 0.44
-3.951 -15.498 0.36899999 0.28
-4.1059999 -16.325001 0.377 0.41
-3.8050001 -15.326 0.36700001 0.25
-3.7980001 -15.507 0.36899999 0.33000001
-3.7720001 -15.612 0.37 0.30000001
-3.753 -15.645 0.37 0.38
-3.74 -15.807 0.37099999 0.44
-3.6949999 -15.842 0.37200001 0.2
-4.0359998 -17.563 0.389 0.23999999
-3.961 -17.488001 0.38800001 0.52999997
-3.924 -17.584 0.389 0.18000001
-3.8670001 -17.454 0.38800001 0.41
-3.46 -15.844 0.37099999 0.33000001
-3.411 -15.858 0.37099999 0.28999999
-3.3989999 -16.047001 0.373 0.28999999
-3.3870001 -16.246 0.375 0.30000001
-3.3870001 -16.503 0.37799999 0.47
-3.3050001 -16.367001 0.37599999 0.28
-3.2620001 -16.284 0.375 0.40000001
-3.2249999 -16.368 0.37599999 0.34999999
-3.158 -16.294001 0.375 0.41
-3.092 -16.226999 0.37400001 0.30000001
-3.0190001 -16.118999 0.373 0.44999999
-2.99 -16.243999 0.37400001 0.34
-2.944 -16.139 0.373 0.33000001
-2.8800001 -16.073 0.37200001 0.40000001
-2.845 -16.167 0.373 0.43000001
-2.7720001 -16.046 0.37200001 0.38999999
-2.5669999 -15.139 0.36199999 0.38
-2.5539999 -15.354 0.36500001 0.25
-2.598 -15.937 0.37 0.34
-2.553 -15.814 0.36899999 0.41
-2.424 -15.313 0.36399999 0.28999999
-2.3929999 -15.433 0.36500001 0.41
-2.3410001 -15.417 0.36500001 0.44999999
-2.362 -15.897 0.37 0.25999999
-2.2620001 -15.56 0.366 0.38
-2.1630001 -15.206 0.36199999 0.31
-2.109 -14.994 0.36000001 0.37
-2.132 -15.515 0.366 0.33000001
-2.0769999 -15.474 0.36500001 0.52999997
-2.053 -15.671 0.36700001 0.14
-1.974 -15.448 0.36500001 0.33000001
-1.932 -15.503 0.36500001 0.40000001
-1.9220001 -15.829 0.368 0.31999999
-1.812 -15.111 0.361 0.47
-1.818 -15.588 0.366 0.20999999
-1.661 -14.629 0.35600001 0.34999999
-1.609 -14.575 0.35499999 0.54000002
-1.617 -15.091 0.361 0.28999999
-1.5880001 -15.275 0.36199999 0.28999999
-1.5779999 -15.417 0.36399999 0.41
-1.557 -15.704 0.36700001 0.31999999
-1.488 -15.498 0.36500001 0.43000001
-1.4299999 -15.405 0.36399999 0.38999999
-1.375 -15.334 0.36300001 0.23
-1.308 -15.115 0.361 0.51999998
-1.255 -15.055 0.36000001 0.30000001
-1.227 -14.991 0.359 0.43000001
-1.274 -16.226999 0.37200001 0.34
-1.2640001 -16.788 0.377 0.28999999
-1.169 -16.191 0.37099999 0.38999999
-1.0369999 -14.995 0.359 0.2
-0.98699999 -14.943 0.359 0.44999999
-1.016 -16.201 0.37099999 0.27000001
-0.94499999 -15.424 0.36300001 0.27000001
-0.89600003 -15.423 0.36300001 0.52999997
-0.85299999 -15.536 0.36399999 0.31999999
-0.81900001 -15.82 0.36700001 0.2
-0.75300002 -15.479 0.36399999 0.55000001
-0.71700001 -15.763 0.36700001 0.22
-0.72399998 -16.525 0.37400001 0.30000001
-0.667 -16.389999 0.373 0.22
-0.60100001 -15.998 0.36899999 0.40000001
-0.55699998 -16.184 0.37099999 0.44999999
-0.50099999 -16.023001 0.36899999 0.30000001
-0.44400001 -15.755 0.36700001 0.38
-0.39199999 -15.66 0.366 0.37
-0.36700001 -15.653 0.36500001 0.33000001
-0.31600001 -15.536 0.36399999 0.46000001
-0.26800001 -15.629 0.36500001 0.40000001
-0.23199999 -16.681999 0.37599999 0.34
-0.176 -16.261999 0.37200001 0.33000001
-0.124 -16.101 0.37 0.30000001
-0.097999997 -15.923 0.368 0.47999999
-0.048 -15.849 0.36700001 0.37
0.0020000001 -15.957 0.36899999 0.36000001
0.052999999 -16.122999 0.37 0.34
0.106 -16.419001 0.373 0.38
0.15800001 -16.438 0.373 0.33000001
0.208 -16.294001 0.37200001 0.41
0.236 -16.437 0.373 0.28999999
0.28400001 -16.250999 0.37200001 0.44999999
0.333 -16.177999 0.37099999 0.31999999
0.382 -16.115 0.37 0.40000001
0.43700001 -16.264999 0.37200001 0.40000001
0.48699999 -16.219999 0.37099999 0.33000001
0.542 -16.341999 0.37200001 0.30000001
0.56900001 -16.358999 0.373 0.41
0.62199998 -16.400999 0.373 0.34999999
0.68599999 -16.705 0.37599999 0.36000001
0.72799999 -16.466999 0.37400001 0.31
0.78299999 -16.523001 0.37400001 0.43000001
0.847 -16.757999 0.377 0.22
0.87400001 -16.768 0.377 0.37
0.93000001 -16.834999 0.37799999 0.38999999
0.98299998 -16.826 0.37799999 0.28999999
1.033 -16.783001 0.377 0.34999999
1.179 -18.184999 0.391 0.2
1.113 -16.409 0.373 0.33000001
1.146 -16.145 0.37099999 0.38
1.1720001 -16.155001 0.37099999 0.40000001
1.2079999 -15.962 0.36899999 0.34
1.273 -16.143 0.37099999 0.5
1.339 -16.318001 0.373 0.25
1.372 -16.103001 0.37099999 0.46000001
1.428 -16.156 0.37099999 0.34
1.498 -16.642 0.37599999 0.27000001
1.529 -16.416 0.37400001 0.51999998
1.587 -16.475 0.375 0.38999999
1.683 -16.914 0.37900001 0.30000001
1.732 -16.862 0.37900001 0.23999999
1.691 -15.988 0.37 0.41
1.761 -16.153999 0.37099999 0.43000001
1.8380001 -16.615999 0.37599999 0.38
1.95 -17.125999 0.38100001 0.31
1.9960001 -17.056999 0.38100001 0.22
2.003 -16.665001 0.377 0.36000001
2.059 -16.687 0.377 0.41999999
2.1370001 -16.879999 0.37900001 0.33000001
2.201 -16.961 0.38 0.25
2.221 -16.903999 0.38 0.34999999
2.2709999 -16.872999 0.37900001 0.31
2.322 -16.856001 0.37900001 0.54000002
2.4330001 -17.252001 0.38299999 0.17
2.4059999 -16.691 0.37799999 0.22
2.461 -16.698999 0.37799999 0.36000001
2.4319999 -16.329 0.37400001 0.31999999
2.473 -16.252001 0.373 0.36000001
2.5220001 -16.233999 0.373 0.37
2.575 -16.238001 0.373 0.30000001
2.608 -16.122 0.37200001 0.43000001
2.668 -16.165001 0.373 0.31999999
2.7309999 -16.233 0.37400001 0.44999999
2.757 -16.229 0.37400001 0.30000001
3.1459999 -18.156 0.39300001 0.18000001
2.961 -16.784 0.37900001 0.33000001
3 -16.700001 0.37900001 0.25
3.062 -16.740999 0.37900001 0.57999998
3.3989999 -18.247 0.39500001 0.18000001
3.184 -16.812 0.38 0.34
3.5209999 -18.417999 0.39700001 0.25
3.5999999 -18.518 0.398 0.18000001
3.2030001 -16.218 0.37400001 0.40000001
3.303 -16.448999 0.377 0
8.5950003 -41.919998 0.63999999 0
3.6789999 -17.597 0.389 0.28
3.7149999 -17.495001 0.38800001 0.25999999
3.6459999 -16.915001 0.382 0.41999999
3.694 -16.878 0.382 0.33000001
3.799 -17.098 0.384 0.2
3.8310001 -16.990999 0.38299999 0.38
3.878 -16.948999 0.38299999 0.49000001
3.8789999 -16.836 0.382 0.34
3.9619999 -16.950001 0.38299999 0.28
4.0279999 -16.992001 0.384 0.31999999
4.1030002 -17.066999 0.38499999 0.23
4.0679998 -16.695 0.38100001 0.31999999
4.1799998 -16.92 0.38299999 0.41
4.3720002 -17.459999 0.389 0.27000001
4.401 -17.457001 0.389 0.28999999
4.4549999 -17.441 0.389 0.27000001
4.5209999 -17.469999 0.38999999 0.50999999
4.5819998 -17.479 0.38999999 0.20999999
7.7329998 -29.059 0.51099998 0
9.1269999 -33.853001 0.56199998 0
11.915 -43.889 0.667 0
9.8520002 -35.861 0.583 0
9.9350004 -35.723999 0.58200002 0.039999999
10.072 -35.779999 0.583 0.17
7.7340002 -27.171 0.493 0.12
7.8010001 -27.080999 0.49200001 0.16
7.8660002 -26.988001 0.491 0.2
7.9000001 -26.948 0.491 0.18000001
8.0539999 -27.157 0.493 0.27000001
8.1529999 -27.176001 0.49399999 0.12
8.1569996 -26.884001 0.491 0.25999999
8.2069998 -26.747999 0.49000001 0.20999999
8.2119999 -26.466 0.48699999 0.23
8.2559996 -26.462999 0.48699999 0.38
8.3059998 -26.33 0.486 0.2
8.3400002 -26.153 0.48500001 0.16
7.7540002 -24.059999 0.463 0.28999999
7.8179998 -24 0.46200001 0.25999999
7.8990002 -23.992001 0.46200001 0.17
9.0909996 -27.311001 0.498 0.14
8.9540005 -26.761999 0.49200001 0.33000001
8.9879999 -26.586 0.491 0.20999999
8.6450005 -25.313 0.47799999 0.12
8.6879997 -25.181999 0.47600001 0.52999997
9.2259998 -26.466999 0.49000001 0.20999999
9.3059998 -26.427999 0.49000001 0.34
9.4350004 -26.527 0.49200001 0
8.0539999 -22.542999 0.449 0.12
8.1940002 -22.709999 0.45100001 0.20999999
8.3780003 -22.992001 0.45500001 0.28999999
8.3850002 -22.789 0.45300001 0.31
8.4630003 -22.780001 0.45300001 0.33000001
8.5240002 -22.725 0.45300001 0
9.0209999 -23.933001 0.46599999 0.050000001
8.9399996 -23.493 0.461 0.13
8.6879997 -22.622 0.45199999 0.27000001
8.79 -22.674 0.45300001 0.16
8.9239998 -22.805 0.45500001 0.19
9.2969999 -23.537001 0.463 0.15000001
9.323 -23.389 0.46200001 0.23
8.6409998 -21.584999 0.442 0.14
9.3579998 -23.16 0.46000001 0.36000001
8.7709999 -21.516001 0.442 0.16
8.158 -19.839001 0.42399999 0.38
8.2200003 -19.813 0.42399999 0.14
8.7139997 -20.815001 0.435 0.18000001
9.7959995 -23.288 0.463 0.16
9 -21.215 0.44 0.16
8.4230003 -19.688999 0.42399999 0.34999999
8.4130001 -19.495001 0.42199999 0.31
8.5220003 -19.579 0.42300001 0.23999999
8.6239996 -19.643 0.42399999 0.47999999
8.7189999 -19.693001 0.42500001 0.14
8.7080002 -19.584 0.42399999 0.43000001
8.9280005 -19.909 0.428 0.18000001
8.9060001 -19.695 0.426 0.27000001
8.7220001 -19.129999 0.41999999 0.43000001
8.9840002 -19.539 0.42500001 0.23
8.9429998 -19.291 0.42199999 0.25
8.9189997 -19.083 0.41999999 0.54000002
9.335 -19.889 0.42899999 0.2
9.1059999 -19.245001 0.42199999 0.30000001
9.1739998 -19.233 0.42300001 0.31999999
8.1619997 -16.979 0.398 0.18000001
9.3120003 -19.209 0.42300001 0.33000001
9.4020004 -19.240999 0.42399999 0.31999999
8.4549999 -17.240999 0.40099999 0.28
9.1540003 -18.514 0.41600001 0.25
8.5039997 -17.068001 0.40000001 0.25999999
8.5509996 -17.028999 0.40000001 0.38
8.6049995 -17.004 0.40000001 0.38
8.7119999 -17.08 0.40099999 0.34
9.2290001 -17.952 0.41100001 0.38999999
8.8540001 -17.159 0.40200001 0.23
8.8439999 -17.009001 0.40099999 0.44
9.0220003 -17.216999 0.40400001 0.38
9.151 -17.329 0.405 0.27000001
9.3050003 -17.488001 0.40700001 0.18000001
8.9799995 -16.752001 0.39899999 0.36000001
9.0019999 -16.731001 0.39899999 0.41
9.2790003 -17.115 0.40400001 0.33000001
9.1599998 -16.77 0.40000001 0.30000001
9.3610001 -17.009001 0.403 0.25
9.8979998 -17.85 0.414 0.23
9.3389997 -16.722 0.40099999 0.33000001
9.4090004 -16.724001 0.40099999 0.31999999
9.5380001 -16.889999 0.403 0.2
9.382 -16.493 0.39899999 0.14
9.6029997 -16.757999 0.40200001 0.28999999
9.6730003 -16.757999 0.403 0.50999999
9.6190004 -16.544001 0.40099999 0.19
9.7489996 -16.646999 0.40200001 0.27000001
9.7869997 -16.652 0.40200001 0.25
10.356 -17.490999 0.41299999 0.38999999
9.9549999 -16.695999 0.40400001 0.16
9.665 -16.096001 0.39700001 0.23
9.9230003 -16.408001 0.40099999 0.31
9.9969997 -16.414 0.40099999 0.41
10.349 -16.870001 0.40700001 0.20999999
10.297 -16.728001 0.40599999 0.41
10.239 -16.517 0.40400001 0.31
10.388 -16.641001 0.405 0.30000001
10.357 -16.476 0.40400001 0.34999999
10.457 -16.518999 0.405 0.34999999
10.581 -16.599001 0.40599999 0.36000001
10.62 -16.546 0.40599999 0.25999999
10.675 -16.573 0.40599999 0.34
10.748 -16.573 0.40700001 0.34999999
10.683 -16.360001 0.405 0.20999999
10.888 -16.558001 0.40799999 0.40000001
10.956 -16.549 0.40799999 0.19
11.01 -16.518 0.40799999 0.47999999
11.067 -16.547001 0.40799999 0.25999999
11.104 -16.489 0.40799999 0.34999999
11.118 -16.399 0.40700001 0.34
11.262 -16.5 0.40900001 0.23
11.505 -16.740999 0.41299999 0.33000001
11.541 -16.681999 0.412 0.30000001
11.611 -16.67 0.41299999 0.33000001
11.427 -16.351999 0.40900001 0.36000001
11.643 -16.549999 0.412 0.28
11.821 -16.691 0.414 0.34999999
11.774 -16.513 0.412 0.18000001
11.968 -16.674 0.41499999 0.37
11.92 -16.497 0.41299999 0.25999999
11.961 -16.445 0.41299999 0.34
11.906 -16.316999 0.41100001 0.31999999
11.989 -16.323 0.412 0.27000001
11.804 -15.965 0.40799999 0.31999999
11.739 -15.774 0.40599999 0.34999999
11.746 -15.681 0.405 0.28999999
11.74 -15.571 0.40400001 0.36000001
12.754 -16.858 0.421 0.18000001
12.432 -16.326 0.41499999 0.22
12.343 -16.105 0.412 0.34
12.405 -16.08 0.412 0.38999999
12.455 -16.041 0.412 0.25
12.612 -16.136999 0.414 0.31999999
12.618 -16.041 0.41299999 0.38
12.612 -15.982 0.41299999 0.31999999
12.739 -16.039 0.414 0.25999999
12.802 -16.014999 0.414 0.41
12.786 -15.892 0.41299999 0.25
12.806 -15.814 0.41299999 0.37
12.777 -15.678 0.412 0.30000001
12.807 -15.615 0.41100001 0.38
12.946 -15.733 0.41299999 0.40000001
12.953 -15.642 0.412 0.2
13.495 -16.190001 0.41999999 0.27000001
13.659 -16.283001 0.42199999 0.44999999
14.53 -17.209 0.435 0.14
14.505 -17.07 0.43399999 0.36000001
14.503 -17.014 0.433 0.34
14.454 -16.849001 0.43200001 0.18000001
15.404 -17.841 0.44499999 0.30000001
16.261 -18.712 0.458 0
15.971 -18.261999 0.45199999 0
16.129999 -18.327999 0.454 0.11
15.684 -17.709999 0.44600001 0.18000001
16.312 -18.358999 0.45500001 0.11
16.302999 -18.233 0.454 0.34999999
16.388 -18.212999 0.45500001 0.28
15.264 -16.860001 0.43700001 0.34
16.583 -18.198 0.456 0.16
14.838 -16.184999 0.42899999 0.22
14.923 -16.226 0.43000001 0
15.622 -16.879 0.44 0.1
16.441 -17.649 0.45100001 0.23999999
15.193 -16.209999 0.43200001 0.17
16.479 -17.469 0.44999999 0.2
16.688999 -17.580999 0.45199999 0.20999999
14.63 -15.319 0.421 0.33000001
16.608999 -17.332001 0.44999999 0.31999999
15.844 -16.431999 0.43799999 0.22
15.907 -16.393999 0.43799999 0.20999999
15.21 -15.579 0.42699999 0
19.754 -20.094999 0.49200001 0
16.017 -16.198999 0.43700001 0.07
17.072001 -17.156 0.45199999 0.12
15.47 -15.5 0.42899999 0.38
15.776 -15.708 0.43200001 0.19
16.344 -16.17 0.44 0.17
15.978 -15.709 0.43399999 0
16.530001 -16.149 0.44100001 0.1
16.395 -15.918 0.43799999 0.15000001
16.239 -15.717 0.43599999 0.14
17.398001 -16.73 0.45100001 0.16
16.832001 -16.086 0.44299999 0.25999999
16.934999 -16.083 0.44299999 0.22
16.747999 -15.806 0.44 0.22
16.951 -15.897 0.442 0.43000001
16.813 -15.669 0.43900001 0.17
16.605 -15.427 0.43599999 0.27000001
16.424999 -15.164 0.433 0.31999999
16.403 -15.049 0.43200001 0.38999999
16.51 -15.052 0.433 0.25999999
16.756001 -15.179 0.43599999 0.31
16.407 -14.771 0.43000001 0.19
17.447001 -15.655 0.44400001 0.37
16.452999 -14.672 0.43000001 0.2
16.433001 -14.562 0.42899999 0.31999999
17.101999 -15.058 0.43799999 0.28999999
17.302999 -15.139 0.44 0.25
17.308001 -15.048 0.43900001 0.37
21.811001 -18.833 0.498 0
21.789 -18.754999 0.498 0.13
21.639 -18.507999 0.495 0.17
21.671 -18.417999 0.495 0
22.195 -18.743 0.50099999 0.12
22.337 -18.743 0.50199997 0
22.990999 -19.167 0.50999999 0.12
22.396999 -18.555 0.50099999 0.14
17.468 -14.432 0.43599999 0.38
17.455999 -14.331 0.435 0.25
17.509001 -14.282 0.43599999 0.33000001
17.538 -14.214 0.435 0.16
17.568001 -14.148 0.435 0
24.052 -19.233 0.51800001 0
25.195 -20.08 0.53299999 0
25.924999 -20.528 0.54100001 0
23.929001 -18.827999 0.51499999 0
23.860001 -18.653999 0.51300001 0
22.417999 -17.302 0.493 0
63.889 -46.737999 1.007 0
64.017998 -46.523998 1.007 0
63.143002 -42.779999 0.97799999 0
59.117001 -38.317001 0.91900003 0
59.09 -38.167999 0.91799998 0
59.219002 -37.987999 0.91799998 0
59.379002 -37.827999 0.91900003 0
59.535 -37.665001 0.91900003 0
59.688 -37.5 0.91900003 0
58.426998 -32.374001 0.88200003 0.69999999
58.341 -32.087002 0.88 0
54.008999 -12.982 0.76800001 0.25
53.964001 -12.792 0.76800001 0.99000001
53.971001 -12.614 0.76700002 0.99000001
53.985001 -12.528 0.76700002 0.99000001
53.991001 -12.351 0.76700002 0.99000001
53.976002 -12.169 0.76599997 0.99000001
54.014 -12 0.76599997 0.99000001
54.043999 -11.828 0.76599997 0.99000001
54.063 -11.655 0.76599997 0.99000001
54.098 -11.484 0.76599997 0.99000001
54.099998 -11.396 0.76599997 0.99000001
54.098 -11.218 0.76499999 0.99000001
54.134998 -11.049 0.76499999 0.99000001
54.16 -10.877 0.76499999 0.99000001
54.148998 -10.697 0.76499999 0.99000001
54.161999 -10.524 0.76499999 0.99000001
54.418999 -10.396 0.76700002 0.74000001
54.298 -10.285 0.76599997 0
66.677002 -11.003 0.88999999 0
68.862 14.074 0.428 0
68.271004 14.177 0.42699999 0
68.559998 14.462 0.428 0
68.677002 14.712 0.428 0
68.264999 14.848 0.42699999 0
68.278 15.076 0.42699999 0
68.185997 15.28 0.42699999 0
68.126999 15.379 0.42699999 0
67.989998 15.573 0.42699999 0
67.810997 15.756 0.426 0
67.417999 15.889 0.42500001 0
67.585999 16.152 0.426 0
67.197998 16.283001 0.42500001 0
67.002998 16.459 0.42399999 0
66.615997 16.475 0.42300001 0
67.063004 16.809 0.42500001 0
66.698997 16.941 0.42399999 0
64.271004 16.540001 0.41600001 0
63.993999 16.684 0.41499999 0
63.925999 16.881001 0.41499999 0
63.803001 16.955 0.41499999 0
64.181999 17.271999 0.41600001 0
64.491997 17.573 0.41800001 0
64.218002 17.715 0.417 0
60.887001 17.004 0.40599999 0
62.432999 17.646 0.41100001 0
59.855999 17.122 0.403 0
59.813999 17.212 0.403 0
61.882 18.017 0.41 0
60.261002 17.750999 0.405 0
57.710999 17.198 0.39700001 0
57.254002 17.257999 0.39500001 0
57.266998 17.459 0.396 0
57.446999 17.711 0.396 0
57.848999 17.934 0.398 0
57.764 18.107 0.398 0
57.917999 18.355 0.398 0
56.702 18.166 0.39399999 0
45.224998 14.652 0.35699999 0
45.23 14.81 0.35699999 0
45.205002 14.881 0.35699999 0
45.110001 15.007 0.35699999 0
44.327 14.902 0.354 0
55.921001 18.988001 0.39300001 0
55.75 19.125 0.39300001 0
55.646 19.285 0.39199999 0
55.390999 19.392 0.39199999 0.07
56.112999 19.743999 0.39399999 0.14
56.098 19.936001 0.39399999 0.16
55.882 20.058001 0.39399999 0.17
55.154999 19.993 0.39199999 0.1
55.328999 20.253 0.39300001 0.15000001
55.331001 20.451 0.39300001 0
56.019001 20.905001 0.39500001 0
56.153 21.056 0.396 0
45.426998 17.202 0.36000001 0
53.764999 20.547001 0.38800001 0
54.263 20.933001 0.38999999 0
54.333 21.157 0.391 0
54.443001 21.396999 0.391 0
53.679001 21.194 0.389 0
53.344002 21.256001 0.38800001 0
52.616001 21.158001 0.38600001 0
52.669998 21.372 0.38600001 0.07
52.431 21.466999 0.38499999 0.15000001
52.308998 21.608999 0.38499999 0.090000004
52.259998 21.781 0.38499999 0
52 21.768999 0.38499999 0.13
51.806 21.879999 0.384 0
51.618 21.990999 0.384 0
51.501999 22.134001 0.384 0
52.969002 22.961 0.389 0.16
51.5 22.517 0.384 0
51.237 22.594 0.38299999 0
50.638 22.424999 0.38100001 0
50.713001 22.649 0.382 0.07
50.092999 22.562 0.38 0.17
49.800999 22.618999 0.37900001 0.18000001
49.834999 22.823999 0.38 0
49.874001 23.031 0.38 0
49.716 23.052999 0.38 0
49.089001 22.950001 0.37799999 0.13
48.737999 22.973 0.377 0.23
48.862999 23.219999 0.377 0.2
49.028 23.487 0.37799999 0.18000001
48.736 23.535999 0.377 0.16
48.563 23.641001 0.377 0
48.188999 23.552999 0.37599999 0.13
48.064999 23.679001 0.37599999 0.12
48.227001 23.948 0.377 0.079999998
48.428001 24.238001 0.37799999 0.17
48.152 24.289 0.377 0.25999999
47.735001 24.267 0.37599999 0.11
48.319 24.754999 0.37799999 0.079999998
46.914001 24.129 0.373 0.17
46.784 24.249001 0.373 0.12
46.644001 24.362 0.373 0.090000004
45.365002 23.877001 0.368 0.079999998
45.487999 24.124001 0.36899999 0.15000001
45.248001 24.179001 0.36899999 0.20999999
44.987999 24.131001 0.368 0.27000001
44.868 24.249001 0.368 0.16
44.928001 24.464001 0.368 0.14
44.541 24.434999 0.36700001 0.14
44.361 24.518 0.36700001 0.16
44.328999 24.681999 0.36700001 0.17
44.273998 24.834 0.36700001 0.16
44.658001 25.142 0.368 0
45.021 25.532 0.37 0.1
45.061001 25.742001 0.37 0
44.758999 25.757 0.37 0
44.146999 25.59 0.368 0
44.139999 25.771999 0.368 0
44.018002 25.886 0.368 0.050000001
43.527 25.690001 0.366 0.19
43.459 25.834 0.366 0.25
43.398998 25.983 0.366 0.23999999
43.352001 26.139999 0.366 0.11
43.183998 26.224001 0.366 0.15000001
43.069 26.34 0.366 0.20999999
42.978001 26.377001 0.366 0.18000001
42.955002 26.549 0.366 0.30000001
42.966 26.743 0.366 0.2
42.921001 26.902 0.366 0.16
42.513 26.833 0.36500001 0.19
42.609001 27.080999 0.366 0.22
42.735001 27.35 0.36700001 0.16
42.189999 27.094999 0.36500001 0
42.147999 27.256001 0.36500001 0
42.498001 27.672001 0.36700001 0.13
42.18 27.653999 0.366 0.23
41.604 27.462999 0.36399999 0.25
41.431999 27.538 0.36399999 0.11
41.817001 27.888 0.36500001 0
40.935001 27.486 0.36199999 0.13
41.433998 28.01 0.36399999 0.16
41.352001 28.143999 0.36399999 0.14
41.199001 28.23 0.36399999 0
41.138 28.379 0.36399999 0
41.976002 29.150999 0.368 0.1
40.676998 28.344999 0.36300001 0.30000001
40.841999 28.65 0.36399999 0.11
40.799 28.812 0.36399999 0.16
40.679001 28.919001 0.36399999 0.20999999
40.811001 29.205999 0.36500001 0.16
40.523998 29.194 0.36399999 0.13
40.473999 29.351999 0.36399999 0.16
40.360001 29.365999 0.36399999 0.30000001
40.116001 29.382 0.36399999 0.2
39.973999 29.471001 0.36300001 0.14
39.707001 29.468 0.36300001 0.15000001
39.812 29.739 0.36300001 0.15000001
39.859001 29.969999 0.36399999 0.12
39.808998 30.129 0.36399999 0.16
39.674 30.125 0.36399999 0.12
39.702999 30.344 0.36399999 0.14
39.421001 30.325001 0.36399999 0.090000004
39.536999 30.612 0.36399999 0.17
39.291 30.620001 0.36399999 0.28
39.264 30.797001 0.36399999 0.25999999
39.5 31.083 0.36500001 0.20999999
39.448002 31.243 0.36500001 0.18000001
39.296001 31.323999 0.36500001 0.14
39.198002 31.447001 0.36500001 0.16
39.472 31.872 0.36700001 0.28
39.428001 32.041 0.36700001 0.18000001
39.333 32.169998 0.36700001 0.36000001
39.269001 32.220001 0.36700001 0.2
39.175999 32.351002 0.36700001 0.31
39.299 32.66 0.368 0
39.231998 32.813 0.368 0.12
39.806999 33.506001 0.37099999 0.11
39.467999 33.432999 0.37 0.079999998
39.183998 33.405998 0.36899999 0.14
39.125999 33.462002 0.36899999 0.090000004
39.122002 33.672001 0.37 0.17
39.000999 33.782001 0.36899999 0.22
39.192001 34.162998 0.37099999 0.1
39.462002 34.617001 0.37200001 0.15000001
39.317001 34.709 0.37200001 0
39.306 34.808998 0.37200001 0
39.206001 34.941002 0.37200001 0
53.999001 48.417 0.435 0
53.296001 48.09 0.433 0
53.883999 48.928001 0.43599999 0
53.75 49.115002 0.43599999 0
52.848999 48.598 0.433 0
53.243 49.115002 0.435 0
53.308998 49.486 0.43599999 0
53.126999 49.627998 0.43599999 0
56.533001 53.141998 0.45100001 0
54.825001 51.862999 0.44499999 0
54.580002 51.956001 0.44400001 0
53.681999 51.424999 0.44100001 0.079999998
23.966999 23.051001 0.31200001 0.18000001
23.902 23.132999 0.31200001 0.20999999
23.82 23.200001 0.31200001 0.18000001
23.77 23.297001 0.31200001 0.30000001
23.700001 23.375 0.31200001 0.2
23.635 23.457001 0.31200001 0
24.334 24.302 0.315 0
52.589001 52.644001 0.44100001 0
24.598 24.799 0.317 0.090000004
24.509001 24.864 0.317 0.14
24.316999 24.826 0.31600001 0.17
23.959999 24.615 0.315 0.16
23.165001 23.948999 0.31200001 0.23999999
23.281 24.145 0.31299999 0.27000001
23.309999 24.327999 0.31299999 0.17
21.964001 23.07 0.30700001 0.25
19.395 20.504 0.296 0.15000001
19.344 20.579 0.296 0.30000001
22.865 24.472 0.31200001 0.25999999
19.886 21.422001 0.29899999 0.23
21.323999 23.042 0.30599999 0.25999999
19.612 21.329 0.29800001 0.16
20.774 22.733 0.30399999 0.31999999
20.660999 22.752001 0.30399999 0.25
19.299 21.389999 0.29800001 0.13
19.153 21.362 0.29699999 0.52999997
19.657 22.063 0.30000001 0.12
19.447001 21.896 0.29899999 0.46000001
19 21.530001 0.29699999 0.2
18.855 21.500999 0.29699999 0.31999999
18.778 21.549999 0.29699999 0.27000001
18.872999 21.796 0.29800001 0.27000001
18.629 21.652 0.29699999 0.25
18.996 22.218 0.29899999 0.34999999
19.139 22.455999 0.30000001 0
17.569 20.882 0.29300001 0.30000001
17.476999 20.906 0.29300001 0.38
17.479 21.042 0.29300001 0.30000001
17.474001 21.171 0.29300001 0.31999999
17.618999 21.414 0.294 0.20999999
17.48 21.382 0.294 0.30000001
17.400999 21.422001 0.294 0.25999999
18.056999 22.371 0.29699999 0.13
16.982 21.177 0.292 0.18000001
16.921 21.238001 0.292 0.5
16.830999 21.261999 0.292 0.15000001
15.38 19.495001 0.285 0.38
15.362 19.598 0.285 0.31
15.544 19.959 0.287 0.23999999
15.205 19.652 0.285 0.25999999
15.101 19.643999 0.285 0.38999999
15.167 19.858 0.28600001 0.28999999
15.109 19.912001 0.28600001 0.36000001
15.146 20.025999 0.28600001 0.28
15.152 20.165001 0.28600001 0.2
15.279 20.466999 0.287 0.31999999
16.429001 22.149 0.294 0.14
15.327 20.802 0.28799999 0.30000001
15.225 20.799999 0.28799999 0.14
14.825 20.389 0.28600001 0.57999998
14.91 20.573 0.287 0.23
14.727 20.455999 0.28600001 0.19
14.461 20.221001 0.285 0.34999999
14.769 20.789 0.287 0.23999999
14.321 20.292999 0.285 0.28
14.32 20.427999 0.285 0.41999999
14.282 20.441999 0.285 0.28
14.254 20.539 0.28600001 0.27000001
14.161 20.542999 0.285 0.28999999
14.211 20.754 0.28600001 0.25
14.327 21.065001 0.287 0.31999999
12.113 17.936001 0.27500001 0.2
11.948 17.813 0.27399999 0.36000001
11.696 17.497999 0.273 0.27000001
11.889 17.908001 0.27500001 0.28999999
11.66 17.683001 0.27399999 0.28999999
11.717 17.892 0.27399999 0.25
13.916 21.386 0.287 0.25
11.35 17.572001 0.273 0.14
11.229 17.445999 0.27200001 0.27000001
11.14 17.427 0.27200001 0.31
11.05 17.406 0.27200001 0.28999999
10.978 17.414 0.27200001 0.50999999
12.739 20.341 0.28200001 0.23
12.609 20.274 0.28200001 0.23
12.508 20.254 0.28200001 0.15000001
9.158 14.895 0.26199999 0.46000001
10.719 17.548 0.27200001 0.15000001
9.0810003 14.98 0.26199999 0.47999999
10.789 17.913 0.273 0.28
8.9259996 14.935 0.26199999 0.30000001
8.8809996 14.967 0.26199999 0.34999999
8.8730001 15.06 0.26199999 0.31999999
8.8879995 15.139 0.26199999 0.33000001
9.0139999 15.464 0.26300001 0.2
9.0159998 15.58 0.264 0.13
8.9580002 15.593 0.26300001 0.23999999
8.9029999 15.611 0.26300001 0.44999999
8.776 15.501 0.26300001 0.2
8.8210001 15.694 0.264 0.25
8.8129997 15.738 0.264 0.44999999
9 16.190001 0.26499999 0.36000001
10.06 18.225 0.27200001 0.28999999
8.5129995 15.545 0.26300001 0.34999999
10.797 19.849001 0.278 0.22
10.74 19.893 0.278 0.20999999
8.3769999 15.646 0.26300001 0.34
9.802 18.365 0.27200001 0.23999999
8.2080002 15.505 0.26199999 0.41999999
8.1730003 15.557 0.26199999 0.18000001
8.2709999 15.863 0.26300001 0.57999998
10.342 19.975 0.278 0.25
10.24 19.93 0.27700001 0.27000001
9.4960003 18.702 0.273 0.44999999
8.757 17.386 0.26800001 0.37
8.6739998 17.357 0.26800001 0.28
8.5839996 17.312 0.26800001 0.41
8.5249996 17.33 0.26800001 0.34999999
8.4180002 17.249001 0.26699999 0.31999999
8.3529997 17.184999 0.26699999 0.31999999
7.961 16.511999 0.26499999 0.20999999
7.8759999 16.469 0.264 0.54000002
7.9089999 16.672001 0.26499999 0.23999999
7.71 16.386 0.264 0.18000001
7.605 16.296 0.26300001 0.52999997
7.7859998 16.82 0.26499999 0.28999999
7.6170001 16.591999 0.264 0.30000001
7.796 17.051001 0.266 0.31
7.5749998 16.708 0.26499999 0.34
7.539 16.768 0.26499999 0.27000001
7.467 16.747999 0.26499999 0.34
7.5609999 17.101999 0.266 0.31999999
7.2919998 16.636999 0.264 0.30000001
7.3169999 16.764 0.264 0.38999999
7.2610002 16.780001 0.264 0.30000001
7.2490001 16.898001 0.26499999 0.2
7.198 16.924 0.26499999 0.44999999
7.165 16.995001 0.26499999 0.30000001
7.1129999 17.021 0.26499999 0.52999997
7.9899998 19.281 0.273 0.12
7.2129998 17.49 0.266 0.44
7.3150001 17.893999 0.26800001 0.17
6.9619999 17.188999 0.26499999 0.38999999
7.3060002 18.197001 0.26899999 0.14
7.039 17.695 0.26699999 0.28999999
7.6170001 19.318001 0.27200001 0.22
7.1090002 18.200001 0.26800001 0.38
7.0840001 18.223 0.26800001 0.38
7.0380001 18.273001 0.26899999 0.27000001
7.3400002 19.233999 0.27200001 0.44
6.98 18.466 0.26899999 0.31
6.9489999 18.561001 0.26899999 0.55000001
6.8969998 18.6 0.26899999 0.12
6.8039999 18.438 0.26899999 0.30000001
6.776 18.542 0.26899999 0.41999999
6.7859998 18.749001 0.27000001 0.23
6.6409998 18.533001 0.26899999 0.34999999
6.5289998 18.400999 0.26800001 0.27000001
6.2750001 17.865 0.266 0.47
6.2779999 18.056999 0.26699999 0.19
6.171 17.837999 0.266 0.50999999
7.9250002 23.122999 0.28400001 0.16
6.3670001 18.783001 0.26899999 0.31
