# .PCD v0.7 - Point Cloud Data file format
VERSION 0.7
FIELDS x y z intensity
SIZE 4 4 4 4
TYPE F F F F
COUNT 1 1 1 1
WIDTH 1362
HEIGHT 1
VIEWPOINT 0 0 0 1 0 0 0
POINTS 1362
DATA ascii
0.86799997 4.4029999 -0.79699999 0
0.85000002 4.3839998 -0.79299998 0
0.847 4.4029999 -0.796 0
0.83399999 4.4109998 -0.79799998 0
0.81999999 4.4099998 -0.79699999 0
0.80800003 4.4239998 -0.79900002 0
0.79699999 4.4439998 -0.80299997 0
0.78299999 4.4450002 -0.80199999 0
0.76700002 4.4390001 -0.801 0
0.764 4.4580002 -0.80400002 0
0.75 4.46 -0.80400002 0
0.73799998 4.4759998 -0.80699998 0
0.72500002 4.4860001 -0.80900002 0
0.713 4.5 -0.81099999 0
0.69800001 4.494 -0.81 0
0.68699998 4.5219998 -0.815 0
0.68099999 4.5289998 -0.81599998 0
0.667 4.533 -0.81599998 0
0.65399998 4.5430002 -0.81800002 0
0.64200002 4.5599999 -0.82099998 0
0.62599999 4.5479999 -0.81800002 0
0.61400002 4.566 -0.82200003 0
0.60399997 4.599 -0.82800001 0
0.59500003 4.586 -0.82499999 0
0.583 4.6090002 -0.82999998 0
0.56999999 4.6230001 -0.83200002 0
0.55599999 4.6269999 -0.833 0
0.542 4.632 -0.833 0
0.52899998 4.6479998 -0.83600003 0
0.51499999 4.6589999 -0.838 0
0.509 4.6659999 -0.83899999 0
0.495 4.677 -0.84100002 0
0.48100001 4.684 -0.84299999 0
0.46799999 4.7010002 -0.84600002 0
0.454 4.7129998 -0.84799999 0
0.44100001 4.7280002 -0.85100001 0
0.42699999 4.7389998 -0.85299999 0
0.419 4.7319999 -0.85100001 0
0.40599999 4.7540002 -0.85500002 0
0.39199999 4.7729998 -0.85900003 0
0.377 4.776 -0.85900003 0
0.36399999 4.7909999 -0.86199999 0
0.34900001 4.8000002 -0.86400002 0
0.33500001 4.8210001 -0.86799997 0
0.329 4.8309999 -0.87 0
0.31400001 4.842 -0.87199998 0
0.29899999 4.8470001 -0.87300003 0
0.285 4.8610001 -0.87599999 0
0.271 4.888 -0.88099998 0
0.25400001 4.8569999 -0.87400001 0
0.242 4.9109998 -0.88499999 0
0.233 4.895 -0.88200003 0
0.219 4.9159999 -0.88599998 0.029999999
0.204 4.9239998 -0.88800001 0.029999999
0.189 4.9439998 -0.89200002 0.029999999
0.17399999 4.9569998 -0.89399999 0.029999999
0.15899999 4.9749999 -0.898 0.029999999
0.14399999 4.9889998 -0.89999998 0.029999999
0.13699999 5.0149999 -0.90600002 0.029999999
0.122 5.0349998 -0.91000003 0.039999999
0.106 5.0599999 -0.91500002 0.039999999
0.090999998 5.0760002 -0.91799998 0.07
0.075000003 5.0960002 -0.92199999 0.039999999
0.059999999 5.138 -0.93099999 0.07
0.044 5.1459999 -0.93199998 0.039999999
0.035999998 5.1729999 -0.93800002 0.07
0.02 5.2059999 -0.94499999 0.16
0.0040000002 5.2259998 -0.949 0.16
-0.012 5.2610002 -0.95599997 0.039999999
-0.028999999 5.3080001 -0.96600002 0.18000001
-0.046 5.355 -0.97500002 0
-0.063000001 5.382 -0.98100001 0
-0.092 7.8899999 -1.4960001 0
-0.117 7.9050002 -1.499 0
-0.142 7.8850002 -1.495 0.050000001
-0.16599999 7.8829999 -1.494 0.090000004
-0.191 7.8839998 -1.495 0.19
-0.21600001 7.8899999 -1.4960001 0.2
-0.241 7.8769999 -1.494 0.25
-0.25299999 7.8649998 -1.4910001 0.25
-0.27700001 7.8520002 -1.489 0.25999999
-0.30199999 7.8590002 -1.49 0.27000001
-0.32699999 7.8660002 -1.492 0.27000001
-0.35100001 7.8610001 -1.4910001 0.25999999
-0.37599999 7.8600001 -1.4910001 0.25999999
-0.40099999 7.8530002 -1.49 0.27000001
-0.41299999 7.8559999 -1.4910001 0.25999999
-0.43799999 7.8610001 -1.492 0.25999999
-0.46200001 7.848 -1.49 0.25
-0.48800001 7.8600001 -1.492 0.25999999
-0.51200002 7.8499999 -1.4910001 0.27000001
-0.537 7.855 -1.492 0.28
-0.56099999 7.8429999 -1.49 0.22
-0.57300001 7.836 -1.489 0.059999999
-0.59799999 7.8400002 -1.49 0
-0.62300003 7.8400002 -1.49 0
-0.64700001 7.835 -1.49 0
-0.67199999 7.8439999 -1.492 0
-0.69499999 7.8210001 -1.488 0
-0.72000003 7.8239999 -1.489 0
-0.73299998 7.823 -1.489 0
-0.75800002 7.8299999 -1.4910001 0
-0.78399998 7.842 -1.494 0
-0.80699998 7.8239999 -1.49 0
-0.83099997 7.8150001 -1.489 0
-0.85399997 7.7950001 -1.4859999 0
-0.88 7.8080001 -1.489 0
-0.90499997 7.8109999 -1.49 0
-0.917 7.8039999 -1.489 0
-0.93900001 7.783 -1.485 0
-0.96399999 7.7800002 -1.485 0
-1.0089999 7.9419999 -1.5190001 0
-1.054 8.1009998 -1.553 0.059999999
-1.0779999 8.085 -1.55 0.079999998
-1.056 7.8179998 -1.495 0.15000001
-1.081 7.8179998 -1.4960001 0
-1.102 7.79 -1.4910001 0
-1.128 7.8000002 -1.494 0
-1.153 7.8000002 -1.494 0
-1.1799999 7.8119998 -1.498 0.02
-1.202 7.7940001 -1.495 0.11
-1.214 7.789 -1.494 0
-1.24 7.7930002 -1.4960001 0.11
-1.2640001 7.7849998 -1.495 0.11
-1.291 7.7979999 -1.498 0.079999998
-1.3150001 7.79 -1.498 0.039999999
-1.339 7.7859998 -1.498 0.079999998
-1.365 7.7880001 -1.499 0
-1.372 7.7579999 -1.493 0
-1.402 7.7870002 -1.5 0
-1.434 7.8249998 -1.5089999 0
-1.455 7.7989998 -1.5039999 0
-1.477 7.7810001 -1.502 0
-1.497 7.7509999 -1.4960001 0
-1.529 7.789 -1.505 0
-1.55 7.7670002 -1.502 0
-1.576 7.8330002 -1.516 0
-1.632 7.9840002 -1.549 0
-1.647 7.9289999 -1.538 0
-1.648 7.8070002 -1.5140001 0
-1.8430001 7.8189998 -1.525 0
-1.875 7.842 -1.531 0
-2.2320001 9.1630001 -1.812 0.25
-2.26 9.1520004 -1.811 0.23
-2.2950001 9.1709995 -1.817 0.28999999
-2.322 9.158 -1.8150001 0.25
-2.3440001 9.1239996 -1.8099999 0.23
-2.3670001 9.0939999 -1.8049999 0.34999999
-2.388 9.1169996 -1.8099999 0.30000001
-2.424 9.1359997 -1.816 0.19
-2.4449999 9.1020002 -1.8099999 0.22
-2.4790001 9.1129999 -1.8150001 0.31999999
-2.5039999 9.092 -1.812 0.38999999
-2.527 9.0649996 -1.808 0.28999999
-2.562 9.0780001 -1.812 0.38999999
-2.5880001 9.0620003 -1.8099999 0.25999999
-2.6029999 9.0600004 -1.811 0.30000001
-2.635 9.0629997 -1.813 0.31
-2.654 9.0249996 -1.807 0.38
-2.6789999 9.0030003 -1.804 0.31999999
-2.7249999 9.0570002 -1.817 0.23
-2.7520001 9.0419998 -1.816 0.17
-2.7639999 9.0310001 -1.8150001 0.15000001
-2.7839999 8.9940004 -1.808 0.47
-2.823 9.0209999 -1.816 0.44999999
-2.849 9.0039997 -1.8150001 0.2
-2.8829999 9.0139999 -1.819 0.34
-2.9100001 8.9989996 -1.817 0.31999999
-2.925 8.9490004 -1.808 0.41
-2.9389999 8.9460001 -1.809 0.50999999
-2.9820001 8.9820004 -1.819 0.28
-3.01 8.9720001 -1.819 0.2
-3.0339999 8.948 -1.8150001 0.23
-3.0650001 8.948 -1.817 0.36000001
-3.089 8.927 -1.8150001 0.44
-3.1289999 8.9499998 -1.822 0.23999999
-3.1400001 8.9379997 -1.821 0.18000001
-3.1670001 8.9239998 -1.8200001 0.30000001
-3.2019999 8.9350004 -1.824 0.46000001
-3.2279999 8.9169998 -1.823 0.25
-3.256 8.9069996 -1.823 0.19
-3.2780001 8.882 -1.819 0.34
-3.303 8.8640003 -1.818 0.37
-3.3410001 8.8800001 -1.823 0.46000001
-3.3540001 8.8730001 -1.823 0.25
-3.385 8.8710003 -1.825 0.23
-3.4030001 8.8330002 -1.819 0.44999999
-3.438 8.842 -1.823 0.36000001
-3.4749999 8.8549995 -1.829 0.31
-3.493 8.8190002 -1.823 0.38999999
-3.5020001 8.8009996 -1.8200001 0.34999999
-3.529 8.7889996 -1.8200001 0.46000001
-3.566 8.8000002 -1.825 0.40000001
-3.6010001 8.8070002 -1.829 0.28999999
-3.6210001 8.7779999 -1.825 0.36000001
-3.6489999 8.7679996 -1.825 0.37
-3.674 8.7489996 -1.824 0.38
-3.6860001 8.7399998 -1.823 0.44
-3.7130001 8.7259998 -1.823 0.36000001
-3.75 8.7379999 -1.8279999 0.30000001
-3.7720001 8.7139997 -1.825 0.38999999
-3.8039999 8.7130003 -1.827 0.38
-3.8380001 8.7150002 -1.831 0.36000001
-3.8670001 8.7060003 -1.831 0.31
-3.8900001 8.6850004 -1.829 0.34
-3.9000001 8.6700001 -1.827 0.31
-3.908 8.6149998 -1.818 0.41
-3.941 8.6169996 -1.821 0.40000001
-3.9790001 8.6280003 -1.826 0.36000001
-4.0040002 8.6120005 -1.825 0.28999999
-4.027 8.5900002 -1.823 0.41
-4.0549998 8.5790005 -1.824 0.34999999
-4.0650001 8.566 -1.822 0.36000001
-4.073 8.5139999 -1.813 0.34999999
-4.1030002 8.5059996 -1.8150001 0.43000001
-4.145 8.5249996 -1.822 0.41999999
-4.1739998 8.5179996 -1.823 0.31999999
-4.1900001 8.4820004 -1.818 0.28
-4.211 8.4580002 -1.8150001 0.38999999
-4.237 8.4759998 -1.821 0.47999999
-4.2779999 8.4919996 -1.8279999 0.36000001
-4.2930002 8.4560003 -1.823 0.38
-4.3299999 8.4619999 -1.827 0.41999999
-4.369 8.4720001 -1.8329999 0.31999999
-4.3899999 8.448 -1.83 0.20999999
-4.3940001 8.3909998 -1.8200001 0.31999999
-4.3930001 8.3579998 -1.814 0.47999999
-4.4299998 8.3629999 -1.819 0.31
-4.434 8.3079996 -1.809 0.43000001
-4.4530001 8.2819996 -1.806 0.34999999
-4.5040002 8.3140001 -1.817 0.50999999
-4.559 8.3520002 -1.829 0.37
-4.586 8.3389997 -1.829 0.28
-4.5929999 8.3210001 -1.827 0.27000001
-4.6290002 8.3240004 -1.831 0.31999999
-4.6500001 8.3009996 -1.829 0.23999999
-4.677 8.2880001 -1.829 0.31
-4.6890001 8.2480001 -1.823 0.34999999
-4.7129998 8.2299995 -1.823 0.38
-4.7480001 8.2320004 -1.827 0.44999999
-4.7589998 8.2209997 -1.826 0.31
-4.7870002 8.2089996 -1.827 0.38999999
-4.8109999 8.191 -1.826 0.30000001
-4.8449998 8.191 -1.829 0.44999999
-4.8699999 8.1739998 -1.829 0.25999999
-4.888 8.1450005 -1.826 0.31
-4.9060001 8.118 -1.823 0.38999999
-4.941 8.1470003 -1.832 0.36000001
-4.9569998 8.1149998 -1.8279999 0.37
-4.9679999 8.0760002 -1.822 0.41999999
-5.0019999 8.0749998 -1.826 0.43000001
-5.0359998 8.073 -1.829 0.38
-5.0510001 8.04 -1.825 0.30000001
-5.0749998 8.0229998 -1.825 0.38999999
-5.1079998 8.0459995 -1.832 0.44
-5.1389999 8.04 -1.835 0.30000001
-5.171 8.0340004 -1.837 0.27000001
-5.1900001 8.0080004 -1.835 0.41999999
-5.217 7.994 -1.835 0.31
-5.244 7.9809999 -1.836 0.30000001
-5.263 7.9549999 -1.834 0.27000001
-5.2779999 7.9520001 -1.835 0.31999999
-5.2969999 7.9250002 -1.8329999 0.34999999
-5.3119998 7.8940001 -1.829 0.25999999
-5.355 7.9050002 -1.836 0.38
-5.3969998 7.9120002 -1.842 0.33000001
-5.3990002 7.8629999 -1.834 0.20999999
-5.415 7.8330002 -1.831 0.2
-5.434 7.8340001 -1.8329999 0.41
-5.4619999 7.822 -1.834 0.41
-5.4990001 7.822 -1.839 0.38999999
-5.526 7.8080001 -1.839 0.23999999
-5.5359998 7.77 -1.834 0.34999999
-5.5770001 7.777 -1.84 0.38
-5.598 7.7540002 -1.839 0.23999999
-5.6059999 7.7389998 -1.837 0.28999999
-5.6440001 7.7399998 -1.842 0.47
-5.6729999 7.7290001 -1.844 0.25
-5.684 7.6939998 -1.839 0.25999999
-5.7210002 7.6929998 -1.844 0.38999999
-5.7459998 7.677 -1.844 0.23
-5.7670002 7.6539998 -1.8430001 0.20999999
-5.7659998 7.6279998 -1.839 0.38999999
-5.7950001 7.6160002 -1.84 0.41
-5.8260002 7.6069999 -1.8430001 0.31999999
-5.8590002 7.6009998 -1.846 0.41
-5.8969998 7.6009998 -1.851 0.38
-5.908 7.566 -1.846 0.2
-5.934 7.5500002 -1.847 0.38
-5.9349999 7.527 -1.8430001 0.31999999
-5.9419999 7.487 -1.8380001 0.27000001
-5.9489999 7.448 -1.8329999 0.30000001
-6.0170002 7.4840002 -1.847 0.31
-6.039 7.4640002 -1.847 0.54000002
-6.0650001 7.448 -1.847 0.31999999
-6.1100001 7.4559999 -1.855 0.31999999
-6.1059999 7.427 -1.849 0.20999999
-6.1360002 7.415 -1.852 0.28999999
-6.1609998 7.3990002 -1.852 0.31
-6.177 7.3699999 -1.85 0.25
-6.1900001 7.3390002 -1.847 0.2
-6.2220001 7.3299999 -1.849 0.28
-6.2280002 7.2909999 -1.844 0.41999999
-6.2529998 7.296 -1.848 0.25999999
-6.2750001 7.276 -1.848 0.2
-6.283 7.2389998 -1.8430001 0.2
-6.322 7.2379999 -1.849 0.46000001
-6.3530002 7.2270002 -1.851 0.28
-6.3740001 7.2059999 -1.851 0.25999999
-6.3800001 7.1669998 -1.845 0.15000001
-6.3899999 7.1550002 -1.845 0.23
-6.3930001 7.1129999 -1.839 0.41999999
-6.395 7.0710001 -1.8329999 0.43000001
-6.414 7.0469999 -1.832 0.28999999
-6.4530001 7.0450001 -1.837 0.30000001
-6.4829998 7.0339999 -1.839 0.27000001
-6.4970002 7.0050001 -1.837 0.52999997
-6.5159998 7.0029998 -1.839 0.31999999
-6.5570002 7.0029998 -1.845 0.34999999
-6.5760002 6.9790001 -1.844 0.28999999
-6.5879998 6.9489999 -1.841 0.28999999
-6.6100001 6.928 -1.841 0.28
-6.6430001 6.9180002 -1.845 0.28999999
-6.6589999 6.8920002 -1.8430001 0.28999999
-6.6599998 6.8709998 -1.84 0.28
-6.691 6.8600001 -1.8430001 0.28999999
-6.717 6.8429999 -1.844 0.30000001
-6.7410002 6.8249998 -1.845 0.28
-6.7789998 6.8210001 -1.85 0.34
-6.809 6.8080001 -1.852 0.28999999
-6.8410001 6.7969999 -1.8559999 0.34
-6.8649998 6.7989998 -1.859 0.28999999
-6.9000001 6.7909999 -1.863 0.31999999
-6.9359999 6.7849998 -1.868 0.38
-6.9699998 6.7750001 -1.8710001 0.37
-6.994 6.756 -1.872 0.31
-7.0029998 6.7220001 -1.868 0.28999999
-7.0339999 6.7090001 -1.8710001 0.28999999
-7.0549998 6.6869998 -1.8710001 0.28999999
-7.0609999 6.6719999 -1.87 0.28999999
-7.086 6.6539998 -1.8710001 0.28
-7.0970001 6.6220002 -1.868 0.28999999
-7.1149998 6.5970001 -1.868 0.20999999
-7.152 6.5890002 -1.872 0.28999999
-7.1490002 6.5450001 -1.8660001 0.25
-7.1760001 6.5279999 -1.867 0.2
-7.1960001 6.526 -1.87 0.28
-7.2150002 6.5019999 -1.87 0.25
-7.2280002 6.473 -1.868 0.2
-7.2610002 6.4619999 -1.8710001 0.27000001
-7.276 6.434 -1.87 0.25
-7.29 6.4060001 -1.868 0.2
-7.3060002 6.4000001 -1.87 0.28
-7.323 6.3740001 -1.869 0.25
-7.3520002 6.3590002 -1.8710001 0.25
-7.3600001 6.3249998 -1.868 0.18000001
-7.3870001 6.309 -1.87 0.28
-7.3979998 6.2779999 -1.868 0.25
-7.4330001 6.2670002 -1.872 0.23999999
-7.4250002 6.2399998 -1.867 0.2
-7.4499998 6.2220001 -1.868 0.28
-7.474 6.2020001 -1.87 0.25
-7.4889998 6.1750002 -1.868 0.2
-7.5100002 6.1529999 -1.869 0.27000001
-7.5279999 6.1279998 -1.868 0.25
-7.5489998 6.105 -1.869 0.2
-7.572 6.085 -1.87 0.28
-7.5879998 6.0780001 -1.872 0.25
-7.5960002 6.046 -1.869 0.25999999
-7.6199999 6.026 -1.87 0.2
-7.6469998 6.0079999 -1.872 0.25999999
-7.6500001 5.9720001 -1.868 0.23
-7.6799998 5.9559999 -1.8710001 0.2
-7.6919999 5.9460001 -1.872 0.25999999
-7.697 5.9109998 -1.868 0.23
-7.7179999 5.8899999 -1.869 0.2
-7.7490001 5.875 -1.872 0.25
-7.7579999 5.8429999 -1.87 0.2
-7.783 5.8239999 -1.8710001 0.25
-7.8010001 5.7989998 -1.8710001 0.2
-7.8049998 5.783 -1.87 0.25
-7.8189998 5.7550001 -1.869 0.2
-7.8460002 5.7379999 -1.8710001 0.23
-7.875 5.7210002 -1.874 0.2
-7.8839998 5.6890001 -1.872 0.12
-7.8909998 5.6570001 -1.869 0.2
-7.9130001 5.6350002 -1.87 0.11
-7.9239998 5.6059999 -1.868 0.2
-7.9569998 5.6100001 -1.874 0.11
-7.96 5.5749998 -1.8710001 0.18000001
-7.9780002 5.5500002 -1.8710001 0.20999999
-8 5.5279999 -1.872 0.1
-8.0109997 5.4990001 -1.87 0.18000001
-8.0270004 5.4720001 -1.87 0.20999999
-8.0489998 5.4510002 -1.8710001 0.1
-8.052 5.4349999 -1.87 0.19
-8.0579996 5.402 -1.867 0.050000001
-8.0909996 5.3870001 -1.8710001 0.17
-8.0900002 5.3499999 -1.867 0.050000001
-8.1049995 5.323 -1.8660001 0.17
-8.1459999 5.3140001 -1.872 0.19
-8.1499996 5.2800002 -1.869 0.18000001
-8.158 5.2670002 -1.869 0.18000001
-8.1780005 5.243 -1.87 0.17
-8.1960001 5.2189999 -1.87 0.17
-8.2040005 5.1880002 -1.868 0.16
-8.2270002 5.1659999 -1.87 0.039999999
-8.2279997 5.131 -1.8660001 0.16
-8.2510004 5.1090002 -1.868 0.18000001
-8.2670002 5.1009998 -1.87 0.18000001
-8.2770004 5.0710001 -1.868 0.17
-8.2860003 5.0409999 -1.867 0.17
-8.3129997 5.0219998 -1.87 0.18000001
-8.3260002 4.994 -1.869 0.16
-8.3409996 4.9679999 -1.869 0.18000001
-8.3579998 4.96 -1.8710001 0.18000001
-8.3660002 4.9289999 -1.869 0.17
-8.3769999 4.9000001 -1.868 0.17
-8.401 4.8790002 -1.87 0.17
-8.4069996 4.8470001 -1.868 0.17
-8.4209995 4.8200002 -1.868 0.17
-8.4460001 4.7989998 -1.87 0.17
-8.4449997 4.7810001 -1.868 0.17
-8.4530001 4.7509999 -1.8660001 0.17
-8.4770002 4.7290001 -1.868 0.17
-8.4809999 4.697 -1.8660001 0.17
-8.5010004 4.6729999 -1.867 0.17
-8.507 4.6409998 -1.865 0.17
-8.5220003 4.6149998 -1.865 0.17
-8.5200005 4.5970001 -1.863 0.18000001
-8.5489998 4.5770001 -1.8660001 0.18000001
-8.5539999 4.546 -1.864 0.18000001
-8.5649996 4.5170002 -1.864 0.18000001
-8.5810003 4.4910002 -1.864 0.18000001
-8.5930004 4.4629998 -1.864 0.039999999
-8.6040001 4.434 -1.863 0.16
-8.6140003 4.4219999 -1.864 0.050000001
-8.6160002 4.3889999 -1.8609999 0.18000001
-8.6450005 4.3699999 -1.864 0.19
-8.6639996 4.3460002 -1.8660001 0.1
-8.6549997 4.3070002 -1.86 0.18000001
-8.6739998 4.2820001 -1.862 0.2
-8.6929998 4.2579999 -1.863 0.1
-8.6890001 4.2389998 -1.86 0.18000001
-8.7110004 4.2160001 -1.862 0.050000001
-8.7150002 4.184 -1.86 0.17
-8.7340002 4.1589999 -1.862 0.2
-8.7410002 4.1290002 -1.86 0.1
-8.7489996 4.099 -1.859 0.18000001
-8.7639999 4.073 -1.86 0.2
-8.7819996 4.0479999 -1.8609999 0.1
-8.7679996 4.0250001 -1.8559999 0.18000001
-8.7930002 4.0029998 -1.859 0.19
-8.8059998 3.9749999 -1.859 0.1
-8.8179998 3.947 -1.859 0.18000001
-8.8249998 3.9170001 -1.858 0.050000001
-8.8389997 3.8900001 -1.858 0.18000001
-8.8369999 3.8729999 -1.8559999 0.050000001
-8.8540001 3.8469999 -1.858 0.17
-8.868 3.8199999 -1.858 0.050000001
-8.8780003 3.7909999 -1.858 0.17
-8.8950005 3.766 -1.859 0.18000001
-8.9049997 3.737 -1.858 0.18000001
-8.915 3.7079999 -1.858 0.18000001
-8.9230003 3.6949999 -1.858 0.18000001
-8.9359999 3.668 -1.859 0.17
-8.9530001 3.642 -1.86 0.17
-8.9630003 3.6129999 -1.86 0.17
-8.9630003 3.5799999 -1.857 0.17
-8.9779997 3.5539999 -1.858 0.17
-8.9890003 3.526 -1.858 0.18000001
-8.9870005 3.5090001 -1.8559999 0.17
-9.0019999 3.4820001 -1.857 0.17
-9.0129995 3.4530001 -1.857 0.18000001
-9.026 3.4260001 -1.858 0.16
-9.0270004 3.3940001 -1.8559999 0.17
-9.052 3.3710001 -1.859 0.17
-9.059 3.3410001 -1.858 0.17
-9.066 3.3280001 -1.858 0.17
-9.073 3.2980001 -1.858 0.17
-9.0869999 3.2709999 -1.858 0.18000001
-9.0839996 3.237 -1.8559999 0.18000001
-9.1040001 3.2119999 -1.858 0.17
-9.1120005 3.1830001 -1.857 0.17
-9.1160002 3.152 -1.8559999 0.039999999
-9.1079998 3.1340001 -1.853 0.16
-9.1370001 3.1110001 -1.857 0.039999999
-9.1370001 3.079 -1.855 0.17
-9.1540003 3.053 -1.857 0.2
-9.1639996 3.0239999 -1.857 0.1
-9.1709995 2.9949999 -1.8559999 0.18000001
-9.1829996 2.967 -1.857 0.2
-9.1829996 2.951 -1.8559999 0.1
-9.1960001 2.9230001 -1.857 0.18000001
-9.2110004 2.8959999 -1.858 0.2
-9.2069998 2.8629999 -1.855 0.1
-9.2180004 2.835 -1.8559999 0.19
-9.2320004 2.8080001 -1.857 0.1
-9.243 2.779 -1.857 0.19
-9.2639999 2.77 -1.8609999 0.11
-9.243 2.7320001 -1.854 0.20999999
-9.2629995 2.7060001 -1.857 0.15000001
-9.2709999 2.677 -1.857 0.20999999
-9.2639999 2.6429999 -1.854 0.44
-9.2770004 2.615 -1.854 0.38
-9.2869997 2.5869999 -1.855 0.30000001
-9.2889996 2.572 -1.854 0.36000001
-9.2329998 2.5250001 -1.841 0.17
-9.3290005 2.52 -1.86 0.20999999
-9.3430004 2.4920001 -1.8609999 0.1
-9.3540001 2.464 -1.862 0.18000001
-9.3889999 2.441 -1.867 0.27000001
-9.3789997 2.4070001 -1.864 0.25999999
-9.3809996 2.392 -1.863 0.27000001
-9.408 2.368 -1.867 0.28999999
-9.3900003 2.332 -1.862 0.27000001
-9.4110003 2.306 -1.865 0.28999999
-9.4239998 2.277 -1.8660001 0.27000001
-9.4139996 2.244 -1.862 0.27000001
-9.4259996 2.2149999 -1.864 0.28999999
-9.441 2.2030001 -1.8660001 0.28
-9.4370003 2.171 -1.864 0.28999999
-9.4449997 2.142 -1.864 0.28
-9.4440002 2.1099999 -1.862 0.28999999
-9.4510002 2.0810001 -1.862 0.28
-9.4540005 2.05 -1.862 0.28999999
-9.4639997 2.0209999 -1.862 0.27000001
-9.4750004 2.0079999 -1.864 0.25999999
-9.4680004 1.975 -1.8609999 0.28999999
-9.4759998 1.946 -1.862 0.23
-9.4700003 1.914 -1.859 0.19
-9.4630003 1.881 -1.8559999 0.31999999
-9.4799995 1.854 -1.859 0.36000001
-9.4720001 1.822 -1.8559999 0.38999999
-9.4790001 1.807 -1.857 0.28999999
-9.4910002 1.779 -1.858 0.52999997
-9.5039997 1.75 -1.86 0.28999999
-9.5170002 1.722 -1.8609999 0
-9.5439997 1.696 -1.8660001 0
-9.5209999 1.63 -1.859 0.22
-9.5220003 1.615 -1.858 0.23
-9.5170002 1.5829999 -1.8559999 0.2
-9.5279999 1.554 -1.858 0.27000001
-9.5389996 1.525 -1.859 0.23999999
-9.5299997 1.493 -1.8559999 0.19
-9.5459995 1.465 -1.858 0.25999999
-9.5450001 1.434 -1.857 0.23
-9.5469999 1.419 -1.857 0.2
-9.5570002 1.39 -1.858 0.27000001
-9.5690002 1.3609999 -1.86 0.25
-9.5640001 1.33 -1.858 0.2
-9.5719995 1.3 -1.859 0.25999999
-9.5699997 1.2690001 -1.858 0.25
-9.5880003 1.2410001 -1.86 0.19
-9.5930004 1.226 -1.8609999 0.27000001
-9.5909996 1.196 -1.86 0.25
-9.5830002 1.164 -1.858 0.25999999
-9.599 1.135 -1.86 0.25999999
-9.6269999 1.108 -1.865 0.25
-9.6149998 1.076 -1.862 0.18000001
-9.6230001 1.046 -1.863 0.28999999
-9.6280003 1.0319999 -1.864 0.25
-9.625 1.001 -1.862 0.2
-9.6379995 0.97100002 -1.864 0.27000001
-9.6549997 0.94300002 -1.867 0.25
-9.6330004 0.91000003 -1.862 0.20999999
-9.6490002 0.88099998 -1.865 0.28
-9.6520004 0.85000002 -1.865 0.25
-9.6470003 0.83499998 -1.864 0.25
-9.658 0.80500001 -1.865 0.19
-9.6619997 0.77499998 -1.8660001 0.25999999
-9.6569996 0.74400002 -1.864 0.23
-9.665 0.71399999 -1.865 0.2
-9.6689997 0.68400002 -1.8660001 0.25
-9.6809998 0.65399998 -1.868 0.2
-9.6619997 0.63800001 -1.864 0.22
-9.6820002 0.60799998 -1.867 0.2
-9.6859999 0.57800001 -1.868 0.22
-9.6800003 0.54699999 -1.8660001 0.18000001
-9.6929998 0.51700002 -1.868 0.23999999
-9.6929998 0.48699999 -1.868 0.2
-9.698 0.45699999 -1.869 0.11
-9.6990004 0.44100001 -1.869 0.20999999
-9.6960001 0.41100001 -1.868 0.11
-9.6949997 0.38 -1.868 0.19
-9.724 0.35100001 -1.873 0.11
-9.7089996 0.31999999 -1.87 0.2
-9.71 0.289 -1.87 0.11
-9.7290001 0.259 -1.874 0.2
-9.7189999 0.244 -1.872 0.11
-9.7019997 0.213 -1.868 0.19
-9.7299995 0.183 -1.874 0.11
-9.7209997 0.152 -1.872 0.2
-9.7510004 0.122 -1.878 0.11
-9.7379999 0.090999998 -1.875 0.2
-9.7419996 0.061000001 -1.876 0.11
-9.7379999 0.045000002 -1.875 0.19
-9.7559996 0.015 -1.878 0.20999999
-9.7399998 -0.016000001 -1.875 0.18000001
-9.7360001 -0.046999998 -1.874 0.23999999
-9.7419996 -0.077 -1.876 0.19
-9.7550001 -0.108 -1.878 0.25
-9.7550001 -0.138 -1.878 0.19
-9.776 -0.154 -1.883 0.23
-9.7639999 -0.185 -1.88 0.23
-9.7709999 -0.215 -1.882 0.2
-9.7799997 -0.24600001 -1.8839999 0.23999999
-9.7639999 -0.27700001 -1.881 0.22
-9.776 -0.308 -1.8839999 0.18000001
-9.7770004 -0.33899999 -1.8839999 0.25999999
-9.7709999 -0.354 -1.883 0.23
-9.783 -0.38499999 -1.886 0.2
-9.7840004 -0.41600001 -1.886 0.25
-9.7749996 -0.44600001 -1.8839999 0.23
-9.7869997 -0.477 -1.887 0.2
-9.7860003 -0.50800002 -1.887 0.23999999
-9.7790003 -0.523 -1.886 0.22
-9.783 -0.55400002 -1.887 0.2
-9.783 -0.58499998 -1.888 0.23999999
-9.7889996 -0.616 -1.8890001 0.19
-9.7889996 -0.64700001 -1.89 0.25
-9.7969999 -0.67900002 -1.892 0.20999999
-9.7930002 -0.70899999 -1.891 0.12
-9.7869997 -0.74000001 -1.891 0.2
-9.7889996 -0.755 -1.891 0.11
-9.8319998 -0.79000002 -1.901 0.19
-9.835 -0.82099998 -1.902 0.11
-9.8210001 -0.85100001 -1.899 0.2
-9.8219995 -0.88200003 -1.9 0.11
-9.8190002 -0.91299999 -1.9 0.20999999
-9.8339996 -0.94499999 -1.904 0.11
-9.8260002 -0.95999998 -1.903 0.2
-9.8450003 -0.99299997 -1.9069999 0.11
-9.8260002 -1.023 -1.904 0.19
-9.842 -1.056 -1.908 0.11
-9.8249998 -1.085 -1.905 0.2
-9.835 -1.117 -1.908 0.11
-9.8280001 -1.148 -1.9069999 0.19
-9.8459997 -1.165 -1.911 0.11
-9.8500004 -1.197 -1.913 0.17
-9.8400002 -1.228 -1.911 0.20999999
-9.8400002 -1.2589999 -1.9119999 0.18000001
-9.8360004 -1.29 -1.9119999 0.23
-9.8529997 -1.324 -1.9170001 0.2
-9.8360004 -1.353 -1.914 0.23
-9.835 -1.368 -1.914 0.19
-9.823 -1.398 -1.913 0.23
-9.8299999 -1.431 -1.915 0.19
-9.8260002 -1.462 -1.915 0.22
-9.8269997 -1.493 -1.916 0.19
-9.8299999 -1.525 -1.918 0.23
-9.8039999 -1.553 -1.913 0.19
-9.8129997 -1.5700001 -1.916 0.22
-9.8079996 -1.601 -1.916 0.18000001
-9.8170004 -1.6339999 -1.919 0.23999999
-9.8079996 -1.664 -1.918 0.22
-9.8059998 -1.696 -1.919 0.2
-9.7950001 -1.725 -1.9170001 0.25
-9.7989998 -1.758 -1.919 0.23
-9.8059998 -1.775 -1.921 0.2
-9.8000002 -1.806 -1.921 0.25
-9.7950001 -1.837 -1.921 0.23999999
-9.7869997 -1.867 -1.921 0.19
-9.7910004 -1.9 -1.923 0.25999999
-9.7880001 -1.931 -1.924 0.23999999
-9.7840004 -1.962 -1.924 0.2
-9.7930002 -1.98 -1.927 0.25999999
-9.7840004 -2.01 -1.926 0.23
-9.7720003 -2.04 -1.925 0.19
-9.7810001 -2.0739999 -1.928 0.27000001
-9.7749996 -2.1040001 -1.928 0.23999999
-9.7849998 -2.1389999 -1.932 0.23
-9.7609997 -2.1659999 -1.928 0.17
-9.7709999 -2.184 -1.931 0.28
-9.7639999 -2.2149999 -1.931 0.25
-9.7440004 -2.2420001 -1.928 0.19
-9.7519999 -2.276 -1.932 0.27000001
-9.7449999 -2.3069999 -1.932 0.23999999
-9.7510004 -2.3410001 -1.934 0.2
-9.7360001 -2.3699999 -1.933 0.28
-9.7320004 -2.385 -1.933 0.23999999
-9.7229996 -2.415 -1.932 0.28
-9.7279997 -2.4489999 -1.9349999 0.27000001
-9.7449999 -2.4860001 -1.9400001 0.27000001
-9.7220001 -2.5120001 -1.937 0.23
-9.7139997 -2.543 -1.937 0.2
-9.6459999 -2.5580001 -1.924 0.38
-9.5450001 -2.5469999 -1.904 0.34
-9.4969997 -2.566 -1.895 0.5
-9.4840002 -2.595 -1.8940001 0.40000001
-9.4280005 -2.612 -1.8839999 0.28999999
-9.4219999 -2.642 -1.8839999 0.28
-9.3999996 -2.668 -1.882 0.27000001
-9.3369999 -2.6819999 -1.87 0.38
-9.3030005 -2.688 -1.864 0.34
-9.2550001 -2.7049999 -1.855 0.36000001
-9.2049999 -2.7219999 -1.846 0.38
-9.1920004 -2.75 -1.845 0.38
-9.2119999 -2.7869999 -1.852 0.23
-9.1280003 -2.7939999 -1.835 0.51999998
-9.1230001 -2.823 -1.836 0.23
-9.0939999 -2.8299999 -1.831 0.47999999
-9.0830002 -2.858 -1.831 0.41999999
-9.0629997 -2.8829999 -1.8279999 0.36000001
-9.0690002 -2.9159999 -1.831 0.43000001
-8.9820004 -2.9200001 -1.8150001 0.34
-8.8850002 -2.9189999 -1.796 0.25
-8.868 -2.9449999 -1.794 0.50999999
-8.9289999 -2.98 -1.808 0.34999999
-8.915 -3.007 -1.807 0.41999999
-8.8339996 -3.0109999 -1.7920001 0.34
-8.7939997 -3.0280001 -1.785 0.41
-8.7609997 -3.0480001 -1.78 0.44999999
-8.7379999 -3.0710001 -1.777 0.38999999
-8.7399998 -3.102 -1.78 0.43000001
-8.724 -3.112 -1.777 0.30000001
-8.7340002 -3.1459999 -1.7819999 0.38
-8.7040005 -3.1659999 -1.777 0.44999999
-8.6850004 -3.1900001 -1.775 0.31
-8.6359997 -3.204 -1.767 0.47
-8.6129999 -3.2260001 -1.7640001 0.28999999
-8.5550003 -3.22 -1.752 0.38
-8.5299997 -3.2409999 -1.749 0.50999999
-8.467 -3.247 -1.737 0.34
-8.4530001 -3.273 -1.737 0.44
-8.4519997 -3.303 -1.739 0.34
-8.4449997 -3.3310001 -1.739 0.38
-8.4449997 -3.362 -1.742 0.40000001
-8.4440002 -3.3759999 -1.743 0.34999999
-8.3979998 -3.3889999 -1.735 0.47999999
-8.3570004 -3.4030001 -1.728 0.33000001
-8.2609997 -3.3940001 -1.709 0.40000001
-8.1879997 -3.395 -1.6950001 0.44999999
-8.1520004 -3.4100001 -1.6900001 0.38999999
-8.118 -3.4260001 -1.6849999 0.37
-8.1160002 -3.4400001 -1.6849999 0.34999999
-8.1219997 -3.4719999 -1.689 0.37
-8.1700001 -3.523 -1.702 0.31999999
-8.1660004 -3.552 -1.704 0.37
-8.1429996 -3.572 -1.701 0.44
-7.9520001 -3.5190001 -1.661 0.36000001
-7.941 -3.5439999 -1.661 0.38999999
-7.9219999 -3.566 -1.659 0.34
-7.947 -3.592 -1.666 0.41
-7.9070001 -3.6040001 -1.66 0.31999999
-7.875 -3.619 -1.655 0.36000001
-7.8829999 -3.6530001 -1.659 0.34999999
-7.8520002 -3.668 -1.655 0.44
-7.7189999 -3.6370001 -1.628 0.37
-7.8200002 -3.6989999 -1.652 0.34
-7.8600001 -3.7479999 -1.663 0.44999999
-7.763 -3.7320001 -1.6440001 0.31999999
-7.7459998 -3.7539999 -1.643 0.36000001
-7.6799998 -3.7509999 -1.63 0.37
-7.691 -3.7869999 -1.636 0.38999999
-7.6399999 -3.7920001 -1.627 0.36000001
-7.6830001 -3.8280001 -1.638 0.38999999
-7.7360001 -3.885 -1.653 0.38
-7.7309999 -3.9119999 -1.654 0.34
-7.6490002 -3.901 -1.638 0.37
-7.612 -3.9130001 -1.633 0.34999999
-7.6129999 -3.944 -1.636 0.38999999
-7.4710002 -3.9000001 -1.6059999 0.37
-7.4520001 -3.9059999 -1.603 0.31999999
-7.4310002 -3.924 -1.601 0.31
-7.5320001 -4.007 -1.627 0.40000001
-7.3740001 -3.954 -1.5930001 0.41
-7.4200001 -4.0079999 -1.607 0.31
-7.4349999 -4.046 -1.613 0.38
-7.4460001 -4.0830002 -1.619 0.38
-7.4289999 -4.0890002 -1.617 0.44
-7.382 -4.0929999 -1.609 0.43000001
-7.2870002 -4.0710001 -1.589 0.31
-7.3850002 -4.1560001 -1.615 0.38
-7.4120002 -4.2010002 -1.625 0.43000001
-7.3299999 -4.1859999 -1.609 0.36000001
-7.2179999 -4.152 -1.585 0.34
-7.1399999 -4.1230001 -1.568 0.36000001
-7.2600002 -4.2220001 -1.6 0.33000001
-7.2519999 -4.2470002 -1.601 0.43000001
-7.243 -4.2729998 -1.602 0.41
-7.21 -4.2839999 -1.597 0.38999999
-7.066 -4.2290001 -1.566 0.25999999
-6.9689999 -4.2010002 -1.546 0.41
-6.9780002 -4.2210002 -1.55 0.34
-6.9460001 -4.2319999 -1.545 0.30000001
-6.9689999 -4.276 -1.554 0.44999999
-7.0760002 -4.3720002 -1.5829999 0.36000001
-7.1069999 -4.4219999 -1.594 0.28999999
-7.1100001 -4.4549999 -1.598 0.37
-7.066 -4.4580002 -1.591 0.40000001
-7.0469999 -4.4619999 -1.5880001 0.34
-7.0089998 -4.4679999 -1.582 0.30000001
-6.7350001 -4.3249998 -1.5190001 0.44999999
-7.026 -4.5419998 -1.5930001 0.37
-6.9120002 -4.4990001 -1.569 0.36000001
-6.9039998 -4.5250001 -1.5700001 0.34
-6.888 -4.546 -1.5700001 0.36000001
-6.8930001 -4.5640001 -1.573 0.41999999
-6.8460002 -4.5640001 -1.5650001 0.28999999
-6.9000001 -4.631 -1.582 0.40000001
-6.7909999 -4.5890002 -1.558 0.30000001
-6.7620001 -4.6009998 -1.5549999 0.30000001
-6.8559999 -4.6960001 -1.582 0.33000001
-6.8049998 -4.6929998 -1.573 0.31999999
-6.8379998 -4.7319999 -1.5829999 0.44999999
-6.7459998 -4.6999998 -1.564 0.36000001
-6.7379999 -4.7249999 -1.5650001 0.27000001
-6.7340002 -4.7540002 -1.568 0.41
-6.6820002 -4.7490001 -1.559 0.38
-6.6560001 -4.7620001 -1.556 0.36000001
-6.6719999 -4.8049998 -1.564 0.43000001
-6.6669998 -4.8179998 -1.564 0.33000001
-6.652 -4.8390002 -1.564 0.37
-6.5890002 -4.8249998 -1.552 0.36000001
-6.6100001 -4.8720002 -1.562 0.31999999
-6.6079998 -4.902 -1.5650001 0.44
-6.5749998 -4.9099998 -1.5599999 0.37
-6.5419998 -4.9180002 -1.556 0.30000001
-6.5910001 -4.9699998 -1.5700001 0.37
-6.5300002 -4.9569998 -1.559 0.36000001
-6.5019999 -4.9679999 -1.556 0.38
-6.4380002 -4.9510002 -1.543 0.41
-6.4910002 -5.0240002 -1.561 0.31999999
-6.5139999 -5.0749998 -1.571 0.38999999
-6.46 -5.066 -1.561 0.31
-6.4359999 -5.0630002 -1.557 0.38999999
-6.3979998 -5.066 -1.551 0.34
-6.4099998 -5.1079998 -1.558 0.31999999
-6.4070001 -5.1389999 -1.562 0.38999999
-6.4450002 -5.2020001 -1.576 0.25
-6.4510002 -5.2410002 -1.582 0.49000001
-6.3909998 -5.2249999 -1.5700001 0.38999999
-6.3569999 -5.2140002 -1.564 0.2
-6.3239999 -5.2210002 -1.559 0.5
-6.2600002 -5.2020001 -1.5470001 0.34
-6.3340001 -5.2969999 -1.571 0.41999999
-6.1729999 -5.1960001 -1.5319999 0.36000001
-6.1620002 -5.2189999 -1.533 0.31999999
-6.2389998 -5.3179998 -1.559 0.38
-6.204 -5.3049998 -1.552 0.37
-6.105 -5.2540002 -1.529 0.38
-6.0430002 -5.2340002 -1.517 0.28999999
-6.1799998 -5.3860002 -1.559 0.34
-6.0970001 -5.348 -1.541 0.40000001
-6.0079999 -5.3039999 -1.521 0.37
-6.0089998 -5.3210001 -1.523 0.28999999
-6.0450001 -5.3860002 -1.538 0.38
-6.0539999 -5.4289999 -1.545 0.30000001
-6.0050001 -5.4190001 -1.536 0.47999999
-5.9689999 -5.421 -1.531 0.40000001
-5.9260001 -5.4159999 -1.524 0.34999999
-5.888 -5.4159999 -1.518 0.31999999
-5.8829999 -5.428 -1.5190001 0.41
-5.835 -5.4180002 -1.511 0.44
-5.8639998 -5.4790001 -1.523 0.38999999
-5.8330002 -5.4840002 -1.5190001 0.37
-5.8140001 -5.5009999 -1.5190001 0.38
-5.8270001 -5.5479999 -1.527 0.40000001
-5.7820001 -5.54 -1.52 0.40000001
-5.7220001 -5.5009999 -1.505 0.28999999
-5.7290001 -5.5419998 -1.512 0.33000001
-5.684 -5.533 -1.5039999 0.47
-5.6659999 -5.5500002 -1.5039999 0.36000001
-5.6939998 -5.612 -1.517 0.36000001
-5.658 -5.612 -1.512 0.36000001
-5.552 -5.5430002 -1.4859999 0.38999999
-5.5349998 -5.5430002 -1.484 0.37
-5.461 -5.5040002 -1.467 0.28
-5.5310001 -5.6090002 -1.493 0.44
-5.5170002 -5.6300001 -1.494 0.38
-5.4860001 -5.6329999 -1.49 0.34999999
-5.4910002 -5.6739998 -1.497 0.34
-5.4980001 -5.717 -1.5039999 0.43000001
-5.4629998 -5.6989999 -1.4960001 0.31999999
-5.5159998 -5.789 -1.517 0.38
-5.441 -5.7470002 -1.5 0.38999999
-5.4439998 -5.7870002 -1.507 0.40000001
-5.3119998 -5.6830001 -1.473 0.33000001
-5.2709999 -5.6750002 -1.466 0.38
-5.2360001 -5.6729999 -1.461 0.40000001
-5.2839999 -5.743 -1.478 0.33000001
-5.217 -5.7059999 -1.4630001 0.34999999
-5.1830001 -5.7049999 -1.4579999 0.43000001
-5.1669998 -5.723 -1.459 0.25999999
-5.2550001 -5.8569999 -1.4910001 0.38999999
-5.1290002 -5.7540002 -1.4579999 0.38
-5.1009998 -5.7579999 -1.455 0.31
-5.04 -5.7080002 -1.439 0.38999999
-5.066 -5.7729998 -1.4529999 0.40000001
-5.1139998 -5.8639998 -1.473 0.31999999
-5.053 -5.8319998 -1.46 0.34999999
-5.0879998 -5.9099998 -1.477 0.38
-5.0510001 -5.9029999 -1.471 0.34999999
-5.04 -5.928 -1.473 0.36000001
-4.967 -5.862 -1.4529999 0.36000001
-4.9910002 -5.928 -1.467 0.33000001
-5.0190001 -5.9990001 -1.482 0.31999999
-4.9850001 -5.9970002 -1.477 0.44
-4.9530001 -5.9959998 -1.472 0.34
-4.9330001 -6.0100002 -1.472 0.38
-4.9029999 -5.993 -1.465 0.44
-4.8260002 -5.9380002 -1.447 0.34
-4.809 -5.954 -1.447 0.43000001
-4.7909999 -5.9710002 -1.447 0.31
-4.8369999 -6.0669999 -1.469 0.38
-4.829 -6.0960002 -1.472 0.47999999
-4.8080001 -6.1079998 -1.472 0.34999999
-4.743 -6.046 -1.4529999 0.38999999
-4.6620002 -5.9809999 -1.432 0.34
-4.6459999 -6 -1.434 0.38
-4.6490002 -6.0430002 -1.441 0.37
-4.6529999 -6.0869999 -1.449 0.34999999
-4.6529999 -6.1259999 -1.455 0.38
-4.6259999 -6.131 -1.4529999 0.36000001
-4.6209998 -6.145 -1.454 0.38999999
-4.6040001 -6.1630001 -1.455 0.38
-4.5510001 -6.131 -1.443 0.38
-4.546 -6.165 -1.448 0.36000001
-4.4899998 -6.1300001 -1.436 0.43000001
-4.4780002 -6.1539998 -1.438 0.38
-4.4460001 -6.1500001 -1.434 0.40000001
-4.427 -6.1440001 -1.4299999 0.38
-4.3889999 -6.1329999 -1.424 0.36000001
-4.3540001 -6.1240001 -1.418 0.36000001
-4.3210001 -6.119 -1.414 0.37
-4.2859998 -6.1100001 -1.408 0.37
-4.2509999 -6.1009998 -1.402 0.28
-4.2220001 -6.0999999 -1.399 0.5
-4.1999998 -6.0890002 -1.3940001 0.30000001
-4.1880002 -6.112 -1.397 0.41
-4.177 -6.138 -1.4 0.40000001
-4.1789999 -6.1820002 -1.408 0.31
-4.2010002 -6.256 -1.423 0.47999999
-4.1999998 -6.2969999 -1.4299999 0.46000001
-4.0970001 -6.1849999 -1.399 0.31999999
-4.119 -6.2399998 -1.411 0.34
-4.1030002 -6.2579999 -1.4119999 0.41999999
-4.1110001 -6.3130002 -1.4220001 0.33000001
-4.0599999 -6.2789998 -1.411 0.31999999
-4.0949998 -6.375 -1.431 0.33000001
-4.085 -6.4050002 -1.4349999 0.47
-4.125 -6.5120001 -1.4579999 0.25999999
-4.125 -6.533 -1.462 0.28
-4.0409999 -6.4460001 -1.438 0.28
-4.0869999 -6.5640001 -1.4630001 0.38
-3.9990001 -6.4679999 -1.437 0.37
-3.8740001 -6.3130002 -1.396 0.33000001
-3.8740001 -6.3559999 -1.404 0.33000001
-3.8770001 -6.4070001 -1.413 0.31
-4.066 -6.7399998 -1.492 0.30000001
-4.059 -6.776 -1.497 0.34999999
-4.0409999 -6.7950001 -1.499 0.17
-2.401 -4.0869999 -0.84899998 0.31999999
-2.368 -4.0609999 -0.84100002 0.36000001
-2.3499999 -4.0580001 -0.83899999 0.34
-2.329 -4.0359998 -0.833 0.37
-2.3139999 -4.04 -0.83200002 0.38
-2.2939999 -4.0359998 -0.829 0.33000001
-2.266 -4.0159998 -0.82200003 0.46000001
-2.243 -4.0040002 -0.81800002 0.33000001
-2.2279999 -4.0079999 -0.81699997 0.30000001
-2.201 -3.9890001 -0.81099999 0.49000001
-2.1800001 -3.98 -0.80800003 0.30000001
-2.161 -3.96 -0.80199999 0.51999998
-2.1570001 -3.9820001 -0.80599999 0.27000001
-2.141 -3.984 -0.80400002 0.41999999
-2.1170001 -3.9679999 -0.79900002 0.56
-2.1040001 -3.9749999 -0.79900002 0.36000001
-2.0880001 -3.974 -0.79799998 0.41
-2.082 -3.9779999 -0.79799998 0.34999999
-2.0639999 -3.974 -0.79500002 0.47999999
-2.04 -3.9579999 -0.79000002 0.38999999
-2.0239999 -3.957 -0.78799999 0.44999999
-2.02 -3.9809999 -0.792 0.33000001
-2.0009999 -3.9749999 -0.79000002 0.49000001
-1.995 -3.993 -0.792 0.37
-1.985 -3.99 -0.79100001 0.44999999
-1.979 -4.0079999 -0.79400003 0.37
-1.962 -4.0050001 -0.792 0.38999999
-1.9579999 -4.0289998 -0.796 0.41999999
-1.938 -4.0190001 -0.792 0.43000001
-1.933 -4.0430002 -0.796 0.31999999
-1.9170001 -4.0419998 -0.79400003 0.51999998
-1.902 -4.027 -0.79000002 0.41
-1.901 -4.0560002 -0.796 0.41
-1.898 -4.0840001 -0.80000001 0.34
-1.8839999 -4.086 -0.80000001 0.40000001
-1.872 -4.0939999 -0.80000001 0.38999999
-1.864 -4.112 -0.80299997 0.41
-1.85 -4.1139998 -0.80199999 0.41
-1.848 -4.1279998 -0.80400002 0.40000001
-1.848 -4.1620002 -0.81099999 0.38999999
-1.827 -4.1500001 -0.80699998 0.49000001
-1.823 -4.1760001 -0.81099999 0.38
-1.814 -4.1900001 -0.81300002 0.47999999
-1.801 -4.198 -0.81400001 0.40000001
-1.779 -4.1820002 -0.80900002 0.47999999
-1.771 -4.1830001 -0.80800003 0.40000001
-1.763 -4.1989999 -0.81099999 0.40000001
-1.755 -4.217 -0.81400001 0.34
-1.742 -4.2249999 -0.81400001 0.44
-1.7309999 -4.2340002 -0.815 0.41
-1.728 -4.2639999 -0.81999999 0.38999999
-1.72 -4.283 -0.82300001 0.38
-1.719 -4.3000002 -0.82700002 0.44
-1.715 -4.329 -0.83200002 0.50999999
-2.8269999 -7.1570001 -1.455 0.20999999
-2.7950001 -7.1420002 -1.45 0.28999999
-2.773 -7.152 -1.451 0.34999999
-2.7520001 -7.165 -1.451 0.28999999
-2.733 -7.1820002 -1.4529999 0.2
-2.71 -7.1550002 -1.447 0.31999999
-2.6889999 -7.1680002 -1.447 0.51999998
-2.6630001 -7.1669998 -1.4450001 0.28999999
-2.6429999 -7.1830001 -1.447 0.36000001
-2.6229999 -7.198 -1.449 0.31
-2.5999999 -7.2049999 -1.448 0.38999999
-2.573 -7.1999998 -1.4450001 0.28999999
-2.562 -7.204 -1.4450001 0.30000001
-2.5409999 -7.217 -1.447 0.28999999
-2.516 -7.2179999 -1.4450001 0.30000001
-2.4920001 -7.2220001 -1.444 0.30000001
-2.4749999 -7.2470002 -1.448 0.34
-2.444 -7.23 -1.443 0.28999999
-2.437 -7.2470002 -1.4450001 0.34999999
-2.408 -7.2379999 -1.442 0.28
-2.382 -7.2340002 -1.439 0.30000001
-2.3629999 -7.2529998 -1.442 0.30000001
-2.339 -7.257 -1.441 0.28999999
-2.312 -7.2529998 -1.439 0.28999999
-2.29 -7.2600002 -1.439 0.31
-2.2780001 -7.2620001 -1.438 0.31
-2.2539999 -7.2649999 -1.437 0.28999999
-2.2309999 -7.2740002 -1.438 0.31
-2.2049999 -7.27 -1.4349999 0.30000001
-2.1819999 -7.277 -1.4349999 0.28
-2.1589999 -7.283 -1.4349999 0.33000001
-2.1359999 -7.2880001 -1.4349999 0.25999999
-2.128 -7.303 -1.437 0.41
-2.102 -7.3000002 -1.4349999 0.31999999
-2.0769999 -7.3010001 -1.434 0.30000001
-2.053 -7.3039999 -1.433 0.30000001
-2.0280001 -7.303 -1.432 0.30000001
-2.006 -7.3130002 -1.432 0.33000001
-1.983 -7.3189998 -1.432 0.28999999
-1.972 -7.322 -1.432 0.31
-1.948 -7.3260002 -1.432 0.30000001
-1.926 -7.3340001 -1.432 0.30000001
-1.899 -7.3249998 -1.429 0.31999999
-1.877 -7.335 -1.4299999 0.31999999
-1.851 -7.329 -1.428 0.31999999
-1.827 -7.3330002 -1.427 0.33000001
-1.819 -7.348 -1.4299999 0.25
-1.795 -7.3509998 -1.429 0.38999999
-1.771 -7.3509998 -1.428 0.30000001
-1.747 -7.355 -1.428 0.30000001
-1.721 -7.3470001 -1.425 0.23
-1.697 -7.3499999 -1.424 0.30000001
-1.671 -7.3439999 -1.4220001 0.34
-1.66 -7.3449998 -1.4220001 0.37
-1.638 -7.3579998 -1.423 0.38
-1.614 -7.3569999 -1.4220001 0.28999999
-1.589 -7.355 -1.42 0.25999999
-1.569 -7.375 -1.424 0.46000001
-1.545 -7.3740001 -1.4220001 0.30000001
-1.5319999 -7.369 -1.421 0.28999999
-1.5089999 -7.3769999 -1.4220001 0.28999999
-1.4859999 -7.3839998 -1.4220001 0.28999999
-1.464 -7.3899999 -1.4220001 0.33000001
-1.438 -7.3850002 -1.42 0.31
-1.418 -7.4050002 -1.424 0.28999999
-1.393 -7.4000001 -1.4220001 0.31
-1.378 -7.3850002 -1.418 0.23
-1.35 -7.3639998 -1.413 0.31999999
-1.329 -7.3800001 -1.415 0.36000001
-1.306 -7.3860002 -1.416 0.36000001
-1.2819999 -7.382 -1.414 0.30000001
-1.258 -7.3839998 -1.414 0.28999999
-1.235 -7.388 -1.414 0.28999999
-1.221 -7.375 -1.41 0.28
-1.198 -7.381 -1.411 0.37
-1.176 -7.3899999 -1.4119999 0.31
-1.15 -7.3779998 -1.409 0.28999999
-1.125 -7.3720002 -1.4069999 0.25999999
-1.104 -7.3889999 -1.41 0.38
-1.0779999 -7.3709998 -1.405 0.25
-1.069 -7.3909998 -1.409 0.41
-1.044 -7.3800001 -1.406 0.27000001
-1.022 -7.395 -1.408 0.31
-0.99800003 -7.3940001 -1.408 0.33000001
-0.97500002 -7.3990002 -1.408 0.30000001
-0.95200002 -7.3990002 -1.4069999 0.36000001
-0.92900002 -7.4070001 -1.408 0.33000001
-0.91799998 -7.415 -1.41 0.31
-0.89499998 -7.4190001 -1.41 0.27000001
-0.87199998 -7.4219999 -1.41 0.33000001
-0.85000002 -7.4330001 -1.4119999 0.28999999
-0.82599998 -7.4330001 -1.411 0.34
-0.80299997 -7.4419999 -1.4119999 0.31999999
-0.77899998 -7.4400001 -1.4119999 0.27000001
-0.76899999 -7.4569998 -1.415 0.33000001
-0.745 -7.454 -1.414 0.28999999
-0.722 -7.46 -1.414 0.30000001
-0.69800001 -7.454 -1.413 0.30000001
-0.67500001 -7.4580002 -1.413 0.30000001
-0.653 -7.474 -1.416 0.30000001
-0.62800002 -7.461 -1.413 0.28999999
-0.616 -7.46 -1.4119999 0.30000001
-0.59399998 -7.4749999 -1.415 0.28999999
-0.56900001 -7.467 -1.413 0.31999999
-0.54500002 -7.4530001 -1.41 0.25
-0.523 -7.4749999 -1.414 0.38
-0.49900001 -7.4759998 -1.414 0.33000001
-0.47499999 -7.4660001 -1.4119999 0.28999999
-0.46399999 -7.4749999 -1.413 0.28
-0.44 -7.4699998 -1.4119999 0.34999999
-0.41600001 -7.4679999 -1.411 0.28999999
-0.39300001 -7.4770002 -1.413 0.37
-0.37 -7.4879999 -1.415 0.28
-0.34599999 -7.4710002 -1.411 0.36000001
-0.33399999 -7.4679999 -1.41 0.31999999
-0.31 -7.4689999 -1.41 0.30000001
-0.287 -7.4699998 -1.41 0.28999999
-0.264 -7.48 -1.4119999 0.31999999
-0.23999999 -7.4809999 -1.4119999 0.30000001
-0.21699999 -7.4720001 -1.41 0.31
-0.193 -7.4829998 -1.4119999 0.28999999
-0.18099999 -7.473 -1.41 0.28
-0.15800001 -7.46 -1.408 0.28
-0.134 -7.4759998 -1.411 0.28999999
-0.111 -7.4780002 -1.411 0.31999999
-0.086999997 -7.4689999 -1.409 0.30000001
-0.064000003 -7.4749999 -1.41 0.28999999
-0.039999999 -7.4650002 -1.408 0.30000001
-0.028999999 -7.467 -1.409 0.28
-0.0049999999 -7.4749999 -1.41 0.28
0.017999999 -7.4650002 -1.408 0.28999999
0.041999999 -7.4520001 -1.406 0.25
0.064999998 -7.448 -1.405 0.25999999
0.088 -7.4489999 -1.405 0.44
0.112 -7.461 -1.408 0.30000001
0.124 -7.4699998 -1.41 0.31999999
0.147 -7.4640002 -1.408 0.30000001
0.17 -7.4439998 -1.404 0.25999999
0.19400001 -7.4569998 -1.4069999 0.34
0.21699999 -7.4559999 -1.4069999 0.31999999
0.241 -7.4520001 -1.406 0.31
0.264 -7.4549999 -1.4069999 0.28999999
0.27599999 -7.4530001 -1.4069999 0.30000001
0.29899999 -7.4419999 -1.405 0.28999999
0.32300001 -7.4530001 -1.4069999 0.34
0.34599999 -7.4530001 -1.408 0.30000001
0.37 -7.4499998 -1.4069999 0.33000001
0.39399999 -7.4629998 -1.41 0.31999999
0.40400001 -7.4429998 -1.406 0.27000001
0.428 -7.4369998 -1.405 0.34
0.44999999 -7.4239998 -1.403 0.28
0.47499999 -7.4419999 -1.4069999 0.37
0.498 -7.4369998 -1.406 0.27000001
0.52200001 -7.4390001 -1.4069999 0.31999999
0.54500002 -7.434 -1.406 0.31999999
0.55599999 -7.427 -1.405 0.34999999
0.579 -7.421 -1.404 0.28
0.60299999 -7.4349999 -1.4069999 0.38
0.62699997 -7.4289999 -1.406 0.28
0.64899999 -7.4190001 -1.405 0.30000001
0.67299998 -7.4190001 -1.405 0.28999999
0.69700003 -7.4229999 -1.406 0.34
0.70700002 -7.4120002 -1.404 0.27000001
0.73100001 -7.4180002 -1.406 0.30000001
0.75400001 -7.4109998 -1.405 0.28999999
0.77700001 -7.4070001 -1.405 0.33000001
0.80199999 -7.4159999 -1.4069999 0.34
0.824 -7.4039998 -1.405 0.27000001
0.84799999 -7.4070001 -1.406 0.28999999
0.85900003 -7.402 -1.406 0.31999999
0.88200003 -7.3990002 -1.406 0.25999999
0.90700001 -7.4039998 -1.4069999 0.38999999
0.93000001 -7.401 -1.4069999 0.34999999
0.95200002 -7.3909998 -1.406 0.20999999
0.97600001 -7.3920002 -1.406 0.31
1 -7.3940001 -1.408 0.34
1.011 -7.3870001 -1.406 0.28999999
1.035 -7.3909998 -1.408 0.30000001
1.058 -7.3839998 -1.4069999 0.31999999
1.082 -7.3870001 -1.408 0.33000001
1.102 -7.3660002 -1.405 0.28
1.128 -7.3779998 -1.408 0.31999999
1.151 -7.3720002 -1.408 0.30000001
1.16 -7.3590002 -1.405 0.28999999
1.184 -7.3610001 -1.406 0.25999999
1.207 -7.3530002 -1.406 0.31
1.2309999 -7.355 -1.4069999 0.34
1.2539999 -7.349 -1.406 0.31999999
1.278 -7.355 -1.408 0.31999999
1.299 -7.3379998 -1.406 0.28
1.312 -7.3410001 -1.4069999 0.30000001
1.334 -7.3330002 -1.406 0.30000001
1.359 -7.3369999 -1.408 0.31999999
1.381 -7.329 -1.4069999 0.31
1.403 -7.322 -1.406 0.28999999
1.429 -7.3309999 -1.409 0.31
1.438 -7.3179998 -1.4069999 0.28999999
1.462 -7.3169999 -1.408 0.27000001
1.484 -7.3060002 -1.406 0.34
1.508 -7.3060002 -1.4069999 0.33000001
1.5319999 -7.3070002 -1.408 0.30000001
1.556 -7.3080001 -1.41 0.31
1.577 -7.2930002 -1.408 0.28999999
1.589 -7.2919998 -1.408 0.33000001
1.612 -7.2909999 -1.409 0.31
1.635 -7.2839999 -1.408 0.30000001
1.66 -7.289 -1.41 0.33000001
1.681 -7.276 -1.409 0.25999999
1.705 -7.2740002 -1.41 0.33000001
1.728 -7.2690001 -1.41 0.30000001
1.738 -7.2600002 -1.408 0.34
1.762 -7.2610002 -1.41 0.34
1.7819999 -7.2459998 -1.408 0.31999999
1.807 -7.2490001 -1.41 0.31
1.832 -7.2490001 -1.411 0.28999999
1.853 -7.2379999 -1.41 0.31
1.8789999 -7.243 -1.4119999 0.30000001
1.888 -7.2309999 -1.41 0.33000001
1.91 -7.223 -1.41 0.31
1.937 -7.2360001 -1.414 0.27000001
1.961 -7.2319999 -1.414 0.34
1.98 -7.2119999 -1.411 0.28999999
2.0090001 -7.2290001 -1.416 0.34999999
2.029 -7.2129998 -1.414 0.28
2.0420001 -7.2150002 -1.415 0.36000001
2.0680001 -7.2199998 -1.418 0.34999999
2.0899999 -7.2119999 -1.4170001 0.28999999
2.1099999 -7.198 -1.416 0.33000001
2.1359999 -7.2020001 -1.418 0.27000001
2.155 -7.184 -1.416 0.30000001
2.1689999 -7.1880002 -1.4170001 0.30000001
2.1900001 -7.1760001 -1.416 0.31999999
2.2160001 -7.1799998 -1.418 0.28999999
2.2360001 -7.1659999 -1.4170001 0.28999999
2.2609999 -7.1659999 -1.418 0.28999999
2.28 -7.1479998 -1.416 0.30000001
2.303 -7.1430001 -1.416 0.28999999
2.3180001 -7.1500001 -1.419 0.28999999
2.3380001 -7.1370001 -1.418 0.30000001
2.3570001 -7.119 -1.415 0.28999999
2.3840001 -7.1240001 -1.418 0.28999999
2.408 -7.1240001 -1.42 0.31999999
2.427 -7.105 -1.4170001 0.28999999
2.451 -7.1030002 -1.418 0.28999999
2.4619999 -7.0999999 -1.418 0.31
2.4820001 -7.0819998 -1.416 0.28999999
2.506 -7.0819998 -1.418 0.31999999
2.527 -7.0689998 -1.4170001 0.31999999
2.549 -7.0619998 -1.4170001 0.31
2.5780001 -7.073 -1.421 0.31
2.5940001 -7.0479999 -1.418 0.30000001
2.605 -7.0419998 -1.4170001 0.30000001
2.632 -7.0469999 -1.42 0.28999999
2.6530001 -7.0370002 -1.42 0.31999999
2.6760001 -7.0300002 -1.42 0.33000001
2.697 -7.02 -1.42 0.28999999
2.727 -7.0320001 -1.424 0.30000001
2.7409999 -7.0009999 -1.419 0.28999999
2.756 -7.0079999 -1.4220001 0.28999999
2.777 -6.9949999 -1.421 0.28
2.796 -6.9790001 -1.419 0.37
2.8199999 -6.9759998 -1.42 0.30000001
2.846 -6.9780002 -1.423 0.28999999
2.862 -6.954 -1.42 0.23999999
2.891 -6.9619999 -1.423 0.38
2.898 -6.948 -1.421 0.30000001
2.9200001 -6.941 -1.4220001 0.27000001
2.947 -6.9419999 -1.424 0.33000001
2.9649999 -6.9239998 -1.4220001 0.31999999
2.9860001 -6.9130001 -1.4220001 0.31
3.01 -6.9089999 -1.423 0.30000001
3.0280001 -6.8920002 -1.421 0.31999999
3.0350001 -6.8790002 -1.419 0.28999999
3.0650001 -6.8889999 -1.424 0.34999999
3.0810001 -6.8660002 -1.421 0.30000001
3.1010001 -6.8530002 -1.42 0.28
3.1210001 -6.8400002 -1.419 0.34
3.145 -6.835 -1.42 0.31
3.1619999 -6.8429999 -1.423 0.30000001
3.1760001 -6.8169999 -1.42 0.28999999
3.197 -6.8070002 -1.42 0.34
3.223 -6.8070002 -1.4220001 0.31
3.2449999 -6.7969999 -1.4220001 0.30000001
3.263 -6.7800002 -1.42 0.31999999
3.286 -6.7729998 -1.421 0.28999999
3.299 -6.7729998 -1.4220001 0.30000001
3.3169999 -6.756 -1.421 0.30000001
3.3380001 -6.7449999 -1.421 0.30000001
3.3610001 -6.7379999 -1.4220001 0.28999999
3.3829999 -6.73 -1.4220001 0.33000001
3.401 -6.7140002 -1.421 0.25999999
3.427 -6.7119999 -1.423 0.38999999
3.4349999 -6.7010002 -1.4220001 0.31
3.4579999 -6.6939998 -1.4220001 0.31
3.48 -6.6849999 -1.423 0.31999999
3.5009999 -6.6739998 -1.423 0.33000001
3.523 -6.6659999 -1.424 0.31999999
3.5480001 -6.6620002 -1.425 0.31
3.5639999 -6.6420002 -1.423 0.30000001
3.576 -6.6399999 -1.424 0.30000001
3.596 -6.6269999 -1.424 0.34
3.6129999 -6.6090002 -1.4220001 0.28999999
3.641 -6.6090002 -1.425 0.30000001
3.661 -6.5960002 -1.424 0.34999999
3.6830001 -6.5879998 -1.425 0.31999999
3.701 -6.5710001 -1.424 0.31
3.717 -6.5760002 -1.426 0.31999999
3.7320001 -6.5539999 -1.424 0.28999999
3.7539999 -6.5450001 -1.425 0.34
3.78 -6.5419998 -1.427 0.34999999
3.8010001 -6.5320001 -1.427 0.34999999
3.8210001 -6.5180001 -1.427 0.31
3.8280001 -6.507 -1.426 0.28999999
3.845 -6.4879999 -1.424 0.28
3.8729999 -6.4899998 -1.427 0.31
3.8970001 -6.4840002 -1.429 0.33000001
3.9170001 -6.4699998 -1.428 0.31999999
3.9300001 -6.4460001 -1.426 0.28999999
3.9579999 -6.447 -1.429 0.34
3.964 -6.434 -1.427 0.30000001
3.984 -6.4219999 -1.427 0.31999999
4.013 -6.4229999 -1.4299999 0.34
4.0279999 -6.402 -1.428 0.31999999
4.0450001 -6.3839998 -1.427 0.30000001
4.073 -6.3850002 -1.4299999 0.33000001
4.085 -6.3579998 -1.427 0.31
4.098 -6.3569999 -1.428 0.28999999
4.1160002 -6.3410001 -1.428 0.31
4.1360002 -6.3280001 -1.428 0.27000001
4.1599998 -6.3210001 -1.429 0.33000001
4.1739998 -6.3000002 -1.427 0.28999999
4.2020001 -6.2979999 -1.4299999 0.34999999
4.2189999 -6.2820001 -1.429 0.28999999
4.2280002 -6.2740002 -1.429 0.27000001
4.2480001 -6.2600002 -1.429 0.38999999
4.2620001 -6.2389998 -1.427 0.28999999
4.2950001 -6.2449999 -1.432 0.33000001
4.302 -6.2140002 -1.427 0.34999999
4.3239999 -6.2030001 -1.428 0.30000001
4.3579998 -6.211 -1.433 0.36000001
4.355 -6.1859999 -1.429 0.31999999
4.3720002 -6.1690001 -1.428 0.25
4.402 -6.1700001 -1.432 0.38
4.4169998 -6.1490002 -1.4299999 0.31999999
4.4299998 -6.1279998 -1.428 0.30000001
4.4619999 -6.131 -1.432 0.28999999
4.4640002 -6.1129999 -1.4299999 0.31
4.4840002 -6.1009998 -1.4299999 0.31999999
4.5089998 -6.0939999 -1.432 0.28999999
4.5250001 -6.0749998 -1.431 0.38999999
4.5469999 -6.066 -1.432 0.30000001
4.573 -6.0609999 -1.4349999 0.37
4.5710001 -6.0180001 -1.427 0.28
4.5949998 -6.0300002 -1.432 0.28
4.6220002 -6.026 -1.4349999 0.31
