# .PCD v0.7 - Point Cloud Data file format
VERSION 0.7
FIELDS x y z intensity
SIZE 4 4 4 4
TYPE F F F F
COUNT 1 1 1 1
WIDTH 1519
HEIGHT 1
VIEWPOINT 0 0 0 1 0 0 0
POINTS 1519
DATA ascii
10.123 -11.316 -0.84299999 0.51999998
10.217 -11.35 -0.84899998 0.18000001
11.072 -12.225 -0.93300003 0.28999999
11.332 -12.434 -0.95499998 0.25999999
10.342 -11.273 -0.85000002 0.54000002
10.724 -11.581 -0.884 0.61000001
11.17 -11.989 -0.92500001 0.25
11.886 -12.679 -0.99400002 0.47999999
11.765 -12.47 -0.977 0.28999999
11.447 -12.057 -0.94199997 0.23
11.459 -11.993 -0.93900001 0.19
11.111 -11.591 -0.903 0.60000002
11.105 -11.512 -0.898 0.23999999
10.572 -10.889 -0.84200001 0.43000001
10.854 -11.11 -0.86699998 0.14
10.653 -10.835 -0.84299999 0.63999999
10.708 -10.823 -0.84500003 0.17
11.734 -11.789 -0.94199997 0.60000002
11.824 -11.843 -0.949 0.20999999
11.593 -11.538 -0.92299998 0.28999999
11.619 -11.492 -0.92199999 0.5
11.937 -11.732 -0.949 0.41
12.2 -11.917 -0.97100002 0.33000001
12.339 -11.977 -0.98100001 0.41
12.219 -11.823 -0.96799999 0.31999999
11.924 -11.465 -0.93599999 0.28999999
11.846 -11.318 -0.92500001 0.30000001
12.385 -11.76 -0.97299999 0.5
12.433 -11.732 -0.97399998 0.23
12.713 -11.921 -0.99699998 0.51999998
12.838 -11.963 -1.005 0.28
12.655 -11.755 -0.986 0.44999999
12.727 -11.747 -0.99000001 0.23999999
12.593 -11.551 -0.97399998 0.49000001
13.048 -11.893 -1.013 0.23
12.112 -10.968 -0.92199999 0.33000001
12.137 -10.922 -0.921 0.34999999
12.172 -10.884 -0.921 0.54000002
12.184 -10.861 -0.921 0.38
13.243 -11.733 -1.015 0.36000001
12.128 -10.674 -0.90899998 0.2
12.045 -10.534 -0.89899999 0.51999998
12.163 -10.57 -0.90700001 0.34999999
12.251 -10.579 -0.912 0.40000001
12.896 -11.103 -0.96899998 0.31
12.999 -11.12 -0.97500002 0.47999999
13.887 -11.807 -1.052 0.25
13.873 -11.721 -1.0470001 0.34999999
13.97 -11.727 -1.053 0.40000001
13.858 -11.559 -1.04 0.31
13.618 -11.286 -1.015 0.27000001
13.604 -11.238 -1.012 0.44999999
14.181 -11.642 -1.0599999 0.36000001
14.287 -11.654 -1.066 0.40000001
13.94 -11.297 -1.0319999 0.28999999
13.854 -11.155 -1.022 0.33000001
14.059 -11.248 -1.0369999 0.34999999
14.095 -11.205 -1.0369999 0.25999999
15.2 -12.046 -1.132 0.55000001
15.216 -11.981 -1.13 0.22
15.244 -11.926 -1.13 0.28
15.466 -12.022 -1.146 0.30000001
15.877 -12.263 -1.178 0.36000001
14.337 -10.998 -1.041 0.38
15.221 -11.64 -1.1160001 0.37
15.256 -11.591 -1.1160001 0.38
14.528 -10.965 -1.05 0.34
15.111 -11.332 -1.097 0.31999999
15.248 -11.359 -1.1059999 0.30000001
15.253 -11.289 -1.103 0.38999999
15.415 -11.334 -1.114 0.34
15.95 -11.691 -1.159 0.22
15.494 -11.281 -1.117 0.43000001
15.434 -11.163 -1.108 0.23999999
15.004 -10.779 -1.069 0.16
15.029 -10.725 -1.068 0.41999999
15.152 -10.742 -1.076 0.5
16.337 -11.508 -1.173 0.18000001
15.481 -10.866 -1.099 0.38
15.497 -10.805 -1.098 0.31999999
15.462 -10.709 -1.092 0.23999999
16.341 -11.244 -1.163 0.54000002
17.038 -11.646 -1.2180001 0.27000001
16.07 -10.908 -1.1339999 0.16
15.972 -10.805 -1.125 0.47999999
16.966999 -11.402 -1.204 0.46000001
17.184999 -11.471 -1.219 0.25999999
17.195999 -11.4 -1.217 0.23999999
17.254999 -11.362 -1.219 0.40000001
17.503 -11.446 -1.237 0.23999999
17.264999 -11.213 -1.214 0.38999999
17.336 -11.22 -1.219 0.30000001
17.378 -11.17 -1.219 0.51999998
17.438 -11.132 -1.221 0.25999999
17.417 -11.041 -1.217 0.44
17.791 -11.201 -1.244 0.23
18.26 -11.417 -1.28 0.38999999
18.162001 -11.276 -1.2690001 0.20999999
18.414 -11.393 -1.288 0.44999999
18.891001 -11.607 -1.323 0.25
18.591 -11.342 -1.296 0.23
18.495001 -11.203 -1.286 0.28
18.798 -11.307 -1.307 0.44999999
18.752001 -11.199 -1.301 0.31
19.080999 -11.355 -1.326 0.31
19.329 -11.421 -1.3430001 0.2
19.334 -11.342 -1.34 0.30000001
19.263 -11.219 -1.332 0.38999999
19.393 -11.214 -1.339 0.40000001
20.393 -11.708 -1.416 0.22
20.631001 -11.759 -1.432 0.30000001
20.628 -11.715 -1.4299999 0.27000001
20.788 -11.719 -1.4400001 0.23
20.829 -11.656 -1.4400001 0.34
20.816 -11.563 -1.436 0.41999999
20.861 -11.503 -1.437 0.34
20.985001 -11.485 -1.444 0.22
21.091 -11.457 -1.449 0.46000001
21.011 -11.371 -1.442 0.25
21.063999 -11.314 -1.443 0.36000001
21.122 -11.26 -1.4450001 0.2
21.131001 -11.18 -1.443 0.36000001
18.135 -9.5179996 -1.207 0.2
18.249001 -9.5050001 -1.214 0.27000001
18.360001 -9.526 -1.221 0.28999999
18.503 -9.5270004 -1.23 0.28999999
18.639 -9.5229998 -1.238 0.23999999
18.781 -9.5220003 -1.247 0.18000001
19.042999 -9.5790005 -1.265 0.43000001
19.205999 -9.5869999 -1.275 0.25
19.326 -9.5699997 -1.2819999 0.22
19.414 -9.5760002 -1.2869999 0.36000001
19.483999 -9.5349998 -1.29 0.23999999
19.610001 -9.5209999 -1.298 0.28
19.76 -9.5170002 -1.307 0.28999999
19.913 -9.5139999 -1.316 0.28999999
20.073999 -9.5139999 -1.326 0.25
20.447001 -9.573 -1.351 0.38999999
21.009001 -9.757 -1.392 0.16
21.132 -9.7329998 -1.399 0.20999999
21.115 -9.6450005 -1.395 0.34
21.353001 -9.6730003 -1.411 0.28999999
21.559 -9.6850004 -1.424 0.25999999
21.797001 -9.71 -1.4400001 0.37
21.791 -9.6660004 -1.438 0.33000001
21.889999 -9.6280003 -1.443 0.38999999
22.207001 -9.6850004 -1.465 0.23
22.528999 -9.7419996 -1.487 0.14
21.503 -9.217 -1.408 0.57999998
22.462999 -9.5459995 -1.477 0.20999999
22.364 -9.4619999 -1.469 0.20999999
22.224001 -9.3210001 -1.456 0.30000001
22.316 -9.2770004 -1.461 0.36000001
22.546 -9.29 -1.476 0.28999999
22.702999 -9.2709999 -1.485 0.28
22.798 -9.2270002 -1.49 0.36000001
22.872 -9.1730003 -1.493 0.28999999
22.908001 -9.1459999 -1.495 0.36000001
23.018 -9.1059999 -1.501 0.34999999
23.202999 -9.0950003 -1.513 0.31999999
23.382 -9.0810003 -1.524 0.31999999
23.531 -9.0539999 -1.533 0.20999999
23.591 -8.9919996 -1.535 0.51999998
23.863001 -9.0530005 -1.554 0.23
23.563 -8.8540001 -1.53 0.13
23.580999 -8.7770004 -1.529 0.25
23.655001 -8.7200003 -1.5319999 0.56999999
23.608999 -8.6190004 -1.527 0.56
23.739 -8.5819998 -1.535 0
23.660999 -8.4700003 -1.527 0
23.653999 -8.4250002 -1.525 0
23.648001 -8.3389997 -1.523 0
23.636999 -8.2519999 -1.52 0
23.642 -8.1700001 -1.5190001 0
23.635 -8.085 -1.517 0
23.625999 -7.9990001 -1.5140001 0
23.620001 -7.9559999 -1.513 0
23.624001 -7.875 -1.511 0
23.607 -7.7870002 -1.508 0
23.614 -7.7069998 -1.507 0
23.622999 -7.6279998 -1.506 0
23.607 -7.5409999 -1.503 0
23.593 -7.454 -1.5 0
23.576 -7.408 -1.498 0
23.561001 -7.322 -1.495 0
23.551001 -7.2379999 -1.493 0
23.57 -7.1630001 -1.493 0
23.535 -7.072 -1.489 0
23.535999 -6.9910002 -1.487 0
23.535 -6.9109998 -1.4859999 0
23.523001 -6.8670001 -1.484 0
23.506001 -6.7820001 -1.4809999 0
23.514 -6.704 -1.48 0
23.506001 -6.6220002 -1.478 0
23.496 -6.54 -1.476 0
23.511 -6.4640002 -1.476 0
23.49 -6.3790002 -1.473 0
23.473 -6.335 -1.471 0
23.474001 -6.256 -1.469 0
23.452999 -6.1719999 -1.466 0
23.451 -6.092 -1.465 0
23.451 -6.0139999 -1.464 0
23.437 -5.9320002 -1.461 0
23.434 -5.8530002 -1.46 0
23.422001 -5.8109999 -1.4579999 0
23.409 -5.7290001 -1.456 0
23.419001 -5.6539998 -1.455 0
23.409 -5.5739999 -1.454 0
23.398001 -5.493 -1.451 0
23.399 -5.4159999 -1.45 0
23.389999 -5.375 -1.449 0
23.365999 -5.2930002 -1.446 0
23.363001 -5.2150002 -1.4450001 0
23.372 -5.1399999 -1.444 0
23.358999 -5.0599999 -1.442 0
23.353001 -4.9819999 -1.441 0
23.355 -4.9050002 -1.4400001 0
23.339001 -4.8639998 -1.438 0
23.34 -4.7880001 -1.437 0
23.337999 -4.711 -1.436 0
23.333 -4.6339998 -1.4349999 0
23.33 -4.5570002 -1.433 0
23.348 -4.4840002 -1.434 0
23.332001 -4.4050002 -1.432 0
23.323999 -4.3660002 -1.4299999 0
23.312 -4.2880001 -1.429 0
23.302 -4.21 -1.427 0
23.301001 -4.1339998 -1.426 0
23.292 -4.0570002 -1.425 0
23.271 -3.9779999 -1.4220001 0
23.233999 -3.934 -1.419 0
23.212999 -3.8559999 -1.4170001 0.07
23.191999 -3.777 -1.415 0.079999998
23.184 -3.701 -1.413 0.13
23.16 -3.6229999 -1.411 0.090000004
23.141001 -3.546 -1.409 0.14
23.118999 -3.4679999 -1.406 0.22
23.101 -3.428 -1.405 0.23999999
23.073999 -3.3499999 -1.402 0.11
23.052999 -3.273 -1.4 0.15000001
23.052999 -3.1989999 -1.399 0.12
23.045 -3.1240001 -1.398 0.16
23.033001 -3.049 -1.396 0.12
23.025 -2.974 -1.395 0.16
23.027 -2.938 -1.395 0.12
23.032 -2.865 -1.395 0.17
23.037001 -2.7920001 -1.395 0.30000001
23.024 -2.717 -1.393 0.2
23.009001 -2.642 -1.391 0.18000001
23.011 -2.569 -1.391 0.22
23.003 -2.5320001 -1.39 0.18000001
23.003 -2.4579999 -1.39 0.34
22.999001 -2.385 -1.3890001 0.19
22.997999 -2.312 -1.388 0.38
22.982 -2.237 -1.387 0.23999999
22.966999 -2.1630001 -1.385 0.25999999
22.971001 -2.0910001 -1.385 0.25999999
22.971001 -2.0539999 -1.385 0.28
22.961 -1.9809999 -1.3839999 0.30000001
22.961 -1.908 -1.383 0.27000001
22.938999 -1.8329999 -1.381 0.28999999
22.961 -1.763 -1.382 0.30000001
23 -1.693 -1.385 0.28
23.027 -1.659 -1.386 0.2
23.032 -1.586 -1.386 0.28
23.023001 -1.513 -1.385 0.2
23.065001 -1.443 -1.388 0.1
23.063 -1.37 -1.388 0
23.056 -1.2970001 -1.387 0
23.068001 -1.225 -1.387 0
23.083 -1.1900001 -1.388 0
23.045 -1.115 -1.385 0
23.039 -1.0420001 -1.385 0
23.049999 -0.97000003 -1.385 0
23.035 -0.89700001 -1.3839999 0
23.038 -0.82499999 -1.3839999 0
23.018 -0.75099999 -1.382 0
23.018999 -0.71499997 -1.382 0
23.017 -0.64300001 -1.382 0
23.009001 -0.56999999 -1.381 0
23.004999 -0.498 -1.381 0
23.014 -0.426 -1.382 0
22.982 -0.35299999 -1.3789999 0
22.996 -0.317 -1.38 0
23.014999 -0.245 -1.381 0
23.01 -0.17299999 -1.381 0
22.982 -0.1 -1.3789999 0
23.002001 -0.028000001 -1.381 0
21.738001 0.054000001 -1.4 0.090000004
21.774 0.122 -1.403 0
21.740999 0.19 -1.401 0
21.737 0.22400001 -1.4 0
21.726 0.292 -1.4 0
21.716999 0.361 -1.399 0
21.702 0.428 -1.398 0
21.705999 0.49700001 -1.399 0
21.709 0.565 -1.399 0
21.709999 0.59899998 -1.399 0
21.732 0.66799998 -1.401 0
21.705999 0.736 -1.399 0
21.697001 0.80400002 -1.399 0
21.728001 0.87300003 -1.401 0
21.67 0.93900001 -1.397 0
21.673 1.007 -1.397 0.079999998
21.681 1.0420001 -1.398 0.079999998
21.67 1.11 -1.398 0.079999998
21.66 1.177 -1.397 0.090000004
21.674 1.2460001 -1.398 0.14
21.643999 1.313 -1.396 0.090000004
21.642 1.381 -1.397 0.16
21.648001 1.45 -1.397 0.16
21.639 1.483 -1.397 0.18000001
21.627001 1.551 -1.396 0.15000001
21.608 1.617 -1.395 0.31999999
21.528999 1.6799999 -1.39 0.23
21.128 1.715 -1.3609999 0.25
20.652 1.7410001 -1.326 0.20999999
20.486 1.7589999 -1.314 0.28999999
20.337 1.8099999 -1.303 0.31
20.159 1.858 -1.29 0.37
20.107 1.9170001 -1.2869999 0.43000001
19.436001 1.914 -1.238 0.18000001
19.334999 1.965 -1.2309999 0.46000001
19.902 2.0869999 -1.273 0.33000001
20.073 2.1370001 -1.286 0.43000001
19.794001 2.1700001 -1.266 0.25
19.191 2.164 -1.222 0.44999999
19.378 2.247 -1.2359999 0.20999999
19.163 2.283 -1.221 0.37
19.201 2.348 -1.224 0.33000001
19.663 2.4679999 -1.2589999 0.36000001
19.718 2.507 -1.263 0.27000001
19.434 2.5320001 -1.243 0.34999999
18.360001 2.45 -1.163 0.31999999
19.607 2.6800001 -1.257 0.25999999
19.375 2.71 -1.24 0.36000001
19.518999 2.793 -1.252 0.38
18.955 2.773 -1.21 0.31
19.452 2.8770001 -1.248 0.31999999
19.551001 2.9549999 -1.256 0.27000001
20.047001 3.095 -1.293 0.38999999
20.011 3.154 -1.291 0.30000001
20.327999 3.27 -1.316 0.28
19.455999 3.191 -1.251 0.14
17.389 2.8770001 -1.097 0.31
17.364 2.9289999 -1.096 0.25999999
17.298 2.974 -1.092 0.27000001
17.282 3.027 -1.091 0.37
17.298 3.086 -1.0930001 0.41999999
17.4 3.161 -1.102 0.22
17.299999 3.1989999 -1.095 0.34
17.370001 3.24 -1.101 0.27000001
17.377001 3.2980001 -1.102 0.15000001
21.552 4.1669998 -1.416 0.16
21.531 4.2329998 -1.416 0.1
21.538 4.3039999 -1.4170001 0.14
21.532 4.3740001 -1.418 0.090000004
21.51 4.4400001 -1.4170001 0.090000004
21.554001 4.4840002 -1.421 0
21.504999 4.5440001 -1.418 0
21.514999 4.6170001 -1.42 0
21.476 4.6789999 -1.418 0
21.506001 4.757 -1.4220001 0
21.461 4.8179998 -1.419 0
21.459999 4.8530002 -1.42 0.07
21.458 4.9229999 -1.421 0.079999998
21.448 4.9920001 -1.421 0.079999998
21.444 5.0619998 -1.4220001 0.090000004
21.434 5.131 -1.423 0.090000004
21.423 5.1999998 -1.423 0.090000004
21.413 5.2680001 -1.424 0.14
21.416 5.3049998 -1.424 0.1
21.407 5.3740001 -1.425 0.15000001
21.392 5.4419999 -1.425 0.1
21.386 5.5120001 -1.426 0.16
21.375 5.5809999 -1.426 0.16
21.370001 5.651 -1.427 0.1
21.365999 5.7220001 -1.429 0.14
21.349001 5.7529998 -1.428 0.090000004
21.35 5.8260002 -1.429 0.090000004
21.336 5.8940001 -1.4299999 0.079999998
21.327 5.9640002 -1.4299999 0.079999998
21.318001 6.033 -1.431 0.079999998
21.312 6.1040001 -1.432 0.079999998
21.316 6.1409998 -1.433 0.079999998
21.306 6.211 -1.434 0.079999998
21.311001 6.2849998 -1.436 0.079999998
21.292999 6.3530002 -1.436 0.079999998
21.283001 6.4229999 -1.437 0.079999998
21.280001 6.4949999 -1.438 0.079999998
21.263 6.5630002 -1.438 0.079999998
21.277 6.6040001 -1.4400001 0.079999998
21.27 6.6750002 -1.441 0.079999998
21.26 6.7449999 -1.442 0.079999998
21.25 6.816 -1.443 0.090000004
21.247999 6.8889999 -1.4450001 0.090000004
21.239 6.96 -1.446 0.14
21.23 7.0310001 -1.447 0.090000004
21.225 7.066 -1.447 0.14
21.218 7.138 -1.448 0.23
21.214001 7.211 -1.45 0.23999999
21.208 7.283 -1.451 0.23999999
21.191 7.3520002 -1.451 0.25
21.188999 7.4260001 -1.4529999 0.25
21.184 7.4990001 -1.455 0.25
21.17 7.5310001 -1.454 0.25999999
21.167 7.605 -1.456 0.25999999
21.179001 7.7600002 -1.461 0.20999999
21.118999 7.8140001 -1.4579999 0.44999999
21.108999 7.8850002 -1.459 0.54000002
21.099001 7.9190001 -1.459 0.63999999
21.135 8.0089998 -1.464 0.73000002
21.007 8.0360003 -1.456 0.47
21.007999 8.1120005 -1.4579999 0.25
20.879 8.1370001 -1.45 0.23
20.716999 8.1490002 -1.439 0.20999999
20.608 8.1809998 -1.432 0.47
20.466 8.1619997 -1.4220001 0.23
20.333 8.1829996 -1.414 0.23
20.177999 8.1940002 -1.403 0.30000001
20.077999 8.2270002 -1.398 0.23999999
20.141001 8.3269997 -1.405 0.23999999
20.098 8.3830004 -1.403 0.41
20.474001 8.5780001 -1.434 0.23999999
20.433001 8.6359997 -1.433 0.31999999
20.35 8.677 -1.429 0.37
20.231001 8.7010002 -1.421 0.28999999
20.072001 8.7080002 -1.411 0.25
19.891001 8.7030001 -1.399 0.34
19.806 8.7399998 -1.3940001 0.36000001
19.701 8.7299995 -1.386 0.34
19.6 8.7600002 -1.381 0.38
19.549 8.8100004 -1.3789999 0.38
19.465 8.8459997 -1.374 0.31999999
19.368 8.8760004 -1.369 0.34999999
19.254 8.8959999 -1.3609999 0.34999999
19.261999 8.974 -1.364 0.36000001
19.250999 9.0050001 -1.365 0.38
19.259001 9.0830002 -1.368 0.38999999
19.284 9.1689997 -1.372 0.40000001
19.487 9.3409996 -1.391 0.31
19.434 9.3909998 -1.3890001 0.28999999
19.399 9.4490004 -1.3890001 0.34
19.337 9.4940004 -1.386 0.36000001
19.215 9.4720001 -1.377 0.36000001
19.155001 9.5170002 -1.375 0.38
19.275 9.6520004 -1.387 0.38
19.239 9.71 -1.387 0.30000001
19.249001 9.7910004 -1.39 0.36000001
19.257 9.8719997 -1.393 0.41
19.245001 9.9040003 -1.3940001 0.38
19.26 9.9879999 -1.397 0.36000001
19.149 10.007 -1.391 0.31999999
19.247 10.135 -1.401 0.43000001
19.193001 10.184 -1.4 0.31999999
19.035 10.177 -1.3890001 0.34999999
19.027 10.25 -1.391 0.28999999
19.013 10.281 -1.391 0.50999999
19.052 10.379 -1.397 0.30000001
19.396999 10.647 -1.429 0.31999999
19.360001 10.706 -1.429 0.28
19.671 10.959 -1.4579999 0.36000001
19.549999 10.972 -1.451 0.17
19.704 11.1 -1.465 0.38999999
19.635 11.142 -1.462 0.27000001
19.757 11.294 -1.476 0.38
19.802999 11.403 -1.482 0.28999999
19.625 11.383 -1.47 0.34999999
19.49 11.386 -1.462 0.38
19.587999 11.526 -1.473 0.22
19.615999 11.584 -1.477 0.41
19.718 11.729 -1.489 0.28999999
19.660999 11.778 -1.487 0.36000001
19.593 11.821 -1.485 0.34
19.584999 11.901 -1.487 0.33000001
19.59 11.988 -1.4910001 0.34
19.657 12.115 -1.5 0.38
19.747 12.213 -1.51 0.40000001
19.877001 12.38 -1.524 0.38
19.917999 12.493 -1.531 0.31999999
19.922001 12.583 -1.535 0.28
19.916 12.667 -1.538 0.30000001
19.858 12.717 -1.536 0.30000001
19.870001 12.813 -1.541 0.44999999
20.054001 12.977 -1.559 0.34
20.26 13.201 -1.581 0.25999999
20.332001 13.339 -1.591 0.20999999
20.365 13.453 -1.597 0.22
20.424999 13.585 -1.6059999 0.41
20.497999 13.727 -1.617 0.30000001
20.573999 13.825 -1.625 0.23999999
20.613001 13.946 -1.633 0.38
20.658001 14.071 -1.641 0.23999999
20.677999 14.18 -1.646 0.23
20.67 14.27 -1.649 0.2
20.688 14.379 -1.655 0.22
20.676001 14.467 -1.658 0.2
20.719999 14.546 -1.664 0.22
20.721001 14.645 -1.668 0.17
20.704 14.731 -1.671 0.33000001
20.702999 14.828 -1.675 0.2
20.655001 14.892 -1.675 0.16
20.646999 14.985 -1.679 0.27000001
20.68 15.109 -1.686 0.31999999
20.73 15.196 -1.693 0.41
20.756001 15.315 -1.699 0.34
20.756001 15.416 -1.704 0.47999999
20.773001 15.53 -1.71 0.5
20.801001 15.653 -1.717 0.31999999
20.804001 15.758 -1.722 0.41999999
20.785 15.796 -1.722 0.19
20.777 15.892 -1.726 0.18000001
20.778999 15.998 -1.7309999 0.16
20.774 16.098 -1.735 0.16
20.782 16.209 -1.7410001 0.17
20.795 16.325001 -1.747 0.16
20.768999 16.41 -1.749 0.1
20.797001 16.486 -1.7539999 0.15000001
20.789 16.586 -1.758 0.090000004
20.785 16.690001 -1.763 0.14
20.778 16.792 -1.767 0.090000004
20.782 16.903 -1.773 0.14
20.767 17 -1.776 0.090000004
20.764999 17.107 -1.781 0.090000004
20.784 17.177999 -1.786 0.14
20.777 17.283001 -1.79 0.090000004
20.775 17.392 -1.795 0
20.761 17.492001 -1.799 0
20.757999 17.601 -1.804 0
20.761 17.716 -1.8099999 0
20.761 17.771999 -1.813 0
20.761999 17.886999 -1.818 0
20.766001 18.004 -1.824 0
20.754999 18.108999 -1.8279999 0
20.746 18.216 -1.8329999 0
20.750999 18.337 -1.839 0
20.738001 18.441999 -1.844 0
20.756001 18.517 -1.848 0
20.752001 18.629999 -1.854 0
20.742001 18.739 -1.859 0
20.729 18.846001 -1.863 0
20.732 18.969 -1.869 0
20.716999 19.075001 -1.874 0
20.73 19.207001 -1.881 0
20.726 19.264 -1.8839999 0
20.709 19.370001 -1.888 0
20.723 19.506001 -1.896 0
20.697001 19.604 -1.899 0
20.673 19.705 -1.903 0
20.687 19.843 -1.911 0
20.683001 19.902 -1.914 0
20.666 20.011 -1.919 0
20.653999 20.125999 -1.924 0
20.649 20.247999 -1.9299999 0
20.621 20.348 -1.934 0
20.608 20.464001 -1.939 0
20.607 20.591999 -1.9450001 0
20.621 20.671 -1.95 0
20.601 20.781 -1.955 0
20.593 20.903999 -1.961 0
20.572001 21.014 -1.966 0
20.565001 21.139999 -1.972 0
20.552999 21.26 -1.978 0
20.530001 21.371 -1.982 0
20.545 21.454 -1.988 0
20.532 21.576 -1.994 0
20.525 21.704 -2 0
20.500999 21.816999 -2.0050001 0
20.489 21.941 -2.0109999 0
20.475 22.065001 -2.017 0
20.465 22.194 -2.023 0
20.483999 22.285 -2.029 0
20.465 22.405001 -2.0350001 0
20.454 22.534 -2.0409999 0
20.427 22.646999 -2.046 0
20.409 22.771 -2.052 0
20.399 22.905001 -2.059 0
20.426001 23.007 -2.066 0
20.406 23.131001 -2.072 0
20.388 23.257999 -2.0780001 0
20.370001 23.385 -2.0840001 0
20.357 23.518 -2.0910001 0
20.341999 23.652 -2.098 0
20.330999 23.790001 -2.105 0
20.356001 23.895 -2.112 0
20.330999 24.018 -2.118 0
20.32 24.158001 -2.125 0
20.288 24.275 -2.1300001 0
20.268 24.407 -2.1370001 0
20.250999 24.542999 -2.1429999 0
20.224001 24.667999 -2.1489999 0
20.247 24.775 -2.1570001 0
20.222 24.903999 -2.1630001 0.14
11.725 14.609 -1.179 0
14.458 18.259001 -1.515 0
20.129 25.601 -2.1989999 0
20.129999 25.686001 -2.204 0
20.127001 25.848 -2.2130001 0
20.080999 25.957001 -2.217 0.090000004
14.765 19.198999 -1.5829999 0.17
14.646 19.294001 -1.584 0.17
14.616 19.381001 -1.587 0.14
14.989 19.941999 -1.637 0.20999999
14.815 19.839001 -1.623 0.31999999
14.922 20.114 -1.6440001 0.41
14.597 19.806 -1.612 0.20999999
15.038 20.540001 -1.674 0
14.486 19.915001 -1.613 0.050000001
14.051 19.379999 -1.563 0.17
11.471 15.919 -1.244 0.18000001
11.509 16.079 -1.256 0
14.591 20.532 -1.655 0
19.68 27.895 -2.3139999 0
19.639999 28.023001 -2.3199999 0
19.612 28.172001 -2.3280001 0
19.636 28.301001 -2.3369999 0
19.594 28.431 -2.3429999 0
19.559999 28.573999 -2.3499999 0
19.528 28.721001 -2.358 0
19.495001 28.865999 -2.3659999 0.039999999
13.61 20.414 -1.607 0
15.496 23.329 -1.863 0
19.362 29.360001 -2.3900001 0
15.266 23.299 -1.851 0
19.278 29.636999 -2.404 0
19.228001 29.764 -2.4100001 0
19.191999 29.915001 -2.418 0
15.246 23.92 -1.8890001 0
14.832 23.35 -1.837 0
14.972 23.735001 -1.867 0
14.632 23.358 -1.83 0
14.977 24.077999 -1.888 0
18.958 30.705999 -2.4579999 0
18.902 30.832001 -2.464 0
14.817 24.243 -1.892 0.12
15.195 25.040001 -1.957 0.17
14.979 24.858 -1.937 0.13
15.037 25.132999 -1.957 0.19
14.827 24.959999 -1.938 0
14.846 25.172001 -1.952 0
14.046 23.985001 -1.847 0
13.998 23.988001 -1.845 0
18.542 32.023998 -2.526 0
18.483 32.154999 -2.5320001 0
18.444 32.321999 -2.5409999 0
14.598 25.950001 -1.993 0
13.871 24.837 -1.895 0
14.673 26.374001 -2.023 0
18.215 32.997002 -2.576 0.059999999
14.282 26.25 -2.0009999 0.31999999
14.11 26.128 -1.987 0.15000001
14.062 26.235001 -1.992 0.14
13.853 26.042 -1.972 0.079999998
13.852 26.139 -1.979 0.11
12.317 23.413 -1.748 0.28
12.354 23.664 -1.766 0.34
12.362 23.862 -1.779 0.18000001
12.296 23.919001 -1.78 0.25999999
11.929 23.385 -1.733 0.11
13.614 26.905001 -2.0209999 0.38999999
12.235 24.268 -1.801 0.14
11.623 23.233 -1.7130001 0
12.416 25.02 -1.857 0.14
12.337 25.056999 -1.857 0.2
12.198 24.972 -1.847 0.16
13.027 26.886999 -2 0
17.173 35.750999 -2.7219999 0
13.202 27.580999 -2.052 0
12.476 26.271999 -1.942 0
12.398 26.32 -1.943 0.07
12.439 26.625 -1.964 0
11.827 25.521999 -1.8710001 0
16.827 36.639999 -2.77 0
11.639 25.643 -1.874 0
16.660999 37.042 -2.7920001 0
12.209 27.357 -2.006 0
13.173 29.775 -2.198 0
16.440001 37.492001 -2.816 0
16.358 37.625999 -2.822 0.039999999
6.546 15.348 -1.028 0.51999998
6.513 15.403 -1.031 0.70999998
6.4879999 15.481 -1.035 0
15.909 38.395 -2.8610001 0
15.858 38.616001 -2.875 0
15.843 38.751999 -2.8840001 0
15.767 38.916 -2.8929999 0
15.684 39.062 -2.901 0
15.599 39.207001 -2.908 0
15.517 39.360001 -2.9170001 0
15.434 39.514999 -2.925 0
15.345 39.653999 -2.9319999 0
15.324 39.784 -2.941 0
15.239 39.938 -2.9489999 0
15.006 40.469002 -2.98 0.12
14.895 40.561001 -2.983 0.34999999
14.777 40.633999 -2.9849999 0.22
14.739 40.727001 -2.9909999 0
14.621 40.803001 -2.993 0
14.548 41.002998 -3.0050001 0
14.451 41.139999 -3.0120001 0
14.343 41.245998 -3.017 0
14.221 41.313 -3.0190001 0
14.16 41.348999 -3.02 0
14.038 41.414001 -3.0209999 0
13.916 41.483002 -3.023 0
13.785 41.526001 -3.023 0
13.666 41.605 -3.026 0
13.541 41.662998 -3.027 0
13.414 41.719002 -3.0280001 0
13.35 41.743 -3.029 0
13.235 41.837002 -3.0320001 0.07
13.115 41.916 -3.0350001 0.090000004
12.995 41.994999 -3.0380001 0.16
12.877 42.082001 -3.0420001 0.27000001
12.76 42.173 -3.046 0.27000001
12.641 42.257 -3.049 0.2
12.582 42.304001 -3.0510001 0.17
12.461 42.381001 -3.0539999 0
12.332 42.438 -3.056 0
9.783 34.044998 -2.4089999 0.090000004
12.125 42.724998 -3.072 0.17
11.996 42.782001 -3.073 0.16
11.88 42.884998 -3.0780001 0.18000001
11.827 42.956001 -3.082 0.16
8.9879999 33.027 -2.3210001 0.1
11.581 43.118 -3.089 0.090000004
11.472 43.256001 -3.0969999 0
11.393 43.509998 -3.1129999 0.13
11.279 43.634998 -3.1199999 0.17
11.149 43.696999 -3.122 0.23
11.11 43.830002 -3.131 0.25
10.976 43.882 -3.132 0.11
10.851 43.966999 -3.1359999 0
10.701 43.953999 -3.1329999 0
10.614 44.201 -3.1489999 0
10.513 44.395 -3.161 0
8.177 51.632 -3.651 0
8.0319996 51.773998 -3.6600001 0
7.8800001 51.868 -3.665 0
7.8119998 51.969002 -3.6719999 0
7.6680002 52.126999 -3.6819999 0
7.5320001 52.346001 -3.6960001 0
7.3779998 52.443001 -3.7019999 0
7.2189999 52.508999 -3.7049999 0
7.0549998 52.540001 -3.7060001 0
6.9039998 52.667999 -3.7130001 0
6.8299999 52.742001 -3.7179999 0
6.6729999 52.837002 -3.724 0
6.5040002 52.834 -3.7219999 0
6.3629999 53.060001 -3.737 0
6.1830001 52.971001 -3.7290001 0
6.0320001 53.123001 -3.7390001 0
5.8990002 53.446999 -3.7620001 0
5.8109999 53.424 -3.7590001 0
5.6609998 53.605 -3.7709999 0
5.5190001 53.886002 -3.7909999 0
5.3429999 53.838001 -3.786 0
5.21 54.231998 -3.8139999 0
5.013 53.964001 -3.793 0
4.9520001 54.228001 -3.812 0
4.802 54.471001 -3.829 0
4.6269999 54.446999 -3.826 0
4.4699998 54.636002 -3.839 0
4.3010001 54.682999 -3.8410001 0
4.1339998 54.764 -3.846 0
3.9679999 54.848999 -3.852 0
3.8870001 54.936001 -3.858 0
3.72 55.032001 -3.8640001 0
3.549 55.075001 -3.8659999 0
3.378 55.119999 -3.869 0
3.2019999 55.077999 -3.865 0
3.036 55.214001 -3.8740001 0.079999998
2.865 55.272999 -3.878 0.079999998
2.776 55.238998 -3.875 0
2.6040001 55.273998 -3.8770001 0
2.441 55.533001 -3.895 0
2.2679999 55.563999 -3.8970001 0
2.0940001 55.598999 -3.8989999 0
1.923 55.713001 -3.9070001 0
1.724 54.926998 -3.849 0
1.649 55.321999 -3.878 0
1.4859999 55.751999 -3.9089999 0
1.314 55.872002 -3.918 0
1.137 55.835999 -3.915 0
0.96399999 55.931 -3.921 0
0.78799999 55.928001 -3.921 0
0.61500001 56.258999 -3.9449999 0
0.52700001 56.256001 -3.9449999 0
0.34999999 56.155998 -3.937 0
0.17299999 56.007 -3.9260001 0
-0.003 56.414001 -3.9560001 0
-0.18000001 56.23 -3.9430001 0
-0.359 56.653999 -3.974 0
-0.53899997 56.784 -3.984 0
-0.625 56.515999 -3.964 0
-0.80299997 56.546001 -3.9660001 0
-0.977 56.355999 -3.9530001 0
-1.149 56.118999 -3.9349999 0
-1.3329999 56.431999 -3.9590001 0
-1.52 56.764999 -3.984 0
-1.692 56.548 -3.9679999 0
-1.8049999 57.305 -4.0240002 0
-1.987 57.365002 -4.0289998 0
-2.1700001 57.422001 -4.0339999 0
-2.345 57.287998 -4.0240002 0
-2.5320001 57.441002 -4.0359998 0
-2.721 57.613998 -4.0500002 0
-2.904 57.653 -4.053 0
-1.885 34.400002 -2.3380001 0.22
-1.9910001 34.354 -2.335 0.17
-2.082 34.070999 -2.3139999 0.23
-2.1919999 34.113998 -2.3180001 0.20999999
-2.3050001 34.200001 -2.325 0
-2.3499999 34.061001 -2.3150001 0
-4.1370001 57.110001 -4.0190001 0
-2.546 33.811001 -2.2969999 0.079999998
-2.6789999 34.146999 -2.323 0.1
-2.727 33.415001 -2.2690001 0.16
-2.8 33.036999 -2.2420001 0.28999999
-2.934 33.367001 -2.267 0.11
-3.122 34.859001 -2.378 0.16
-3.1689999 34.187 -2.329 0.22
-3.24 33.801998 -2.3010001 0.15000001
-3.4360001 34.693001 -2.368 0.14
-3.5309999 34.542999 -2.358 0.20999999
-3.5639999 33.820999 -2.3050001 0.31
-3.6630001 33.741001 -2.3 0.22
-3.697 33.566002 -2.2869999 0.30000001
-3.638 32.112 -2.1800001 0.44
-3.776 32.412998 -2.2030001 0.23
-3.875 32.380001 -2.2019999 0.28
-3.915 31.865999 -2.165 0.13
-4.006 31.785 -2.1589999 0.34
-4.2410002 32.414001 -2.2079999 0.31999999
-4.375 32.639999 -2.2260001 0.17
-4.4299998 32.284 -2.2 0.28999999
-4.5450001 32.367001 -2.207 0.14
-4.8000002 33.411999 -2.286 0.079999998
-5.1209998 34.856998 -2.395 0.11
-4.888 32.570999 -2.2260001 0.25
-4.9190001 32.435001 -2.2160001 0.34
-5.0139999 32.369999 -2.2130001 0.28999999
-5.1230001 32.402 -2.2160001 0.2
-5.1789999 32.104 -2.1949999 0.28
-5.2979999 32.195999 -2.2030001 0.23999999
-5.4109998 32.254002 -2.2090001 0.41
-5.783 34.129002 -2.3499999 0.1
-5.915 34.254002 -2.3599999 0.15000001
-6.0149999 34.194 -2.3570001 0
-5.777 32.255001 -2.2130001 0.13
-5.875 32.216999 -2.2119999 0.11
-5.9749999 32.194 -2.2119999 0.18000001
-5.8569999 31.018999 -2.125 0.47
-5.908 31.024 -2.1259999 0.16
-6.441 33.241001 -2.2939999 0.16
-6.5580001 33.283001 -2.299 0.15000001
-5.823 29.087999 -1.985 0.16
-5.9860001 29.423 -2.0109999 0.41
-6.0359998 29.197001 -1.9960001 0.11
-6.0770001 28.941999 -1.978 0.11
-2.049 9.618 -0.523 0.36000001
-2.0420001 9.4390001 -0.50999999 0.99000001
-2.0539999 9.3559999 -0.50400001 0.99000001
-2.056 9.2250004 -0.495 0.99000001
-2.0769999 9.184 -0.49200001 0.99000001
-2.0780001 9.0600004 -0.48300001 0.99000001
-2.0539999 8.8920002 -0.47099999 0.86000001
-2.1140001 9.0209999 -0.48100001 0.19
-7.8460002 32.716 -2.2780001 0.13
-7.908 32.527 -2.2650001 0.20999999
-6.8470001 27.797001 -1.908 0.38999999
-8.1350002 32.567001 -2.2720001 0.20999999
-6.79 26.841999 -1.839 0.18000001
-6.7909999 26.671 -1.827 0.34
-6.8709998 26.634001 -1.826 0.43000001
-6.9510002 26.599001 -1.825 0.44
-7.0500002 26.635 -1.829 0.28999999
-8.2399998 30.723 -2.1429999 0.46000001
-8.7959995 32.387001 -2.2720001 0.2
-7.5689998 27.540001 -1.903 0.15000001
-8.4209995 30.441999 -2.1259999 0.18000001
-8.9250002 31.868999 -2.2379999 0.17
-9.8690004 34.808998 -2.4649999 0.23
-10.457 36.442001 -2.5929999 0.16
-10.54 36.303001 -2.585 0.13
-8.2480001 28.098 -1.957 0.16
-9.4949999 31.964001 -2.256 0.12
-10.643 35.612 -2.5380001 0.14
-10.256 33.931 -2.411 0.20999999
-10.287 33.652 -2.392 0.18000001
-10.386 33.598999 -2.3900001 0.33000001
-10.519 33.653999 -2.3970001 0.18000001
-10.558 33.409 -2.381 0.14
-9.5509996 29.903999 -2.112 0.14
-11.105 34.570999 -2.4749999 0
-10.086 31.07 -2.2060001 0.050000001
-9.6499996 29.417 -2.0799999 0.14
-9.4989996 28.653999 -2.023 0.2
-10.112 30.181999 -2.1440001 0.30000001
-12.276 36.247002 -2.619 0.11
-10.207 29.996 -2.1340001 0.36000001
-11.606 33.748001 -2.4289999 0.11
-10.495 30.218 -2.1559999 0
-12.575 35.827 -2.5969999 0
-13.552 38.220001 -2.7869999 0.090000004
-13.534 37.793999 -2.757 0.1
-12.902 35.679001 -2.595 0
-13.716 37.741001 -2.7579999 0.11
-13.397 36.507 -2.664 0
-13.641 36.813999 -2.6919999 0.12
-14.134 37.776001 -2.7709999 0.090000004
-13.641 36.116001 -2.6440001 0.19
-13.503 35.415001 -2.592 0.18000001
-13.594 35.320999 -2.5880001 0
-13.647 35.292 -2.5869999 0.1
-12.54 31.84 -2.3199999 0.43000001
-13.433 33.792 -2.4790001 0.27000001
-13.412 33.432999 -2.4530001 0.12
-3.573 8.8769999 -0.50300002 0.28999999
-3.563 8.7729998 -0.49599999 0.46000001
-3.6389999 8.9189997 -0.50800002 0
-12.966 31.323999 -2.2969999 0.11
-13.007 31.146999 -2.286 0.23999999
-13.171 31.261999 -2.299 0.12
-13.263 31.205999 -2.2969999 0.15000001
-9.04 20.926001 -1.478 0.34999999
-9.0690002 20.903 -1.478 0.28999999
-9.118 20.836 -1.475 0.63999999
-9.2770004 21.018999 -1.492 0
-14.709 33.007999 -2.4619999 0
-14.892 33.138 -2.4760001 0.090000004
-9.5240002 20.864 -1.489 0.41
-9.7010002 21.164 -1.5140001 0.15000001
-9.7390003 21.072001 -1.5089999 0.34999999
-9.7989998 21.028999 -1.508 0.31999999
-9.8599997 20.985001 -1.507 0.47999999
-10.039 21.194 -1.527 0
-12.39 25.931 -1.916 0
-15.147 31.434999 -2.3699999 0.12
-13.14 27.167999 -2.023 0.22
-13.221 27.118 -2.0220001 0.2
-13.225 26.912001 -2.0079999 0.12
-13.406 27.065001 -2.0239999 0.079999998
-14.9 29.839001 -2.257 0.090000004
-15.56 30.916 -2.349 0.15000001
-15.473 30.504 -2.319 0.20999999
-15.355 30.155001 -2.2920001 0.17
-15.422 30.051001 -2.2880001 0.16
-15.641 30.243999 -2.3080001 0.19
-13.54 25.792 -1.9450001 0.19
-15.582 29.448 -2.2539999 0.17
-15.661 29.374001 -2.2520001 0.28
-13.756 25.709 -1.947 0.12
-13.812 25.620001 -1.944 0.43000001
-13.535 24.922001 -1.8890001 0.19
-13.614 24.879 -1.8890001 0.34
-13.86 25.142 -1.914 0.20999999
-13.869 24.971001 -1.904 0.18000001
-14.026 25.16 -1.921 0.13
-14.069 25.052999 -1.916 0.36000001
-14.321 25.129999 -1.9299999 0.40000001
-14.368 25.030001 -1.925 0.18000001
-14.43 24.955 -1.923 0
-14.337 24.438999 -1.887 0.15000001
-14.423 24.497999 -1.8940001 0.51999998
-18.194 30.67 -2.427 0.19
-14.636 24.506001 -1.902 0.2
-14.739 24.502001 -1.906 0.2
-14.688 24.246 -1.888 0.30000001
-14.938 24.483999 -1.9119999 0.2
-14.974 24.457001 -1.9119999 0.55000001
-15.141 24.556 -1.925 0.19
-14.041 22.617001 -1.76 0.16
-14.121 22.586 -1.762 0.46000001
-14.138 22.457001 -1.7539999 0.27000001
-14.256 22.487 -1.761 0.36000001
-14.382 22.528999 -1.768 0.25
-14.404 22.485001 -1.766 0.47
-13.663 21.184999 -1.656 0.20999999
-13.755 21.18 -1.66 0.36000001
-16.106001 24.622999 -1.967 0.18000001
-16.143999 24.513 -1.962 0.19
-16.233 24.48 -1.9630001 0.5
-14.312 21.441999 -1.698 0.14
-14.412 21.518 -1.707 0.34
-14.541 21.563999 -1.715 0.25999999
-14.508 21.370001 -1.702 0.25
-14.601 21.362 -1.705 0.38999999
-14.713 21.382 -1.711 0.38999999
-15.136 21.848 -1.757 0.25
-15.254 21.871 -1.7640001 0.25
-15.366 21.958 -1.774 0.5
-13.967 19.83 -1.586 0.14
-14.042 19.804001 -1.5880001 0.28
-14.17 19.851999 -1.596 0.31999999
-14.266 19.855 -1.6 0.31999999
-14.332 19.684 -1.5930001 0.2
-14.531 19.892 -1.614 0.57999998
-14.413 19.6 -1.591 0.20999999
-14.998 20.261 -1.656 0.27000001
-14.974 20.096001 -1.645 0.14
-15.107 20.143 -1.654 0.47999999
-15.985 21.172001 -1.7539999 0.16
-13.387 17.622999 -1.429 0.47
-16.445 21.566999 -1.7970001 0.19
-16.523001 21.530001 -1.799 0.25
-15.73 20.365999 -1.6950001 0.18000001
-15.839 20.374001 -1.7 0.41
-16.056 20.518999 -1.719 0.23
-15.972 20.281 -1.701 0.46000001
-12.793 16.096001 -1.314 0.57999998
-15.748 19.677 -1.656 0.23
-12.864 15.979 -1.3099999 0.38
-12.866 15.879 -1.3049999 0.22
-12.92 15.843 -1.3049999 0.46000001
-13.038 15.886 -1.313 0.37
-13.086 15.893 -1.316 0.31999999
-13.049 15.748 -1.306 0.28
-11.497 13.791 -1.122 0.25999999
-11.499 13.706 -1.117 0.34
-11.526 13.651 -1.115 0.58999997
-11.928 14.035 -1.156 0.36000001
-11.737 13.724 -1.1289999 0.31
-12.345 14.387 -1.196 0.2
-12.433 14.398 -1.2 0.34999999
-12.296 14.15 -1.1799999 0.50999999
-11.586 13.251 -1.096 0.20999999
-13.359 15.176 -1.288 0.36000001
-13.4 15.127 -1.288 0.30000001
-11.473 12.876 -1.069 0.19
-11.656 13.039 -1.087 0.25999999
-11.772 13.085 -1.096 0.61000001
-11.923 13.169 -1.108 0.28999999
-12.065 13.242 -1.119 0.31999999
-12.134 13.234 -1.122 0.51999998
-12.367 13.403 -1.142 0.22
-11.765 12.673 -1.073 0.34
-11.797 12.667 -1.074 0.27000001
-11.81 12.601 -1.071 0.5
-11.842 12.557 -1.0700001 0.31999999
-12.158 12.81 -1.1 0.5
-11.612 12.159 -1.0369999 0.31
-11.672 12.146 -1.04 0.34999999
-11.64 12.036 -1.0319999 0.47999999
-11.697 12.058 -1.036 0.38
-11.798 12.085 -1.043 0.49000001
-11.87 12.082 -1.0470001 0.31999999
-11.933 12.07 -1.049 0.46000001
-11.927 11.989 -1.045 0.41
-11.942 11.929 -1.0420001 0.38
-11.911 11.824 -1.035 0.60000002
-12.009 11.884 -1.043 0.31999999
-12.114 11.912 -1.05 0.62
-12.181 11.903 -1.053 0.25
-12.23 11.875 -1.0549999 0.5
-12.372 11.938 -1.0650001 0.56999999
-12.429 11.843 -1.064 0.55000001
-12.535 11.906 -1.072 0.28999999
-12.639 11.93 -1.079 0.47999999
-12.674 11.887 -1.079 0.31999999
-12.836 11.964 -1.092 0.33000001
-12.823 11.876 -1.086 0.47999999
-10.198 9.3940001 -0.81999999 0.41
-10.222 9.3859997 -0.82099998 0.38
-12.955 11.811 -1.09 0.34999999
-12.825 11.62 -1.074 0.19
-13.518 12.168 -1.1390001 0.31999999
-13.414 11.999 -1.125 0.41
-13.04 11.592 -1.084 0.36000001
-12.979 11.465 -1.075 0.41
-13.444 11.837 -1.118 0.34
-13.499 11.811 -1.12 0.20999999
-13.224 11.498 -1.09 0.56
-13.423 11.597 -1.1059999 0.34
-13.431 11.53 -1.103 0.37
-13.429 11.455 -1.099 0.31
-13.43 11.383 -1.096 0.28
-14.174 11.974 -1.166 0.46000001
-13.479 11.316 -1.095 0.43000001
-13.981 11.661 -1.14 0.38
-14.332 11.878 -1.17 0.34999999
-14.47 11.915 -1.1799999 0.18000001
-14.703 12.03 -1.198 0.51999998
-15.632 12.706 -1.283 0.23
-15.45 12.518 -1.2640001 0.43000001
-15.606 12.563 -1.275 0.27000001
-15.582 12.463 -1.2690001 0.51999998
-15.544 12.353 -1.262 0.25999999
-15.575 12.298 -1.261 0.38
-19.966999 15.655 -1.668 0.28999999
-19.989 15.572 -1.666 0.23999999
-16.975 13.186 -1.383 0.57999998
-16.983 13.107 -1.3789999 0.19
-17.127001 13.132 -1.3890001 0.31
-17.202 13.104 -1.392 0.27000001
-17.222 13.034 -1.39 0.34
-17.122999 12.875 -1.377 0.23
-18.962 14.162 -1.543 0.18000001
-19.077 14.201 -1.551 0.57999998
-19.188 14.189 -1.557 0.23
-19.266001 14.154 -1.5599999 0.23
-19.302 14.087 -1.5599999 0.30000001
-20.653999 14.972 -1.678 0.38
-20.907 15.055 -1.697 0.20999999
-19.334999 13.834 -1.551 0.22
-19.386 13.824 -1.553 0.19
-18.816999 13.331 -1.498 0.57999998
-20.028 14.092 -1.603 0.16
-18.639999 13.031 -1.475 0.25
-18.646999 12.948 -1.471 0.36000001
-18.58 12.816 -1.462 0.34
-18.635 12.811 -1.465 0.25999999
-18.718 12.781 -1.469 0.44
-18.580999 12.603 -1.4529999 0.22
-17.798 11.91 -1.377 0.38999999
-21.172001 14.066 -1.6720001 0.20999999
-21.197001 13.987 -1.67 0.20999999
-19.895 13.085 -1.553 0.31999999
-21.264999 13.888 -1.67 0.27000001
-21.231001 13.771 -1.663 0.31999999
-21.184 13.553 -1.652 0.57999998
-21.448999 13.627 -1.671 0.20999999
-19.952999 12.591 -1.5369999 0.18000001
-19.931999 12.534 -1.534 0.19
-19.746 12.331 -1.5140001 0.57999998
-21.784 13.506 -1.687 0.13
-20.077999 12.363 -1.536 0.31
-20.103001 12.292 -1.535 0.41
-20.662001 12.455 -1.576 0.38999999
-23.135 13.893 -1.7869999 0.14
-19.885 11.776 -1.502 0.57999998
-20.459999 12.029 -1.548 0.23999999
-20.469 11.948 -1.545 0.23
-20.667999 11.978 -1.559 0.23
-20.459 11.814 -1.54 0.36000001
-20.552999 11.782 -1.544 0.38999999
-21.393 12.173 -1.612 0.27000001
-20.650999 11.666 -1.546 0.23999999
-20.724001 11.622 -1.55 0.5
-21.048 11.716 -1.574 0.23
-21.981001 12.144 -1.649 0.41
-22.037001 12.13 -1.652 0.25999999
-22.726999 12.416 -1.707 0.15000001
-22.76 12.341 -1.707 0.38999999
-22.997 12.376 -1.723 0.16
-23.629 12.62 -1.773 0.27000001
-23.389 12.398 -1.749 0.30000001
-23.371 12.294 -1.745 0.20999999
-22.83 11.965 -1.698 0.16
-22.889 11.904 -1.7 0.38999999
-23.049999 11.896 -1.71 0.18000001
-22.791 11.672 -1.686 0.28
-24.996 12.699 -1.865 0.23
-23.163 11.679 -1.71 0.15000001
-24.677 12.392 -1.834 0.27000001
-23.166 11.544 -1.706 0.34
-25.118 12.416 -1.863 0.25
-24.546 12.038 -1.813 0.19
-24.556999 11.948 -1.811 0.27000001
-24.722 11.932 -1.822 0.30000001
-25.704 12.306 -1.899 0.16
-25.837 12.319 -1.908 0.16
-25.848 12.225 -1.906 0.50999999
-26.042 12.217 -1.918 0.19
-25.900999 12.052 -1.904 0.31999999
-23.368 10.787 -1.6950001 0.28999999
-26.327999 12.049 -1.932 0.16
-26.326 11.949 -1.929 0.30000001
-24.132999 10.819 -1.748 0.57999998
-24.052 10.692 -1.738 0.2
-24.223 10.677 -1.749 0.31999999
-24.289 10.615 -1.752 0.25
-26.372999 11.425 -1.9170001 0.28
-26.209 11.256 -1.901 0.20999999
-25.634001 10.962 -1.853 0.23
-26.524 11.244 -1.9220001 0.17
-26.856001 11.284 -1.9450001 0.44
-26.674 11.11 -1.928 0.23
-27.52 11.36 -1.993 0.23
-27.282 11.162 -1.971 0.17
-29.704 12.042 -2.161 0.17
-29.275 11.815 -2.125 0.25
-25.966 10.388 -1.86 0.22
-29.336 11.625 -2.1240001 0.15000001
-29.356001 11.527 -2.1229999 0.16
-29.451 11.457 -2.1270001 0.14
-30.777 11.861 -2.2290001 0.1
-31.047001 11.853 -2.2479999 0.18000001
-31.07 11.805 -2.2479999 0.31
-31.490999 11.852 -2.2780001 0.19
-31.848 11.872 -2.303 0
-32.027 11.824 -2.3150001 0
-30.878 11.291 -2.2219999 0.1
-28.059999 10.163 -1.998 0.23
-32.222 11.61 -2.323 0.1
-30.254 10.795 -2.1659999 0.13
-30.483 10.769 -2.181 0.34
-30.518999 10.673 -2.181 0.16
-30.665001 10.617 -2.1900001 0.36000001
-29.521 10.118 -2.098 0
-31.188999 10.578 -2.2260001 0
-31.243 10.542 -2.2290001 0.12
-30.023001 10.027 -2.131 0.20999999
-30.521 10.086 -2.1670001 0.25
-30.296 9.9060001 -2.148 0.11
-30.35 9.8190002 -2.1489999 0
-33.085999 10.587 -2.359 0
-36.111 11.427 -2.5899999 0.090000004
-32.588001 10.259 -2.316 0.23
-32.634998 10.161 -2.3180001 0.11
-32.771999 10.091 -2.326 0.30000001
-33.188999 10.105 -2.355 0.13
-33.194 9.9919996 -2.3529999 0.14
-33.366001 9.9300003 -2.3640001 0
-35.845001 10.543 -2.552 0.11
-35.995998 10.526 -2.562 0.28999999
-35.831001 10.356 -2.5469999 0
-35.881001 10.248 -2.549 0.11
-35.925999 10.139 -2.55 0.12
-36.044998 10.05 -2.556 0.14
-36.061001 9.9329996 -2.5550001 0
-36.18 9.8439999 -2.562 0.059999999
-37.580002 10.16 -2.668 0
-37.730999 10.074 -2.677 0
-37.178001 9.8009996 -2.632 0
-38.105 9.9169998 -2.7 0
-37.701 9.6859999 -2.6670001 0
-37.514999 9.5129995 -2.651 0
-37.730999 9.5039997 -2.6659999 0.12
-37.821999 9.401 -2.671 0.090000004
-37.914001 9.2969999 -2.6760001 0
-37.764 9.1350002 -2.6619999 0
-37.830002 9.0249996 -2.665 0
-37.908001 8.9180002 -2.6689999 0
-37.661999 8.7360001 -2.648 0
-37.764999 8.6969995 -2.655 0
-38.585999 8.7580004 -2.7149999 0
-38.637001 8.6420002 -2.7160001 0.07
-39.042 8.6040001 -2.7449999 0
-39.605 8.5970001 -2.7850001 0.12
-39.263 8.3940001 -2.7579999 0.15000001
-39.349998 8.283 -2.7620001 0.31999999
-39.529999 8.2559996 -2.7750001 0.25
-40.129002 8.2489996 -2.8180001 0.18000001
-40.627998 8.2189999 -2.8529999 0.17
-41.036999 8.1669998 -2.882 0.20999999
-40.569 7.9419999 -2.845 0.14
-40.988998 7.8899999 -2.875 0
-40.992001 7.757 -2.8729999 0
-40.673 7.631 -2.848 0
-40.644001 7.494 -2.8440001 0
-34.071999 3.4449999 -2.322 0.059999999
-33.589001 3.29 -2.286 0
-33.702 3.194 -2.293 0
-32.351002 2.9649999 -2.1930001 0
-33.221001 2.9389999 -2.256 0
-33.235001 2.8870001 -2.257 0
-33.554001 2.809 -2.28 0
-33.386002 2.6889999 -2.267 0
-30.399 2.355 -2.046 0
-31.396999 2.332 -2.119 0
-30.6 2.177 -2.059 0
-31.326 2.1289999 -2.112 0
-30.653999 2.0350001 -2.063 0
-30.533001 1.931 -2.053 0.1
-33.755001 2.026 -2.2909999 0.17
-33.82 1.923 -2.2950001 0.14
-34.092999 1.831 -2.3150001 0.16
-34.480999 1.743 -2.3429999 0
-35.838001 1.697 -2.4430001 0
-36.972 1.692 -2.526 0
-37.736 1.608 -2.582 0
-37.761002 1.49 -2.5840001 0
-37.759998 1.3710001 -2.5829999 0
-37.762001 1.253 -2.5829999 0
-37.731998 1.133 -2.5810001 0
-37.757 1.074 -2.582 0
-37.716999 0.95499998 -2.579 0
-37.678001 0.59799999 -2.576 0.25999999
-37.627998 0.479 -2.572 0.52999997
-37.789001 0.36300001 -2.5840001 0.23999999
-37.786999 0.303 -2.5829999 0.27000001
-37.799999 0.185 -2.5840001 0
-37.763 0.066 -2.582 0
-37.553001 -0.052000001 -2.566 0
-37.536999 -0.17 -2.5650001 0
-37.532001 -0.28799999 -2.5650001 0
-37.726002 -0.40799999 -2.579 0
-37.709 -0.52700001 -2.5780001 0
-37.709999 -0.58600003 -2.5780001 0
-37.666 -0.704 -2.575 0
-37.631001 -0.93900001 -2.573 0
-37.632 -1.058 -2.573 0
-37.327999 -1.3430001 -2.5510001 0.11
-37.292999 -1.459 -2.549 0.25
-37.296001 -1.576 -2.55 0
-37.469002 -1.701 -2.563 0
-37.507 -1.821 -2.566 0
-37.500999 -1.939 -2.566 0
-37.473 -2.056 -2.5639999 0
-37.478001 -2.115 -2.5650001 0
-37.487 -2.234 -2.566 0
-37.448002 -2.349 -2.5639999 0
-37.424 -2.4660001 -2.563 0
-37.41 -2.5829999 -2.562 0
-37.411999 -2.701 -2.563 0
-37.416 -2.7609999 -2.563 0
-37.398998 -2.878 -2.563 0
-37.429001 -2.9979999 -2.566 0
-37.374001 -3.112 -2.562 0
-37.641998 -3.3729999 -2.5840001 0
-37.408001 -3.47 -2.5669999 0
-37.460999 -3.5350001 -2.572 0
-37.423 -3.6500001 -2.5699999 0
-37.465 -3.773 -2.5739999 0
-37.483002 -3.8929999 -2.576 0
-37.485001 -4.013 -2.5769999 0
-37.498001 -4.1329999 -2.579 0
-37.498001 -4.2529998 -2.5799999 0
-37.516998 -4.3150001 -2.582 0
-37.527 -4.4349999 -2.5829999 0
-37.527 -4.5549998 -2.585 0
-37.532001 -4.6750002 -2.586 0
-37.533001 -4.7950001 -2.5869999 0
-37.532001 -4.915 -2.5880001 0
-37.542 -5.0359998 -2.5899999 0.029999999
-37.352001 -5.0700002 -2.5769999 0.16
-37.272999 -5.1789999 -2.572 0
-37.602001 -5.3449998 -2.598 0
-37.601002 -5.4660001 -2.599 0
-37.646999 -5.5929999 -2.6029999 0
-37.832001 -6.5970001 -2.6289999 0
-38.084 -6.888 -2.651 0.15000001
-38.060001 -7.007 -2.651 0
-38.117001 -8.1999998 -2.6719999 0
-38.134998 -8.2670002 -2.674 0
-38.216 -8.4110003 -2.6819999 0
-38.373001 -8.698 -2.698 0.14
-38.014999 -8.743 -2.6730001 0.18000001
-38.201 -8.9119997 -2.6889999 0.19
-37.983002 -8.9239998 -2.674 0.2
-37.561001 -8.9490004 -2.6440001 0.19
-37.216999 -8.9899998 -2.6199999 0.22
-36.826 -9.0179996 -2.5929999 0.2
-36.693001 -9.1079998 -2.585 0.30000001
-36.530998 -9.1899996 -2.575 0.19
-36.077 -9.1960001 -2.5420001 0.17
-35.834 -9.1940002 -2.5250001 0.18000001
-35.287998 -9.1709995 -2.4860001 0.2
-34.935001 -9.1969995 -2.461 0.11
-34.827 -9.2849998 -2.4549999 0
-34.924 -9.4289999 -2.4649999 0
-34.66 -9.474 -2.447 0
-35.998001 -9.9630003 -2.5510001 0
-36.245998 -10.093 -2.5710001 0
-35.355999 -9.9639997 -2.506 0
-35.918999 -10.245 -2.5510001 0
-34.453999 -9.9429998 -2.441 0
-35.007999 -10.223 -2.4860001 0
-34.682999 -10.246 -2.464 0
-37.387001 -11.175 -2.674 0
-35.969002 -10.812 -2.5669999 0.059999999
-35.66 -10.841 -2.5450001 0.15000001
-35.504002 -10.915 -2.536 0.1
-35.307999 -10.976 -2.5239999 0.2
-35.514999 -11.163 -2.5420001 0
-35.558998 -11.3 -2.5480001 0
-35.509998 -11.408 -2.5469999 0
-35.401001 -11.434 -2.54 0
-36.317001 -11.857 -2.6140001 0
-38.381001 -12.8 -2.78 0
-38.004002 -12.807 -2.7539999 0
-50.755001 -17.290001 -3.75 0
-36.780998 -12.587 -2.664 0
-50.556 -17.489 -3.7409999 0
-36.734001 -12.829 -2.6659999 0
-50.390999 -17.787001 -3.737 0
-50.361 -17.954 -3.7390001 0
-50.182999 -18.069 -3.7290001 0
-50.162998 -18.24 -3.7320001 0
-46.544998 -17.004999 -3.451 0
-46.452999 -17.136999 -3.448 0
-46.486 -17.315001 -3.4549999 0
-46.546001 -17.504 -3.464 0
-46.500999 -17.655001 -3.464 0.039999999
-44.730999 -17.142 -3.329 0
-44.709999 -17.296 -3.332 0
-44.707001 -17.375 -3.3340001 0
-44.728001 -17.546 -3.3399999 0
-44.623001 -17.666 -3.336 0
-42.784 -17.093 -3.194 0.07
-42.643002 -17.191999 -3.187 0.15000001
-42.365002 -17.235001 -3.1689999 0.17
-42.369999 -17.392 -3.174 0.1
-42.341 -17.458 -3.174 0.079999998
-42.252998 -17.577 -3.171 0
-42.289001 -17.747999 -3.1789999 0
-42.472 -17.982 -3.198 0
-42.424 -18.120001 -3.198 0
-42.380001 -18.257999 -3.1989999 0
-37.014999 -16.011999 -2.7709999 0
-37.126999 -16.198999 -2.7839999 0
-36.911999 -16.243999 -2.7709999 0
-36.806999 -16.336 -2.766 0
-36.806999 -16.474001 -2.77 0
-36.772999 -16.598 -2.7720001 0.050000001
-36.195999 -16.474001 -2.7290001 0
-36.612999 -16.733999 -2.7650001 0.07
-36.688999 -16.908001 -2.776 0.15000001
-36.701 -17.054001 -2.7809999 0
-36.674 -17.181999 -2.783 0
-36.768002 -17.367001 -2.7950001 0
-34.744999 -16.544001 -2.635 0
-36.604 -17.570999 -2.7909999 0
-30.433001 -14.663 -2.2880001 0
-36.480999 -17.724001 -2.7880001 0.13
-34.567001 -16.927 -2.635 0.25
-34.472 -17.014999 -2.632 0.25
-34.578999 -17.204 -2.645 0.27000001
-34.481998 -17.291 -2.641 0.2
-32.970001 -16.660999 -2.5209999 0
-29.672001 -15.05 -2.25 0.13
-32.937 -16.84 -2.5250001 0.16
-32.834999 -16.917999 -2.5209999 0.38
-32.703999 -16.98 -2.5139999 0.19
-32.787998 -17.155001 -2.526 0.14
-32.786999 -17.285999 -2.53 0
-30.885 -16.406 -2.3759999 0
-32.618999 -17.393999 -2.523 0.12
-30.003 -16.118 -2.309 0.12
-29.83 -16.146 -2.2980001 0.18000001
-30.864 -16.833 -2.3889999 0.13
-30.737 -16.889 -2.3829999 0.43000001
-30.594 -16.934999 -2.3759999 0.23
-30.617001 -17.073999 -2.382 0.25999999
-30.606001 -17.131001 -2.3829999 0.20999999
-30.540001 -17.219999 -2.382 0.27000001
-28.879999 -16.403 -2.2460001 0.12
-28.827999 -16.493 -2.2460001 0.37
-28.742001 -16.563999 -2.243 0.23
-28.625999 -16.617001 -2.2379999 0.27000001
-28.667 -16.701 -2.244 0.27000001
-28.674 -16.826 -2.2490001 0.25
-28.733 -16.983 -2.2579999 0
-28.767 -17.125 -2.266 0.14
-28.743999 -17.233999 -2.2679999 0.12
-26.021999 -15.71 -2.039 0.12
-25.983 -15.798 -2.04 0.23
-26.018999 -15.876 -2.0450001 0.2
-25.921 -15.929 -2.0409999 0.14
-25.922001 -16.042 -2.0450001 0
-25.959999 -16.177999 -2.053 0.079999998
-26.799 -16.819 -2.1300001 0.16
-26.83 -16.955999 -2.138 0.11
-28.475 -18.124001 -2.286 0.14
-28.437 -18.162001 -2.2850001 0.28
-28.374001 -18.247999 -2.2850001 0
-27.021999 -17.497 -2.171 0.07
-26.948 -17.57 -2.1689999 0.14
-23.671 -15.536 -1.885 0.28999999
-26.865999 -17.757 -2.1719999 0.23999999
-26.818001 -17.785999 -2.1700001 0.18000001
-26.74 -17.856001 -2.168 0.28
-26.694 -17.947001 -2.1689999 0.2
-26.672001 -18.054001 -2.1719999 0.28
-26.576 -18.111 -2.1689999 0.13
-24.916 -17.091999 -2.0250001 0
-23.164 -15.996 -1.873 0
-26.549 -18.399 -2.1789999 0.07
-26.524 -18.506001 -2.1819999 0.15000001
-23.063999 -16.195999 -1.875 0.23
-22.997999 -16.257999 -1.874 0.23
-23.18 -16.496 -1.895 0.30000001
-23.111 -16.556999 -1.8940001 0.20999999
-23.007999 -16.591999 -1.8890001 0.34
-23.062 -16.686001 -1.896 0.23999999
-23.101 -16.826 -1.905 0.23999999
-23.004999 -16.865999 -1.901 0.28999999
-22.923 -16.917 -1.898 0.30000001
-23.039 -17.115 -1.914 0.28999999
-22.997 -17.195999 -1.915 0.30000001
-22.892 -17.23 -1.91 0.28
-22.908001 -17.298 -1.914 0.27000001
-22.799 -17.329 -1.909 0.30000001
-22.813999 -17.454 -1.915 0.19
-22.900999 -17.635 -1.929 0.5
-22.84 -17.702 -1.928 0.20999999
-22.749001 -17.747 -1.925 0.18000001
-22.822001 -17.861 -1.934 0.44999999
-22.783001 -17.947001 -1.936 0.25
-22.827999 -18.099001 -1.9450001 0.23999999
-22.752001 -18.155001 -1.944 0.28999999
-22.818001 -18.326 -1.955 0.27000001
-22.83 -18.454 -1.962 0.28999999
-22.799999 -18.548 -1.965 0.25999999
-22.826 -18.629 -1.97 0.25
-22.781 -18.712 -1.971 0.23999999
-22.704 -18.768 -1.969 0.38999999
-22.716999 -18.9 -1.976 0.18000001
-21.160999 -17.716 -1.832 0.36000001
-21.219999 -17.879 -1.8430001 0.18000001
-21.097 -17.889 -1.837 0.38
-21.056 -17.910999 -1.836 0.23
-20.921 -17.91 -1.8279999 0.25
-20.898001 -18.004 -1.831 0.2
-20.768 -18.006001 -1.824 0.18000001
-20.893999 -18.231001 -1.842 0.15000001
-20.958 -18.403 -1.854 0.14
-21.011999 -18.568001 -1.865 0.30000001
-21.007 -18.622 -1.867 0.19
-20.914 -18.658001 -1.864 0.19
-19.181 -17.216999 -1.698 0.27000001
-19.086 -17.24 -1.694 0.47999999
-19.048 -17.315001 -1.696 0.20999999
-18.9 -17.290001 -1.686 0.22
-20.753 -19.108 -1.878 0.31
-20.722 -19.139999 -1.877 0.28999999
-18.784 -17.457001 -1.688 0.14
-15.222 -14.229 -1.334 0.38
