# .PCD v0.7 - Point Cloud Data file format
VERSION 0.7
FIELDS x y z intensity
SIZE 4 4 4 4
TYPE F F F F
COUNT 1 1 1 1
WIDTH 1416
HEIGHT 1
VIEWPOINT 0 0 0 1 0 0 0
POINTS 1416
DATA ascii
3.438 2.4070001 -1.52 0.34999999
3.51 2.4660001 -1.556 0.38
3.4219999 2.4200001 -1.518 0.27000001
3.451 2.4560001 -1.535 0.44
3.402 2.438 -1.515 0.28
3.3280001 2.4000001 -1.483 0.41999999
3.352 2.434 -1.499 0.28999999
3.325 2.4300001 -1.489 0.37
3.4100001 2.5009999 -1.5319999 0.22
3.4330001 2.5350001 -1.5470001 0.5
3.4879999 2.592 -1.5779999 0.25999999
3.4679999 2.5940001 -1.572 0.28999999
3.4489999 2.5969999 -1.567 0.46000001
3.5020001 2.655 -1.597 0.30000001
3.4349999 2.612 -1.566 0.34
3.3610001 2.572 -1.534 0.34
3.325 2.5610001 -1.52 0.30000001
3.365 2.609 -1.544 0.38999999
3.214 2.506 -1.472 0.33000001
3.372 2.6489999 -1.5549999 0.41
3.2550001 2.572 -1.501 0.28999999
3.2750001 2.5969999 -1.513 0.34999999
3.418 2.7290001 -1.589 0.38
3.1240001 2.5079999 -1.446 0.33000001
3.151 2.546 -1.4630001 0.28
3.1789999 2.586 -1.4809999 0.28
3.191 2.612 -1.4910001 0.33000001
3.0999999 2.5450001 -1.447 0.28999999
3.063 2.53 -1.432 0.46000001
2.947 2.4489999 -1.377 0.25999999
2.983 2.4949999 -1.4 0.38
2.928 2.4649999 -1.376 0.2
3.1470001 2.668 -1.492 0.47999999
2.954 2.5190001 -1.397 0.34999999
3.096 2.6500001 -1.472 0.2
3.0190001 2.5999999 -1.437 0.31999999
3.1270001 2.711 -1.497 0.34
3.05 2.661 -1.462 0.33000001
3.017 2.648 -1.448 0.28999999
3.0669999 2.71 -1.479 0.40000001
2.9890001 2.6570001 -1.443 0.30000001
3.0869999 2.7539999 -1.4960001 0.34999999
3.0810001 2.766 -1.498 0.36000001
2.9790001 2.6900001 -1.448 0.31
2.822 2.563 -1.37 0.28999999
3.01 2.753 -1.474 0.33000001
2.892 2.661 -1.416 0.28999999
2.987 2.767 -1.471 0.20999999
3.1559999 2.9349999 -1.564 0.44999999
3.0120001 2.8169999 -1.4910001 0.31
2.9920001 2.816 -1.4859999 0.38999999
2.9579999 2.8010001 -1.472 0.28999999
2.901 2.7639999 -1.446 0.34999999
2.987 2.865 -1.497 0.41
2.924 2.813 -1.465 0.30000001
2.6589999 2.5710001 -1.326 0.23
2.773 2.7 -1.393 0.44
2.766 2.71 -1.393 0.15000001
2.776 2.737 -1.403 0.38999999
2.823 2.8010001 -1.434 0.30000001
2.8069999 2.8039999 -1.4299999 0.34999999
2.8050001 2.8110001 -1.432 0.31
2.862 2.8859999 -1.4680001 0.38
2.6329999 2.6689999 -1.345 0.31
2.5999999 2.652 -1.331 0.30000001
2.6099999 2.6789999 -1.342 0.34
2.8659999 2.9649999 -1.4910001 0.36000001
2.7260001 2.826 -1.414 0.33000001
2.777 2.898 -1.448 0.20999999
2.582 2.7090001 -1.342 0.41
2.9330001 3.102 -1.548 0.20999999
3.1389999 3.3440001 -1.6720001 0.40000001
2.5999999 2.7809999 -1.368 0.28
2.585 2.7820001 -1.364 0.27000001
2.6099999 2.8180001 -1.381 0.27000001
2.566 2.7880001 -1.3609999 0.31999999
2.648 2.8970001 -1.414 0.38999999
2.6429999 2.9089999 -1.416 0.23
2.5810001 2.859 -1.385 0.44999999
2.4300001 2.707 -1.302 0.16
2.638 2.96 -1.4299999 0.34
2.4560001 2.7609999 -1.324 0.33000001
2.349 2.6570001 -1.266 0.31999999
2.533 2.8870001 -1.381 0.2
2.7130001 3.1140001 -1.494 0.33000001
2.6630001 3.075 -1.47 0.28999999
2.6570001 3.0880001 -1.472 0.34
2.8440001 3.3299999 -1.591 0.16
2.655 3.1159999 -1.48 0.47
2.618 3.092 -1.4630001 0.27000001
2.5280001 3.0020001 -1.414 0.23999999
2.6370001 3.154 -1.4859999 0.44999999
2.7349999 3.2950001 -1.553 0.38
2.2839999 2.7620001 -1.281 0.27000001
2.3789999 2.888 -1.342 0.27000001
2.3399999 2.858 -1.323 0.27000001
2.536 3.1210001 -1.451 0.28999999
2.3010001 2.846 -1.3099999 0.15000001
2.6949999 3.3629999 -1.564 0.46000001
2.546 3.1949999 -1.476 0.34
2.3929999 3.0209999 -1.386 0.25
2.3659999 2.9949999 -1.3710001 0.41
2.52 3.2149999 -1.476 0.23
2.336 2.9960001 -1.365 0.28
2.345 3.0280001 -1.377 0.36000001
2.187 2.839 -1.281 0.28
2.448 3.204 -1.456 0.16
2.2390001 2.947 -1.326 0.28999999
2.2449999 2.964 -1.3329999 0.40000001
2.2390001 2.9749999 -1.335 0.22
2.391 3.201 -1.441 0.43000001
2.3970001 3.2309999 -1.452 0.19
2.319 3.145 -1.4069999 0.38
2.4419999 3.3369999 -1.4960001 0.28
2.3410001 3.217 -1.4349999 0.37
2.299 3.1689999 -1.41 0.28999999
2.243 3.1129999 -1.3789999 0.28999999
2.378 3.3239999 -1.477 0.33000001
2.368 3.3559999 -1.485 0.36000001
2.349 3.3510001 -1.479 0.18000001
2.171 3.1029999 -1.36 0.30000001
2.1670001 3.119 -1.364 0.16
2.095 3.033 -1.321 0.34
2.2780001 3.325 -1.455 0.23
2.224 3.2679999 -1.424 0.2
2.6029999 3.859 -1.699 0.33000001
2.503 3.734 -1.636 0.34999999
2.448 3.6630001 -1.601 0.20999999
2.2920001 3.451 -1.499 0.47
2.3510001 3.566 -1.549 0.20999999
2.3429999 3.5780001 -1.551 0.30000001
2.2290001 3.425 -1.477 0.36000001
2.1570001 3.336 -1.432 0.18000001
2.102 3.2609999 -1.396 0.41
2.0580001 3.214 -1.3710001 0.27000001
2.0510001 3.2249999 -1.374 0.31999999
2.0420001 3.233 -1.374 0.23999999
2.03 3.2360001 -1.373 0.38
1.914 3.0710001 -1.294 0.27000001
1.829 2.9530001 -1.238 0.22
1.79 2.9089999 -1.215 0.19
1.877 3.0639999 -1.284 0.16
1.927 3.171 -1.33 0.17
2.039 3.382 -1.423 0.28999999
2.0150001 3.365 -1.413 0.13
2.3210001 3.9119999 -1.6569999 0.5
2.132 3.615 -1.52 0.25
1.997 3.3959999 -1.419 0.07
1.8890001 3.2320001 -1.3430001 0.16
1.844 3.177 -1.3150001 0.27000001
1.942 3.3740001 -1.401 0.25999999
1.9579999 3.4530001 -1.431 0.38999999
2.0769999 3.6930001 -1.536 0.25
1.9349999 3.4489999 -1.425 0.28
1.8430001 3.3080001 -1.36 0.27000001
2.0320001 3.6800001 -1.523 0.28
1.877 3.421 -1.405 0.20999999
1.789 3.2820001 -1.341 0.23999999
1.752 3.237 -1.318 0.16
1.742 3.244 -1.319 0.25999999
1.712 3.1989999 -1.298 0.25
1.699 3.1989999 -1.296 0.25
1.709 3.243 -1.313 0.16
1.707 3.2650001 -1.3200001 0.28999999
1.686 3.2490001 -1.3099999 0.23
1.668 3.2390001 -1.304 0.14
1.6619999 3.2520001 -1.307 0.28
1.645 3.2320001 -1.2970001 0.22
1.641 3.2490001 -1.302 0.28
1.619 3.2290001 -1.291 0.28
1.614 3.2449999 -1.2970001 0.27000001
1.601 3.2449999 -1.294 0.23999999
1.586 3.24 -1.29 0.15000001
1.564 3.2079999 -1.275 0.31
1.556 3.2160001 -1.276 0.23
1.554 3.2379999 -1.283 0.25
1.5369999 3.2290001 -1.278 0.16
1.533 3.2460001 -1.283 0.28999999
1.512 3.227 -1.273 0.23
1.5039999 3.2379999 -1.275 0.14
1.497 3.2479999 -1.278 0.28999999
1.482 3.23 -1.2690001 0.22
1.4630001 3.214 -1.26 0.13
1.4680001 3.253 -1.275 0.28
1.451 3.2420001 -1.268 0.16
1.439 3.243 -1.267 0.27000001
1.4220001 3.2309999 -1.2589999 0.14
1.424 3.25 -1.267 0.25999999
1.399 3.2179999 -1.251 0.17
1.335 3.096 -1.198 0.14
1.285 3.0039999 -1.1569999 0.2
1.359 3.2090001 -1.242 0.14
1.358 3.2360001 -1.251 0.28999999
1.351 3.247 -1.2539999 0.23
1.35 3.2609999 -1.2589999 0.28999999
1.3329999 3.2460001 -1.251 0.27000001
1.318 3.2379999 -1.2460001 0.28999999
1.299 3.2219999 -1.238 0.28999999
1.294 3.2379999 -1.243 0.25999999
1.284 3.2420001 -1.243 0.23999999
1.267 3.214 -1.23 0.14
1.268 3.2460001 -1.242 0.31
1.249 3.2290001 -1.233 0.23
1.235 3.221 -1.228 0.16
1.201 3.1600001 -1.201 0.30000001
1.184 3.145 -1.193 0.23999999
1.179 3.164 -1.2 0.18000001
1.184 3.1919999 -1.211 0.28
1.173 3.194 -1.21 0.22
1.147 3.152 -1.191 0.30000001
1.164 3.233 -1.223 0.18000001
1.165 3.2679999 -1.2359999 0.25999999
1.152 3.263 -1.233 0.19
1.137 3.2550001 -1.227 0.12
1.14 3.2780001 -1.2359999 0.18000001
1.125 3.267 -1.23 0.12
1.1160001 3.276 -1.233 0.17
1.103 3.27 -1.229 0.22
1.0880001 3.2609999 -1.224 0.16
1.082 3.277 -1.229 0.25
1.075 3.29 -1.233 0.22
1.053 3.24 -1.211 0.13
1.058 3.2909999 -1.2309999 0.28
1.041 3.273 -1.222 0.15000001
1.031 3.2780001 -1.223 0.27000001
1.021 3.2809999 -1.223 0.18000001
1.017 3.3039999 -1.2309999 0.13
0.99699998 3.277 -1.219 0.19
0.98699999 3.2620001 -1.212 0.14
0.98699999 3.299 -1.226 0.30000001
0.97500002 3.2950001 -1.223 0.22
0.96200001 3.289 -1.219 0.17
0.95300001 3.2980001 -1.222 0.27000001
0.93599999 3.277 -1.212 0.16
0.93099999 3.2980001 -1.219 0.14
0.92000002 3.28 -1.211 0.18000001
0.91000003 3.2850001 -1.212 0.14
0.903 3.3 -1.217 0.30000001
0.89499998 3.3099999 -1.22 0.20999999
0.87800002 3.2880001 -1.21 0.18000001
0.86900002 3.2980001 -1.2130001 0.27000001
0.838 3.194 -1.171 0.16
0.84399998 3.2639999 -1.198 0.23
0.83899999 3.2880001 -1.206 0.18000001
0.82999998 3.2939999 -1.2079999 0.23999999
0.81599998 3.2820001 -1.202 0.15000001
0.81099999 3.309 -1.211 0.14
0.80000001 3.3069999 -1.21 0.19
0.78899997 3.283 -1.2 0.14
0.78600001 3.3169999 -1.212 0.28999999
0.76899999 3.2920001 -1.201 0.16
0.76700002 3.329 -1.215 0.14
0.74699998 3.2909999 -1.199 0.20999999
0.741 3.3099999 -1.206 0.16
0.72899997 3.3069999 -1.2029999 0.28
0.72600001 3.3169999 -1.207 0.23999999
0.71200001 3.303 -1.201 0.17
0.70200002 3.3069999 -1.201 0.25999999
0.68800002 3.293 -1.1950001 0.16
0.68199998 3.3150001 -1.2029999 0.25999999
0.671 3.313 -1.201 0.23999999
0.65700001 3.2969999 -1.194 0.14
0.65600002 3.3239999 -1.204 0.28999999
0.64200002 3.306 -1.196 0.18000001
0.63499999 3.326 -1.2029999 0.14
0.62099999 3.306 -1.1950001 0.2
0.60799998 3.2909999 -1.188 0.16
0.59899998 3.302 -1.192 0.14
0.59299999 3.3340001 -1.2029999 0.17
0.58399999 3.3110001 -1.194 0.12
0.57300001 3.309 -1.193 0.18000001
0.56099999 3.3 -1.188 0.12
0.551 3.3069999 -1.1900001 0.18000001
0.542 3.312 -1.192 0.16
0.53299999 3.323 -1.1950001 0.25999999
0.52100003 3.3180001 -1.193 0.16
0.51800001 3.3310001 -1.198 0.25999999
0.50199997 3.2980001 -1.184 0.15000001
0.49399999 3.3180001 -1.191 0.14
0.47999999 3.2920001 -1.1799999 0.2
0.472 3.3099999 -1.187 0.14
0.463 3.3239999 -1.192 0.28999999
0.45500001 3.2969999 -1.181 0.14
0.44800001 3.3280001 -1.193 0.14
0.43799999 3.3299999 -1.193 0.18000001
0.426 3.322 -1.189 0.12
0.41600001 3.323 -1.189 0.18000001
0.403 3.309 -1.183 0.23
0.38800001 3.2679999 -1.166 0.13
0.37 3.145 -1.118 0.14
0.35499999 3.105 -1.102 0.2
0.36500001 3.293 -1.175 0.11
0.35699999 3.3239999 -1.187 0.14
0.34200001 3.273 -1.166 0.050000001
0.33000001 3.26 -1.161 0.14
0.32499999 3.312 -1.181 0.11
0.31799999 3.3 -1.176 0.15000001
0.31 3.3180001 -1.182 0.12
0.29899999 3.313 -1.1799999 0.18000001
0.287 3.3050001 -1.177 0.050000001
0.278 3.322 -1.183 0.17
0.26699999 3.3099999 -1.178 0.11
0.25799999 3.335 -1.187 0.18000001
0.252 3.3150001 -1.179 0.11
0.242 3.3310001 -1.1849999 0.20999999
0.229 3.2939999 -1.171 0.13
0.22 3.3169999 -1.179 0.28
0.20900001 3.2980001 -1.171 0.16
0.2 3.319 -1.179 0.14
0.193 3.302 -1.173 0.20999999
0.18099999 3.267 -1.159 0.27000001
0.171 3.2720001 -1.161 0.23
0.161 3.28 -1.163 0.14
0.147 3.1719999 -1.1210001 0.31
0.139 3.217 -1.1390001 0.22
0.13 3.2809999 -1.163 0.14
0.125 3.2590001 -1.155 0.28999999
0.113 3.2160001 -1.138 0.23
0.105 3.3099999 -1.174 0.15000001
0.094999999 3.316 -1.177 0.28999999
0.085000001 3.3139999 -1.176 0.20999999
0.074000001 3.2679999 -1.158 0.15000001
0.063000001 3.279 -1.1619999 0.31999999
0.059 3.3110001 -1.174 0.18000001
0.048 3.313 -1.175 0.13
0.037999999 3.296 -1.169 0.19
0.027000001 3.2690001 -1.158 0.12
0.017000001 3.1489999 -1.1109999 0.31
0.0070000002 3.2049999 -1.133 0.25
-0.003 3.2539999 -1.152 0.25999999
-0.0080000004 3.1919999 -1.128 0.28999999
-0.017999999 3.23 -1.142 0.25
-0.028999999 3.2520001 -1.151 0.28999999
-0.039999999 3.2909999 -1.166 0.28
-0.048999999 3.257 -1.153 0.36000001
-0.059 3.22 -1.1390001 0.20999999
-0.07 3.2720001 -1.159 0.13
-0.075000003 3.2720001 -1.159 0.20999999
-0.082000002 3.1689999 -1.119 0.17
-0.089000002 3.0940001 -1.09 0.16
-0.1 3.1159999 -1.099 0.2
-0.106 3.027 -1.064 0.12
-0.125 3.2379999 -1.147 0.28999999
-0.13500001 3.2249999 -1.142 0.1
-0.152 3.4549999 -1.232 0.19
-0.156 3.3340001 -1.1849999 0.18000001
-0.15700001 3.161 -1.117 0
-0.168 3.1800001 -1.125 0.13
-0.177 3.171 -1.1210001 0.25999999
-0.19 3.211 -1.137 0.28999999
-0.198 3.184 -1.127 0.16
-0.212 3.3010001 -1.173 0.30000001
-0.223 3.3150001 -1.179 0.20999999
-0.233 3.3069999 -1.176 0.30000001
-0.242 3.2950001 -1.171 0.2
-0.25400001 3.306 -1.176 0.14
-0.26499999 3.316 -1.1799999 0.18000001
-0.27399999 3.3039999 -1.176 0.30000001
-0.27700001 3.2720001 -1.163 0.27000001
-0.28400001 3.24 -1.151 0.31
-0.29100001 3.207 -1.1390001 0.18000001
-0.31200001 3.3169999 -1.182 0.33000001
-0.32100001 3.296 -1.174 0.33000001
-0.333 3.312 -1.181 0.38
-0.33700001 3.306 -1.179 0.23999999
-0.35100001 3.329 -1.188 0.46000001
-0.352 3.25 -1.158 0.30000001
-0.368 3.3 -1.178 0.28999999
-0.37900001 3.2969999 -1.177 0.34
-0.38999999 3.302 -1.179 0.28
-0.40400001 3.3340001 -1.193 0.46000001
-0.40400001 3.2909999 -1.176 0.28999999
-0.41800001 3.3150001 -1.186 0.38
-0.428 3.316 -1.187 0.30000001
-0.43700001 3.303 -1.182 0.25999999
-0.45100001 3.3280001 -1.193 0.43000001
-0.46000001 3.3150001 -1.188 0.23999999
-0.46799999 3.299 -1.182 0.36000001
-0.477 3.3239999 -1.193 0.34
-0.48699999 3.3150001 -1.1900001 0.30000001
-0.495 3.3010001 -1.1849999 0.33000001
-0.50599998 3.303 -1.186 0.31999999
-0.51899999 3.316 -1.192 0.38999999
-0.528 3.309 -1.1900001 0.34999999
-0.53899997 3.3069999 -1.1900001 0.31999999
-0.546 3.3150001 -1.193 0.38999999
-0.55500001 3.3099999 -1.192 0.30000001
-0.56699997 3.3139999 -1.194 0.31999999
-0.57800001 3.3180001 -1.196 0.34
-0.58700001 3.3080001 -1.193 0.36000001
-0.59899998 3.316 -1.197 0.30000001
-0.61000001 3.3169999 -1.198 0.38999999
-0.61299998 3.3050001 -1.194 0.31999999
-0.625 3.309 -1.196 0.30000001
-0.639 3.323 -1.2029999 0.40000001
-0.648 3.316 -1.201 0.31
-0.65899998 3.316 -1.201 0.36000001
-0.667 3.3050001 -1.198 0.31
-0.67799997 3.306 -1.199 0.33000001
-0.685 3.3099999 -1.201 0.36000001
-0.69599998 3.3139999 -1.2029999 0.28
-0.70700002 3.313 -1.204 0.37
-0.72100002 3.326 -1.21 0.34
-0.73400003 3.336 -1.215 0.37
-0.73199999 3.2780001 -1.193 0.30000001
-0.73900002 3.2639999 -1.188 0.25
-0.759 3.325 -1.2130001 0.31
-0.75800002 3.2750001 -1.194 0.30000001
-0.78100002 3.325 -1.215 0.25
-0.79699999 3.345 -1.224 0.28
-0.801 3.3169999 -1.214 0.27000001
-0.81099999 3.312 -1.2130001 0.30000001
-0.81999999 3.326 -1.219 0.31
-0.82499999 3.3010001 -1.21 0.27000001
-0.84200001 3.326 -1.221 0.34999999
-0.85100001 3.316 -1.2180001 0.34
-0.86000001 3.3080001 -1.216 0.27000001
-0.87699997 3.3299999 -1.226 0.30000001
-0.88700002 3.3239999 -1.225 0.27000001
-0.884 3.296 -1.214 0.30000001
-0.89999998 3.3110001 -1.221 0.31999999
-0.90899998 3.303 -1.219 0.23999999
-0.92500001 3.319 -1.227 0.34999999
-0.92500001 3.2809999 -1.212 0.28
-0.94400001 3.3099999 -1.225 0.31
-0.95499998 3.3069999 -1.225 0.33000001
-0.94599998 3.2590001 -1.206 0.34999999
-0.935 3.1860001 -1.178 0.23
-0.97600001 3.2850001 -1.219 0.34
-0.995 3.3099999 -1.2309999 0.31999999
-1.003 3.2969999 -1.227 0.25999999
-1.008 3.279 -1.221 0.25
-1.025 3.296 -1.229 0.38
-1.023 3.2709999 -1.219 0.28
-1.036 3.2780001 -1.224 0.31
-1.053 3.2950001 -1.232 0.34999999
-1.063 3.289 -1.2309999 0.31999999
-1.068 3.27 -1.225 0.25
-1.079 3.27 -1.226 0.41
-1.091 3.2720001 -1.228 0.27000001
-1.097 3.2709999 -1.228 0.38999999
-1.107 3.267 -1.228 0.33000001
-1.1210001 3.276 -1.233 0.31999999
-1.13 3.2690001 -1.232 0.30000001
-1.138 3.257 -1.228 0.31999999
-1.15 3.2579999 -1.23 0.31999999
-1.159 3.253 -1.23 0.36000001
-1.163 3.247 -1.228 0.25999999
-1.187 3.28 -1.243 0.36000001
-1.197 3.277 -1.243 0.34
-1.2 3.2520001 -1.235 0.30000001
-1.206 3.2379999 -1.23 0.27000001
-1.22 3.244 -1.235 0.37
-1.234 3.2509999 -1.239 0.36000001
-1.242 3.256 -1.242 0.34
-1.2460001 3.237 -1.235 0.34
-1.26 3.243 -1.24 0.31999999
-1.274 3.2479999 -1.243 0.31
-1.289 3.256 -1.249 0.41999999
-1.293 3.2360001 -1.242 0.23999999
-1.3049999 3.2349999 -1.243 0.50999999
-1.28 3.161 -1.2130001 0.22
-1.3279999 3.25 -1.252 0.37
-1.3380001 3.244 -1.251 0.33000001
-1.35 3.243 -1.253 0.31999999
-1.3609999 3.2420001 -1.2539999 0.38
-1.377 3.25 -1.2589999 0.31999999
-1.393 3.2590001 -1.265 0.36000001
-1.396 3.2520001 -1.263 0.36000001
-1.413 3.2650001 -1.27 0.36000001
-1.413 3.2360001 -1.26 0.34999999
-1.431 3.2490001 -1.267 0.37
-1.449 3.2609999 -1.275 0.36000001
-1.462 3.2639999 -1.278 0.37
-1.466 3.2579999 -1.276 0.38
-1.475 3.2520001 -1.275 0.31999999
-1.482 3.24 -1.273 0.47999999
-1.4680001 3.1830001 -1.25 0.22
-1.522 3.2709999 -1.29 0.36000001
-1.525 3.2509999 -1.283 0.38
-1.533 3.243 -1.2819999 0.38999999
-1.531 3.2260001 -1.275 0.34999999
-1.54 3.2190001 -1.275 0.38999999
-1.55 3.2130001 -1.274 0.38
-1.451 2.987 -1.178 0.30000001
-1.4450001 2.9530001 -1.165 0.20999999
-1.6 3.2379999 -1.291 0.30000001
-1.627 3.266 -1.306 0.37
-1.633 3.2650001 -1.307 0.40000001
-1.6440001 3.2620001 -1.307 0.31999999
-1.661 3.27 -1.313 0.31999999
-1.676 3.2739999 -1.318 0.36000001
-1.689 3.2739999 -1.3200001 0.36000001
-1.701 3.27 -1.321 0.28999999
-1.726 3.293 -1.3329999 0.38
-1.762 3.323 -1.35 0.19
-2.4979999 4.7059999 -1.961 0.28999999
-1.854 3.4679999 -1.416 0.28999999
-1.906 3.5369999 -1.45 0.40000001
-1.854 3.4170001 -1.399 0.28999999
-1.881 3.4400001 -1.4119999 0.25
-1.8839999 3.421 -1.406 0.44
-1.83 3.3110001 -1.358 0.33000001
-1.78 3.2 -1.311 0.20999999
-1.933 3.4449999 -1.424 0.23999999
-1.9170001 3.392 -1.403 0.44999999
-1.966 3.4519999 -1.432 0.2
-1.989 3.467 -1.442 0.38999999
-1.944 3.3659999 -1.399 0.30000001
-1.926 3.323 -1.381 0.25
-1.925 3.2980001 -1.372 0.41
-1.9630001 3.3380001 -1.393 0.34999999
-2.0420001 3.4449999 -1.4450001 0.34
-1.988 3.332 -1.396 0.34999999
-2.0739999 3.45 -1.4529999 0.27000001
-2.0480001 3.3829999 -1.425 0.20999999
-2.204 3.6240001 -1.5369999 0.44
-2.0769999 3.3940001 -1.4349999 0.34
-2.141 3.4719999 -1.474 0.20999999
-2.1129999 3.404 -1.446 0.40000001
-2.0840001 3.335 -1.416 0.23999999
-2.1400001 3.4000001 -1.45 0.30000001
-2.187 3.45 -1.476 0.38999999
-2.2249999 3.497 -1.499 0.34
-2.4089999 3.757 -1.624 0.18000001
-2.0220001 3.1400001 -1.339 0.38999999
-2.0769999 3.2019999 -1.3710001 0.34
-2.1659999 3.313 -1.427 0.30000001
-2.1630001 3.286 -1.4170001 0.22
-2.194 3.3099999 -1.432 0.2
-2.4189999 3.6329999 -1.585 0.50999999
-1.902 2.8469999 -1.2180001 0.20999999
-2.1900001 3.25 -1.411 0.33000001
-2.1300001 3.1400001 -1.363 0.23999999
-2.303 3.369 -1.475 0.28
-2.267 3.2950001 -1.443 0.31
-2.345 3.385 -1.489 0.34
-2.4460001 3.517 -1.554 0.34999999
-2.155 3.0840001 -1.35 0.22
-2.2079999 3.138 -1.3789999 0.33000001
-2.244 3.1670001 -1.397 0.23999999
-2.2 3.085 -1.3609999 0.38
-2.1600001 3.01 -1.3279999 0.20999999
-2.122 2.948 -1.299 0.34999999
-2.1760001 3.003 -1.329 0.25
-2.2449999 3.075 -1.368 0.23
-2.5109999 3.4130001 -1.536 0.31999999
-2.2969999 3.1059999 -1.39 0.34999999
-2.1689999 2.9159999 -1.3 0.33000001
-2.267 3.026 -1.358 0.33000001
-2.444 3.2379999 -1.465 0.20999999
-2.507 3.309 -1.502 0.38999999
-2.4809999 3.2539999 -1.479 0.37
-2.9990001 3.9000001 -1.802 0.20999999
-2.6860001 3.4749999 -1.596 0.31999999
-2.391 3.0769999 -1.403 0.38999999
-2.4260001 3.102 -1.419 0.28999999
-2.4579999 3.122 -1.432 0.33000001
-2.4519999 3.105 -1.426 0.34
-2.506 3.152 -1.454 0.38999999
-2.5039999 3.1300001 -1.446 0.28999999
-2.4430001 3.0350001 -1.403 0.25
-2.477 3.056 -1.4170001 0.12
-2.5869999 3.171 -1.479 0
-2.674 3.266 -1.529 0
-2.641 3.2060001 -1.503 0
-2.9289999 2.842 -1.475 0
-3.0610001 2.931 -1.536 0.050000001
-3.1919999 3.0450001 -1.603 0
-2.8080001 2.6659999 -1.393 0
-2.921 2.7550001 -1.449 0.11
-3.168 2.9660001 -1.576 0
-2.9549999 2.7520001 -1.4579999 0.13
-3.257 3.01 -1.613 0.23
-3.1470001 2.901 -1.552 0.23
-3.3440001 3.0610001 -1.651 0.23
-3.437 3.1259999 -1.6950001 0.46000001
-3.2579999 2.9460001 -1.596 0.31999999
-3.2390001 2.911 -1.582 0.20999999
-3.5 3.1229999 -1.712 0.31999999
-3.2950001 2.924 -1.601 0.38
-3.3429999 2.957 -1.624 0.31999999
-3.2060001 2.819 -1.548 0.38
-3.2449999 2.8340001 -1.563 0.22
-3.4230001 2.97 -1.651 0.33000001
-3.3039999 2.849 -1.584 0.38
-3.2019999 2.7449999 -1.528 0.28999999
-3.25 2.7679999 -1.548 0.34999999
-2.888 2.4549999 -1.3609999 0.25999999
-2.835 2.3959999 -1.331 0.31999999
-2.846 2.3900001 -1.332 0.46000001
-3.0139999 2.513 -1.414 0.27000001
-3.2639999 2.7019999 -1.536 0.28999999
-2.9820001 2.4560001 -1.39 0.30000001
-3.109 2.5420001 -1.449 0.28
-3.0039999 2.45 -1.395 0.41
-3.0929999 2.5050001 -1.4349999 0.18000001
-3.336 2.6819999 -1.552 0.41999999
-3.1949999 2.5539999 -1.478 0.34
-3.1830001 2.5280001 -1.4680001 0.28
-3.2049999 2.529 -1.475 0.41
-3.3299999 2.609 -1.533 0.25
-3.322 2.595 -1.527 0.20999999
-3.2290001 2.507 -1.478 0.23
-3.1159999 2.405 -1.418 0.43000001
-3.184 2.441 -1.448 0.25999999
-3.1559999 2.404 -1.4299999 0.31999999
-3.1989999 2.421 -1.448 0.44999999
-3.2820001 2.4660001 -1.484 0.31999999
-3.2420001 2.4289999 -1.4630001 0.23999999
-3.2980001 2.454 -1.4859999 0.38
-3.563 2.632 -1.6109999 0.30000001
-3.612 2.6500001 -1.63 0.43000001
-3.4219999 2.4960001 -1.535 0.20999999
-3.2420001 2.3510001 -1.4450001 0.31999999
-3.2409999 2.342 -1.443 0.38999999
-3.563 2.5550001 -1.5930001 0.33000001
-3.3410001 2.382 -1.483 0.20999999
-3.4690001 2.4560001 -1.541 0.38
-3.494 2.457 -1.549 0.36000001
-3.6889999 2.575 -1.638 0.28
-3.5309999 2.4489999 -1.559 0.38
-3.438 2.3699999 -1.512 0.34
-3.513 2.4130001 -1.545 0.25
-3.415 2.3310001 -1.4960001 0.31999999
-3.3469999 2.27 -1.46 0.38999999
-3.5480001 2.388 -1.551 0.30000001
-3.527 2.358 -1.538 0.30000001
-3.836 2.5439999 -1.678 0.44999999
-3.6289999 2.401 -1.58 0.25
-3.5220001 2.3150001 -1.527 0.23999999
-3.6719999 2.3959999 -1.5930001 0.41
-3.862 2.5009999 -1.678 0.28
-3.7709999 2.4260001 -1.632 0.34
-3.9000001 2.49 -1.688 0.37
-3.8380001 2.4349999 -1.656 0.34999999
-3.924 2.48 -1.694 0.31999999
-3.8380001 2.4100001 -1.651 0.30000001
-3.9389999 2.4549999 -1.694 0.31999999
-3.901 2.415 -1.6720001 0.34
-3.9260001 2.4130001 -1.6799999 0.37
-3.9130001 2.388 -1.671 0.28999999
-3.796 2.3010001 -1.614 0.30000001
-3.948 2.3840001 -1.682 0.47999999
-3.9219999 2.352 -1.6670001 0.31
-3.9849999 2.372 -1.692 0.31999999
-3.9949999 2.3610001 -1.693 0.34999999
-4.0209999 2.359 -1.702 0.31999999
-4.0040002 2.3329999 -1.691 0.30000001
-4.026 2.329 -1.697 0.36000001
-4.0489998 2.3329999 -1.706 0.38
-4.0500002 2.3169999 -1.7029999 0.34
-4.066 2.309 -1.707 0.37
-4.079 2.3 -1.71 0.31
-4.0799999 2.283 -1.707 0.37
-4.0999999 2.2780001 -1.712 0.41
-4.112 2.276 -1.716 0.30000001
-4.132 2.27 -1.722 0.41999999
-4.1360002 2.2550001 -1.72 0.38999999
-4.164 2.253 -1.73 0.38
-4.1729999 2.2409999 -1.7309999 0.36000001
-4.1789999 2.227 -1.73 0.38
-4.1919999 2.217 -1.733 0.27000001
-4.211 2.2190001 -1.739 0.36000001
-4.1989999 2.1960001 -1.7309999 0.31999999
-4.204 2.1819999 -1.7309999 0.23
-4.1849999 2.155 -1.719 0.46000001
-4.2129998 2.1530001 -1.728 0.34
-4.23 2.145 -1.733 0.28
-4.243 2.135 -1.7359999 0.34999999
-4.2350001 2.122 -1.7309999 0.34999999
-4.2519999 2.1140001 -1.735 0.34999999
-4.257 2.0999999 -1.734 0.31999999
-4.2610002 2.086 -1.734 0.31999999
-4.2779999 2.0769999 -1.738 0.30000001
-4.2810001 2.062 -1.7359999 0.31999999
-4.2859998 2.0480001 -1.7359999 0.31
-4.2930002 2.0420001 -1.737 0.31999999
-4.2969999 2.0280001 -1.7359999 0.28
-4.2950001 2.0109999 -1.733 0.31
-4.3249998 2.0079999 -1.743 0.34
-4.309 1.985 -1.734 0.30000001
-4.3309999 1.978 -1.74 0.36000001
-4.3239999 1.966 -1.7359999 0.30000001
-4.3470001 1.96 -1.743 0.34999999
-4.336 1.939 -1.7359999 0.30000001
-4.349 1.929 -1.739 0.34999999
-4.3530002 1.914 -1.738 0.30000001
-4.3730001 1.906 -1.744 0.37
-4.362 1.885 -1.7359999 0.31
-4.3730001 1.874 -1.739 0.33000001
-4.3839998 1.8710001 -1.742 0.31999999
-4.395 1.859 -1.744 0.28999999
-4.382 1.837 -1.7359999 0.28999999
-4.3930001 1.826 -1.739 0.25
-4.3920002 1.809 -1.7359999 0.050000001
-4.408 1.799 -1.74 0
-4.4039998 1.79 -1.737 0
-4.3899999 1.768 -1.729 0
-4.4310002 -2.0799999 -1.7920001 0
-4.4130001 -2.0880001 -1.7869999 0.02
-4.3909998 -2.095 -1.781 0.13
-4.3759999 -2.1040001 -1.777 0.23
-4.348 -2.1070001 -1.768 0.30000001
-4.3379998 -2.119 -1.766 0.28999999
-4.3449998 -2.1400001 -1.772 0.36000001
-4.336 -2.1440001 -1.77 0.36000001
-4.316 -2.151 -1.7640001 0.41999999
-4.3179998 -2.1689999 -1.768 0.28999999
-4.3080001 -2.181 -1.766 0.47999999
-4.3039999 -2.1960001 -1.768 0.36000001
-4.2989998 -2.21 -1.768 0.47
-4.2839999 -2.2190001 -1.765 0.37
-4.2800002 -2.2260001 -1.765 0.5
-4.2849998 -2.2460001 -1.77 0.40000001
-4.2399998 -2.2390001 -1.753 0.61000001
-4.2459998 -2.2590001 -1.7589999 0.30000001
-4.2540002 -2.2809999 -1.765 0.28999999
-4.2459998 -2.2939999 -1.765 0.31
-4.2410002 -2.3080001 -1.766 0.31999999
-4.2309999 -2.3110001 -1.763 0.27000001
-4.2220001 -2.3239999 -1.763 0.31
-4.211 -2.335 -1.761 0.31999999
-4.2090001 -2.3510001 -1.763 0.34
-4.204 -2.3659999 -1.765 0.27000001
-4.197 -2.3789999 -1.765 0.30000001
-4.1830001 -2.3889999 -1.762 0.30000001
-4.1890001 -2.401 -1.766 0.30000001
-4.177 -2.411 -1.7640001 0.31999999
-4.1690001 -2.424 -1.7640001 0.31
-4.1690001 -2.4419999 -1.768 0.30000001
-4.1500001 -2.4489999 -1.763 0.30000001
-4.1459999 -2.4630001 -1.7640001 0.31
-4.1300001 -2.4719999 -1.76 0.30000001
-4.1279998 -2.4790001 -1.761 0.27000001
-4.1199999 -2.4920001 -1.761 0.34
-4.1170001 -2.5079999 -1.763 0.28999999
-4.1170001 -2.526 -1.767 0.33000001
-4.1040001 -2.536 -1.765 0.28
-4.092 -2.546 -1.763 0.30000001
-4.0910001 -2.5539999 -1.7640001 0.30000001
-4.0869999 -2.5699999 -1.766 0.28999999
-4.0760002 -2.5810001 -1.765 0.31
-4.073 -2.5969999 -1.767 0.34
-4.0570002 -2.6040001 -1.763 0.27000001
-4.0560002 -2.622 -1.767 0.31
-4.0430002 -2.632 -1.765 0.28999999
-4.0359998 -2.6359999 -1.763 0.27000001
-4.033 -2.652 -1.765 0.31
-4.027 -2.6670001 -1.767 0.33000001
-4.027 -2.684 -1.771 0.31
-4.0100002 -2.6919999 -1.767 0.28
-4.013 -2.7119999 -1.772 0.36000001
-3.9860001 -2.7119999 -1.763 0.25
-3.9979999 -2.73 -1.771 0.33000001
-3.9760001 -2.733 -1.765 0.31999999
-3.967 -2.7449999 -1.765 0.31999999
-3.9649999 -2.7620001 -1.768 0.30000001
-3.9530001 -2.7720001 -1.766 0.28
-3.954 -2.7909999 -1.771 0.33000001
-3.9489999 -2.8069999 -1.773 0.28999999
-3.9449999 -2.813 -1.773 0.31999999
-3.9219999 -2.8150001 -1.766 0.31
-3.9230001 -2.8340001 -1.771 0.28999999
-3.911 -2.8440001 -1.7690001 0.34
-3.914 -2.865 -1.775 0.31
-3.8940001 -2.8699999 -1.77 0.30000001
-3.888 -2.8840001 -1.771 0.30000001
-3.8929999 -2.8970001 -1.776 0.34
-3.8859999 -2.9119999 -1.777 0.31
-3.8729999 -2.9200001 -1.775 0.30000001
-3.855 -2.9260001 -1.771 0.33000001
-3.8599999 -2.9489999 -1.778 0.34
-3.839 -2.9519999 -1.772 0.28999999
-3.848 -2.9690001 -1.779 0.30000001
-3.8299999 -2.974 -1.774 0.31999999
-3.8199999 -2.9860001 -1.774 0.28999999
-3.8239999 -3.0079999 -1.781 0.30000001
-3.8199999 -3.0250001 -1.784 0.31
-3.793 -3.023 -1.775 0.25999999
-3.7869999 -3.0369999 -1.776 0.30000001
-3.7850001 -3.0450001 -1.778 0.30000001
-3.7780001 -3.0599999 -1.779 0.34999999
-3.773 -3.075 -1.781 0.31999999
-3.75 -3.076 -1.775 0.28
-3.7479999 -3.0940001 -1.779 0.34999999
-3.7449999 -3.112 -1.7819999 0.30000001
-3.7360001 -3.1140001 -1.78 0.31
-3.7249999 -3.1240001 -1.779 0.34999999
-3.714 -3.135 -1.779 0.28999999
-3.704 -3.1470001 -1.779 0.31999999
-3.7019999 -3.1659999 -1.783 0.37
-3.694 -3.178 -1.784 0.28999999
-3.6700001 -3.178 -1.776 0.31
-3.6630001 -3.1819999 -1.776 0.28999999
-3.681 -3.2179999 -1.79 0.33000001
-3.6559999 -3.2160001 -1.7819999 0.30000001
-3.6400001 -3.223 -1.779 0.31
-3.631 -3.2349999 -1.78 0.27000001
-3.618 -3.244 -1.779 0.31
-3.605 -3.253 -1.777 0.30000001
-3.6110001 -3.2690001 -1.783 0.31
-3.6010001 -3.28 -1.783 0.34
-3.5869999 -3.2880001 -1.781 0.31999999
-3.5969999 -3.3180001 -1.7920001 0.33000001
-3.562 -3.306 -1.779 0.27000001
-3.5569999 -3.323 -1.781 0.27000001
-3.563 -3.349 -1.79 0.34999999
-3.533 -3.332 -1.777 0.30000001
-3.5239999 -3.3440001 -1.778 0.31999999
-3.529 -3.3710001 -1.7869999 0.34999999
-3.4990001 -3.362 -1.776 0.31999999
-3.4949999 -3.3800001 -1.779 0.28999999
-3.494 -3.4000001 -1.784 0.31
-3.4590001 -3.3870001 -1.771 0.30000001
-3.4679999 -3.4070001 -1.779 0.37
-3.46 -3.421 -1.781 0.33000001
-3.4549999 -3.437 -1.784 0.33000001
-3.4319999 -3.4360001 -1.777 0.31999999
-3.4330001 -3.4579999 -1.784 0.30000001
-3.418 -3.4649999 -1.781 0.28999999
-3.405 -3.473 -1.78 0.31
-3.4000001 -3.48 -1.781 0.36000001
-3.3900001 -3.4909999 -1.781 0.33000001
-3.3640001 -3.4860001 -1.773 0.25
-3.369 -3.513 -1.781 0.38999999
-3.349 -3.5139999 -1.776 0.30000001
-3.348 -3.536 -1.7819999 0.37
-3.3369999 -3.5350001 -1.779 0.30000001
-3.3310001 -3.5510001 -1.7819999 0.34999999
-3.3150001 -3.556 -1.779 0.27000001
-3.3050001 -3.5680001 -1.78 0.31
-3.286 -3.5699999 -1.776 0.34
-3.2809999 -3.5869999 -1.779 0.28
-3.266 -3.5929999 -1.777 0.30000001
-3.2679999 -3.6070001 -1.781 0.34
-3.253 -3.6129999 -1.779 0.31
-3.2479999 -3.6300001 -1.783 0.25999999
-3.2249999 -3.628 -1.776 0.33000001
-3.2190001 -3.6440001 -1.779 0.31999999
-3.21 -3.6559999 -1.781 0.30000001
-3.2019999 -3.6589999 -1.779 0.31999999
-3.1900001 -3.6689999 -1.779 0.30000001
-3.1849999 -3.6860001 -1.783 0.17
-3.1659999 -3.687 -1.779 0.30000001
-3.155 -3.6989999 -1.779 0.20999999
-3.1489999 -3.714 -1.7819999 0.22
-3.142 -3.73 -1.785 0
-3.119 -3.7149999 -1.775 0
-3.1129999 -3.7320001 -1.779 0
-3.0910001 -3.7279999 -1.772 0
-3.0680001 -3.724 -1.765 0
-2.7320001 -4.1090002 -1.808 0.039999999
-2.688 -4.098 -1.795 0.28999999
-2.6700001 -4.0830002 -1.786 0.16
-2.652 -4.0840001 -1.7819999 0.19
-2.6440001 -4.0999999 -1.786 0.28
-2.6329999 -4.1110001 -1.7869999 0.31
-2.615 -4.112 -1.784 0.41
-2.5999999 -4.1170001 -1.7819999 0.51999998
-2.595 -4.1220002 -1.783 0.38999999
-2.5569999 -4.0910001 -1.765 0.63
-2.5639999 -4.131 -1.779 0.36000001
-2.5569999 -4.1479998 -1.784 0.36000001
-2.5339999 -4.1399999 -1.776 0.28999999
-2.529 -4.1609998 -1.7819999 0.33000001
-2.5050001 -4.151 -1.774 0.25
-2.5079999 -4.171 -1.781 0.38
-2.497 -4.1820002 -1.783 0.27000001
-2.477 -4.1789999 -1.778 0.34999999
-2.464 -4.1869998 -1.778 0.27000001
-2.4579999 -4.2069998 -1.784 0.33000001
-2.4389999 -4.204 -1.779 0.33000001
-2.4219999 -4.2049999 -1.776 0.31999999
-2.425 -4.2259998 -1.784 0.33000001
-2.4070001 -4.224 -1.779 0.27000001
-2.398 -4.2399998 -1.783 0.38
-2.3829999 -4.244 -1.781 0.28999999
-2.362 -4.2389998 -1.776 0.31999999
-2.3559999 -4.2589998 -1.781 0.31999999
-2.3559999 -4.276 -1.7869999 0.36000001
-2.3380001 -4.2740002 -1.783 0.28999999
-2.322 -4.2779999 -1.781 0.36000001
-2.3139999 -4.2950001 -1.786 0.27000001
-2.2939999 -4.289 -1.78 0.30000001
-2.2839999 -4.303 -1.783 0.33000001
-2.2750001 -4.3200002 -1.7869999 0.28999999
-2.2639999 -4.3150001 -1.784 0.31
-2.2460001 -4.3119998 -1.779 0.28999999
-2.2449999 -4.3439999 -1.79 0.38
-2.2219999 -4.3330002 -1.7819999 0.30000001
-2.207 -4.3379998 -1.781 0.25
-2.2030001 -4.3629999 -1.789 0.43000001
-2.178 -4.3470001 -1.779 0.23
-2.175 -4.3590002 -1.783 0.38
-2.164 -4.3720002 -1.786 0.28
-2.148 -4.3740001 -1.784 0.31
-2.1340001 -4.3790002 -1.783 0.33000001
-2.125 -4.3959999 -1.7869999 0.31
-2.1040001 -4.3870001 -1.781 0.27000001
-2.095 -4.4039998 -1.785 0.34999999
-2.0880001 -4.4070001 -1.785 0.34999999
-2.0699999 -4.4050002 -1.781 0.30000001
-2.0569999 -4.4130001 -1.7819999 0.33000001
-2.0480001 -4.4299998 -1.7869999 0.30000001
-2.0309999 -4.4310002 -1.784 0.27000001
-2.0179999 -4.4390001 -1.785 0.38
-2.0009999 -4.4390001 -1.7819999 0.27000001
-1.994 -4.4419999 -1.7819999 0.31999999
-1.977 -4.4400001 -1.779 0.31
-1.971 -4.4650002 -1.7869999 0.30000001
-1.956 -4.4689999 -1.786 0.31
-1.939 -4.4679999 -1.783 0.34999999
-1.927 -4.48 -1.785 0.28999999
-1.9170001 -4.474 -1.781 0.34999999
-1.904 -4.4840002 -1.783 0.31999999
-1.895 -4.5019999 -1.788 0.33000001
-1.8789999 -4.5019999 -1.786 0.31999999
-1.8609999 -4.5 -1.7819999 0.33000001
-1.845 -4.5 -1.78 0.31999999
-1.832 -4.5089998 -1.781 0.34
-1.8279999 -4.5190001 -1.784 0.37
-1.817 -4.5339999 -1.788 0.28999999
-1.796 -4.5219998 -1.781 0.31
-1.788 -4.5430002 -1.7869999 0.36000001
-1.7690001 -4.5380001 -1.783 0.28999999
-1.753 -4.539 -1.781 0.31
-1.7410001 -4.5489998 -1.783 0.33000001
-1.738 -4.5630002 -1.7869999 0.34
-1.724 -4.5700002 -1.788 0.31999999
-1.706 -4.5650001 -1.784 0.34999999
-1.698 -4.5879998 -1.791 0.31999999
-1.677 -4.5749998 -1.784 0.28999999
-1.6619999 -4.579 -1.783 0.31999999
-1.6619999 -4.6009998 -1.791 0.34999999
-1.64 -4.5869999 -1.783 0.30000001
-1.627 -4.5929999 -1.784 0.36000001
-1.614 -4.6040001 -1.786 0.27000001
-1.598 -4.6040001 -1.784 0.36000001
-1.586 -4.6160002 -1.7869999 0.28999999
-1.575 -4.631 -1.791 0.34
-1.558 -4.605 -1.779 0.30000001
-1.5470001 -4.6230001 -1.784 0.31
-1.533 -4.6269999 -1.784 0.34
-1.517 -4.6269999 -1.7819999 0.28999999
-1.5 -4.6259999 -1.78 0.34999999
-1.4910001 -4.6469998 -1.7869999 0.33000001
-1.479 -4.6329999 -1.78 0.31
-1.467 -4.6490002 -1.784 0.30000001
-1.452 -4.651 -1.784 0.30000001
-1.437 -4.6539998 -1.783 0.34
-1.4220001 -4.6589999 -1.783 0.27000001
-1.413 -4.6810002 -1.79 0.40000001
-1.393 -4.6680002 -1.783 0.25
-1.387 -4.6750002 -1.785 0.38999999
-1.37 -4.671 -1.781 0.28999999
-1.357 -4.6820002 -1.784 0.37
-1.34 -4.6750002 -1.78 0.25999999
-1.332 -4.7049999 -1.79 0.38999999
-1.313 -4.6950002 -1.784 0.30000001
-1.3 -4.704 -1.7869999 0.36000001
-1.291 -4.6989999 -1.784 0.28
-1.275 -4.6989999 -1.7819999 0.33000001
-1.263 -4.7140002 -1.7869999 0.37
-1.245 -4.7069998 -1.7819999 0.25
-1.232 -4.7179999 -1.785 0.34999999
-1.216 -4.717 -1.783 0.34
-1.21 -4.7220001 -1.784 0.31999999
-1.194 -4.7210002 -1.7819999 0.33000001
-1.182 -4.737 -1.7869999 0.33000001
-1.1670001 -4.743 -1.788 0.30000001
-1.149 -4.7319999 -1.7819999 0.30000001
-1.136 -4.743 -1.785 0.31
-1.124 -4.7589998 -1.79 0.36000001
-1.1109999 -4.7350001 -1.78 0.28999999
-1.099 -4.7509999 -1.785 0.36000001
-1.085 -4.7600002 -1.7869999 0.31
-1.068 -4.756 -1.784 0.30000001
-1.054 -4.7610002 -1.785 0.31999999
-1.038 -4.7589998 -1.783 0.34
-1.023 -4.7639999 -1.784 0.31999999
-1.015 -4.7620001 -1.7819999 0.28
-1.0039999 -4.7870002 -1.791 0.37
-0.98799998 -4.783 -1.788 0.31999999
-0.97100002 -4.777 -1.784 0.36000001
-0.95499998 -4.7750001 -1.7819999 0.27000001
-0.94 -4.7789998 -1.783 0.31
-0.92699999 -4.79 -1.786 0.36000001
-0.921 -4.8039999 -1.791 0.28
-0.89999998 -4.7719998 -1.777 0.30000001
-0.889 -4.7989998 -1.7869999 0.31
-0.87300003 -4.7919998 -1.783 0.31999999
-0.85699999 -4.7950001 -1.783 0.31
-0.84299999 -4.8000002 -1.784 0.37
-0.838 -4.8169999 -1.79 0.31
-0.81999999 -4.8049998 -1.784 0.30000001
-0.80500001 -4.8060002 -1.784 0.27000001
-0.792 -4.8200002 -1.788 0.33000001
-0.77399999 -4.8049998 -1.781 0.31
-0.76200002 -4.8319998 -1.791 0.37
-0.74400002 -4.8140001 -1.783 0.23999999
-0.73900002 -4.8330002 -1.79 0.34999999
-0.722 -4.8210001 -1.784 0.28
-0.70999998 -4.8439999 -1.7920001 0.14
-0.69400001 -4.8439999 -1.7920001 0.44999999
-0.67699999 -4.8330002 -1.7869999 0.43000001
-0.66500002 -4.8559999 -1.795 0.44999999
-0.64899999 -4.8559999 -1.794 0.43000001
-0.639 -4.8379998 -1.7869999 0.44999999
-0.62599999 -4.8530002 -1.7920001 0.46000001
-0.61000001 -4.8509998 -1.79 0.41999999
-0.59399998 -4.8499999 -1.789 0.44
-0.57999998 -4.8610001 -1.7920001 0.43000001
-0.56400001 -4.855 -1.789 0.47999999
-0.55699998 -4.8579998 -1.79 0.44
-0.54100001 -4.8600001 -1.79 0.47
-0.52499998 -4.848 -1.785 0.58999997
-0.509 -4.8410001 -1.781 0.44999999
-0.49599999 -4.8720002 -1.793 0.25999999
-0.47999999 -4.8600001 -1.788 0.41
-0.46399999 -4.8509998 -1.784 0.44999999
-0.458 -4.8720002 -1.7920001 0.47
-0.44100001 -4.8590002 -1.786 0.41
-0.426 -4.8670001 -1.789 0.41999999
-0.41100001 -4.8699999 -1.789 0.55000001
-0.396 -4.875 -1.791 0.40000001
-0.38100001 -4.8709998 -1.789 0.46000001
-0.373 -4.8769999 -1.791 0.41999999
-0.35800001 -4.875 -1.789 0.44
-0.34200001 -4.8699999 -1.7869999 0.41999999
-0.32800001 -4.8920002 -1.795 0.46000001
-0.31200001 -4.8779998 -1.789 0.44
-0.296 -4.8709998 -1.7869999 0.58999997
-0.28099999 -4.882 -1.79 0.38999999
-0.273 -4.8759999 -1.788 0.41999999
-0.25799999 -4.8769999 -1.788 0.43000001
-0.243 -4.882 -1.789 0.52999997
-0.227 -4.8660002 -1.783 0.38
-0.212 -4.8660002 -1.783 0.56999999
-0.197 -4.888 -1.791 0.31
-0.18099999 -4.8790002 -1.7869999 0.43000001
-0.17299999 -4.8740001 -1.785 0.43000001
-0.15899999 -4.8909998 -1.7920001 0.41999999
-0.14300001 -4.875 -1.785 0.41999999
-0.127 -4.8730001 -1.784 0.44999999
-0.112 -4.8870001 -1.789 0.44999999
-0.097000003 -4.8870001 -1.789 0.43000001
-0.089000002 -4.8779998 -1.786 0.44999999
-0.074000001 -4.8909998 -1.791 0.44
-0.059 -4.8839998 -1.788 0.43000001
-0.043000001 -4.882 -1.7869999 0.44
-0.028000001 -4.8909998 -1.791 0.49000001
-0.013 -4.882 -1.7869999 0.57999998
0.003 -4.8839998 -1.788 0.37
0.0099999998 -4.895 -1.7920001 0.44
0.026000001 -4.895 -1.7920001 0.46000001
0.041000001 -4.8899999 -1.79 0.46000001
0.056000002 -4.882 -1.7869999 0.41999999
0.071999997 -4.8889999 -1.79 0.46000001
0.086999997 -4.8889999 -1.79 0.44
0.103 -4.8850002 -1.789 0.56
0.11 -4.8769999 -1.786 0.40000001
0.126 -4.8839998 -1.789 0.41
0.141 -4.882 -1.788 0.44999999
0.156 -4.8850002 -1.789 0.46000001
0.171 -4.8610001 -1.78 0.63
0.18700001 -4.881 -1.788 0.28999999
0.20200001 -4.882 -1.789 0.44
0.20999999 -4.8779998 -1.7869999 0.44999999
0.22499999 -4.8829999 -1.789 0.5
0.23999999 -4.8740001 -1.7869999 0.57999998
0.25600001 -4.881 -1.789 0.38999999
0.271 -4.882 -1.79 0.41999999
0.28600001 -4.8649998 -1.784 0.61000001
0.29300001 -4.8660002 -1.784 0.31999999
0.308 -4.8559999 -1.781 0.54000002
0.322 -4.8379998 -1.774 0.47
0.338 -4.848 -1.779 0.38
0.354 -4.8559999 -1.7819999 0.28999999
0.36899999 -4.8509998 -1.781 0.38999999
0.384 -4.8470001 -1.779 0.30000001
0.39199999 -4.8460002 -1.779 0.34999999
0.40700001 -4.8449998 -1.779 0.31999999
0.42399999 -4.862 -1.7869999 0.34999999
0.43700001 -4.8439999 -1.78 0.31
0.45300001 -4.842 -1.78 0.31999999
0.46900001 -4.848 -1.783 0.31999999
0.47400001 -4.829 -1.776 0.28999999
0.49200001 -4.8460002 -1.783 0.34
0.50700003 -4.848 -1.784 0.28999999
0.52200001 -4.8390002 -1.781 0.36000001
0.53600001 -4.8340001 -1.78 0.23
0.55199999 -4.8400002 -1.783 0.38999999
0.56800002 -4.8429999 -1.785 0.31999999
0.574 -4.8239999 -1.778 0.20999999
0.58899999 -4.8239999 -1.779 0.28999999
0.60500002 -4.8299999 -1.781 0.23
0.62199998 -4.8390002 -1.786 0.25999999
0.63300002 -4.809 -1.775 0.22
0.64999998 -4.822 -1.781 0.28
0.66399997 -4.8070002 -1.776 0.19
0.67299998 -4.8210001 -1.781 0.25
0.68800002 -4.8179998 -1.781 0.1
0.704 -4.8179998 -1.7819999 0
0.722 -4.836 -1.79 0
0.73500001 -4.8169999 -1.784 0
0.74800003 -4.8039999 -1.779 0
0.75400001 -4.7930002 -1.776 0
0.76800001 -4.7820001 -1.772 0
0.78100002 -4.7680001 -1.768 0
0.79799998 -4.7789998 -1.773 0
0.81099999 -4.763 -1.768 0
0.82700002 -4.77 -1.771 0
0.847 -4.7909999 -1.781 0
0.85799998 -4.8119998 -1.789 0.11
0.87300003 -4.809 -1.789 0.050000001
0.89899999 -4.7779999 -1.779 0.25999999
0.912 -4.7680001 -1.776 0.23
0.92900002 -4.7719998 -1.779 0.23
0.93599999 -4.7690001 -1.779 0.19
0.95499998 -4.7859998 -1.7869999 0.28
0.96700001 -4.7680001 -1.781 0.20999999
0.98299998 -4.7729998 -1.784 0.11
0.995 -4.7529998 -1.777 0
1.008 -4.743 -1.774 0
1.03 -4.77 -1.7869999 0
2.757 -4.0650001 -1.799 0
2.733 -4.0170002 -1.778 0.029999999
2.7620001 -4.0050001 -1.781 0.27000001
2.7539999 -3.9679999 -1.767 0.19
2.7839999 -3.983 -1.779 0.31
2.7880001 -3.9619999 -1.773 0.28
2.783 -3.9430001 -1.765 0.28999999
2.7950001 -3.9330001 -1.765 0.28
2.8099999 -3.928 -1.767 0.30000001
2.819 -3.915 -1.765 0.28
2.8340001 -3.9089999 -1.766 0.36000001
2.842 -3.8940001 -1.763 0.28999999
2.8629999 -3.8970001 -1.7690001 0.34999999
2.859 -3.8789999 -1.763 0.30000001
2.8800001 -3.882 -1.768 0.34
2.881 -3.858 -1.761 0.28999999
2.8900001 -3.845 -1.7589999 0.28
2.9200001 -3.859 -1.771 0.34
2.9159999 -3.829 -1.76 0.31999999
2.9330001 -3.826 -1.763 0.34999999
2.937 -3.8199999 -1.763 0.30000001
2.9590001 -3.823 -1.768 0.37
2.96 -3.8 -1.762 0.34
2.9790001 -3.8 -1.766 0.25
2.9779999 -3.7739999 -1.758 0.34999999
2.9920001 -3.7679999 -1.76 0.28999999
3.0039999 -3.77 -1.763 0.34
3.01 -3.7539999 -1.76 0.31999999
3.027 -3.75 -1.763 0.28999999
3.0450001 -3.7490001 -1.767 0.34999999
3.052 -3.734 -1.7640001 0.31999999
3.0680001 -3.7279999 -1.766 0.33000001
3.076 -3.714 -1.7640001 0.23
3.082 -3.71 -1.7640001 0.43000001
3.086 -3.691 -1.76 0.31999999
3.1070001 -3.6930001 -1.765 0.31
3.1170001 -3.6800001 -1.7640001 0.31999999
3.1210001 -3.6619999 -1.76 0.27000001
3.1400001 -3.661 -1.7640001 0.34
3.1470001 -3.6570001 -1.765 0.31999999
3.1559999 -3.6440001 -1.763 0.31999999
3.1689999 -3.6370001 -1.765 0.30000001
3.1760001 -3.622 -1.762 0.34999999
3.194 -3.619 -1.765 0.31999999
3.1949999 -3.598 -1.76 0.28999999
3.214 -3.596 -1.7640001 0.31999999
3.217 -3.5880001 -1.763 0.34
3.221 -3.5699999 -1.758 0.31
3.2290001 -3.5569999 -1.757 0.27000001
3.247 -3.553 -1.76 0.20999999
3.2650001 -3.5510001 -1.765 0.31999999
3.2639999 -3.527 -1.758 0.46000001
3.2809999 -3.5239999 -1.761 0.41
3.293 -3.526 -1.765 0.37
3.3150001 -3.526 -1.771 0.36000001
3.319 -3.5090001 -1.767 0.51999998
3.326 -3.494 -1.765 0.38
3.332 -3.4790001 -1.762 0.58999997
3.3369999 -3.461 -1.758 0.5
3.368 -3.4719999 -1.77 0.23999999
3.3740001 -3.467 -1.77 0.43000001
3.3770001 -3.448 -1.765 0.41999999
3.3929999 -3.4430001 -1.768 0.41
3.3940001 -3.4230001 -1.763 0.41999999
3.408 -3.415 -1.765 0.55000001
3.4219999 -3.408 -1.767 0.38999999
3.4260001 -3.402 -1.766 0.41
3.4360001 -3.3900001 -1.765 0.41999999
3.448 -3.3800001 -1.766 0.44
3.46 -3.3699999 -1.767 0.41999999
3.4679999 -3.3570001 -1.765 0.44999999
3.484 -3.3510001 -1.768 0.43000001
3.487 -3.3340001 -1.765 0.41999999
3.5009999 -3.336 -1.7690001 0.41999999
3.503 -3.3169999 -1.765 0.43000001
3.513 -3.306 -1.765 0.44
3.5239999 -3.2950001 -1.765 0.55000001
3.5350001 -3.2850001 -1.765 0.40000001
3.5510001 -3.279 -1.768 0.43000001
3.549 -3.2679999 -1.765 0.41999999
3.5650001 -3.2609999 -1.768 0.52999997
3.5639999 -3.24 -1.762 0.40000001
3.5829999 -3.2360001 -1.766 0.46000001
3.5969999 -3.2290001 -1.768 0.44999999
3.609 -3.2190001 -1.7690001 0.43000001
3.612 -3.201 -1.765 0.44
3.6170001 -3.1960001 -1.765 0.57999998
3.6240001 -3.1819999 -1.7640001 0.38
3.6300001 -3.1670001 -1.762 0.41
3.654 -3.1670001 -1.7690001 0.41999999
3.648 -3.1429999 -1.761 0.43000001
3.664 -3.1359999 -1.7640001 0.43000001
3.675 -3.1259999 -1.765 0.43000001
3.6789999 -3.119 -1.7640001 0.44
3.671 -3.0929999 -1.755 0.58999997
3.704 -3.0999999 -1.767 0.33000001
3.6930001 -3.072 -1.757 0.55000001
3.7160001 -3.0710001 -1.763 0.40000001
3.73 -3.063 -1.765 0.41999999
3.723 -3.0480001 -1.76 0.43000001
3.7360001 -3.0380001 -1.761 0.44999999
3.7520001 -3.0320001 -1.765 0.41
3.7590001 -3.0179999 -1.763 0.47
3.7579999 -2.9979999 -1.758 0.43000001
3.776 -2.993 -1.763 0.41999999
3.777 -2.9749999 -1.758 0.41999999
3.7850001 -2.971 -1.76 0.44
3.8 -2.964 -1.763 0.46000001
3.803 -2.947 -1.76 0.44
3.809 -2.9330001 -1.758 0.46000001
3.8310001 -2.9300001 -1.7640001 0.43000001
3.8280001 -2.9089999 -1.758 0.43000001
3.829 -2.901 -1.757 0.41
3.8499999 -2.898 -1.763 0.44
3.8429999 -2.8729999 -1.755 0.44
3.852 -2.8610001 -1.755 0.41
3.869 -2.855 -1.758 0.41999999
3.865 -2.8340001 -1.752 0.51999998
3.8829999 -2.8280001 -1.757 0.38999999
3.892 -2.825 -1.7589999 0.43000001
3.8770001 -2.796 -1.747 0.60000002
3.895 -2.79 -1.752 0.31999999
3.9100001 -2.7820001 -1.755 0.37
3.9119999 -2.7650001 -1.752 0.56
3.9219999 -2.7539999 -1.752 0.40000001
3.948 -2.753 -1.76 0.44999999
3.937 -2.737 -1.753 0.60000002
3.9330001 -2.7160001 -1.747 0.5
3.951 -2.71 -1.752 0.38999999
3.9579999 -2.6960001 -1.751 0.31
3.957 -2.678 -1.747 0.31
3.97 -2.668 -1.749 0.30000001
3.9760001 -2.6630001 -1.75 0.30000001
3.9749999 -2.6440001 -1.745 0.28999999
4.0019999 -2.6440001 -1.7539999 0.31999999
3.9990001 -2.6240001 -1.749 0.28
3.99 -2.6010001 -1.7410001 0.36000001
4.0170002 -2.5999999 -1.75 0.23
4.0190001 -2.5840001 -1.747 0.31
4.0229998 -2.5769999 -1.747 0.28
4.0300002 -2.5639999 -1.7460001 0.28
4.0409999 -2.553 -1.747 0.34
4.0380001 -2.533 -1.742 0.30000001
4.0689998 -2.5350001 -1.753 0.36000001
4.0619998 -2.513 -1.7460001 0.28
4.066 -2.4979999 -1.744 0.30000001
4.0809999 -2.4979999 -1.75 0.36000001
4.072 -2.4749999 -1.742 0.25
4.0869999 -2.467 -1.745 0.36000001
4.1009998 -2.4579999 -1.748 0.31
4.1139998 -2.448 -1.75 0.31
4.1139998 -2.4300001 -1.747 0.28
4.1240001 -2.428 -1.75 0.28999999
4.1100001 -2.4030001 -1.74 0.31999999
4.131 -2.3970001 -1.7460001 0.31999999
4.1420002 -2.3859999 -1.747 0.31
4.1440001 -2.3699999 -1.745 0.28999999
4.1550002 -2.359 -1.747 0.36000001
4.1560001 -2.342 -1.744 0.25
4.1599998 -2.336 -1.744 0.34999999
4.1570001 -2.3169999 -1.739 0.25999999
4.1810002 -2.313 -1.747 0.31
4.191 -2.302 -1.748 0.33000001
4.1900001 -2.2839999 -1.744 0.31999999
4.1960001 -2.27 -1.744 0.27000001
4.2140002 -2.263 -1.749 0.34
4.21 -2.2520001 -1.745 0.28999999
4.21 -2.2349999 -1.742 0.27000001
4.217 -2.2219999 -1.742 0.16
4.2420001 -2.2179999 -1.75 0.33000001
4.2459998 -2.2030001 -1.749 0.47
4.25 -2.188 -1.747 0.34999999
4.25 -2.1800001 -1.7460001 0.47
4.2659998 -2.171 -1.75 0.37
4.2670002 -2.155 -1.747 0.47
4.2820001 -2.145 -1.751 0.36000001
4.2729998 -2.125 -1.744 0.44999999
4.2979999 -2.1199999 -1.752 0.37
4.2919998 -2.0999999 -1.747 0.56999999
4.3000002 -2.096 -1.749 0.34
4.3099999 -2.0840001 -1.75 0.52999997
4.316 -2.0699999 -1.75 0.40000001
4.316 -2.0539999 -1.747 0.49000001
4.3239999 -2.0409999 -1.748 0.38999999
4.3390002 -2.0309999 -1.752 0.41
4.335 -2.013 -1.747 0.51999998
4.3449998 -2.0090001 -1.75 0.38999999
4.3499999 -1.995 -1.75 0.51999998
4.3730001 -1.989 -1.757 0.58999997
4.3499999 -1.962 -1.744 0.25
4.355 -1.948 -1.744 0.2
4.3660002 -1.936 -1.7460001 0.31
4.3779998 -1.933 -1.75 0.23
4.3839998 -1.919 -1.75 0.28
4.3829999 -1.902 -1.747 0.31999999
4.3920002 -1.89 -1.748 0.23999999
4.3909998 -1.873 -1.745 0.31999999
4.402 -1.862 -1.747 0.27000001
4.4169998 -1.852 -1.751 0.27000001
4.421 -1.845 -1.752 0.27000001
4.4180002 -1.8279999 -1.748 0.23999999
4.4099998 -1.808 -1.742 0.17
4.421 -1.7970001 -1.744 0.30000001
4.4299998 -1.784 -1.7460001 0.23
4.4390001 -1.772 -1.747 0.27000001
4.4450002 -1.758 -1.747 0.27000001
4.4460001 -1.75 -1.747 0.27000001
4.4499998 -1.735 -1.7460001 0.17
4.467 -1.726 -1.751 0.30000001
4.4640002 -1.709 -1.747 0.25
4.473 -1.696 -1.749 0.28
4.48 -1.682 -1.75 0.25
4.4840002 -1.676 -1.75 0.25
4.4679999 -1.654 -1.742 0.18000001
4.4959998 -1.648 -1.751 0.30000001
4.5029998 -1.635 -1.752 0.23999999
4.5190001 -1.625 -1.756 0.23999999
4.4990001 -1.602 -1.7460001 0.18000001
4.5149999 -1.591 -1.75 0.30000001
4.5120001 -1.582 -1.748 0.23999999
4.5240002 -1.571 -1.751 0.28
4.527 -1.556 -1.75 0.22
4.5320001 -1.541 -1.75 0.13
4.5320001 -1.525 -1.748 0.2
4.5669999 -1.521 -1.76 0.22
4.553 -1.5089999 -1.7539999 0.13
4.5510001 -1.492 -1.751 0.2
4.5619998 -1.48 -1.7539999 0.2
4.5760002 -1.469 -1.758 0.27000001
4.566 -1.45 -1.752 0.23
4.5710001 -1.4349999 -1.752 0.17
4.579 -1.4220001 -1.753 0.28
4.5830002 -1.415 -1.7539999 0.19
4.6020002 -1.405 -1.76 0.13
4.585 -1.385 -1.751 0.2
4.585 -1.369 -1.75 0.18000001
4.6059999 -1.359 -1.756 0.28
4.6100001 -1.345 -1.756 0.2
4.6020002 -1.327 -1.751 0.22
4.625 -1.326 -1.76 0.18000001
4.6059999 -1.3049999 -1.75 0.23
4.6100001 -1.29 -1.75 0.18000001
4.6339998 -1.281 -1.758 0.13
4.6110001 -1.2589999 -1.747 0.20999999
4.6220002 -1.247 -1.75 0.17
4.6329999 -1.234 -1.753 0.25999999
4.6479998 -1.23 -1.758 0.20999999
4.6350002 -1.211 -1.752 0.12
4.6409998 -1.197 -1.752 0.17
4.6300001 -1.179 -1.747 0.23
4.632 -1.164 -1.7460001 0.15000001
4.6469998 -1.152 -1.75 0.25999999
4.6479998 -1.137 -1.75 0.23999999
4.6479998 -1.1289999 -1.749 0.15000001
4.6609998 -1.117 -1.752 0.28
4.6389999 -1.096 -1.742 0.16
4.6500001 -1.0829999 -1.745 0.25999999
4.664 -1.071 -1.75 0.23
4.671 -1.057 -1.751 0.18000001
4.6529999 -1.046 -1.743 0.27000001
4.6810002 -1.036 -1.753 0.20999999
4.6680002 -1.018 -1.747 0.12
4.6550002 -1 -1.74 0.20999999
4.6890001 -0.99199998 -1.752 0.2
4.665 -0.972 -1.742 0.27000001
4.664 -0.95599997 -1.74 0.25
4.6950002 -0.95499998 -1.752 0.25
4.6719999 -0.935 -1.742 0.17
4.6810002 -0.921 -1.744 0.28999999
4.684 -0.90700001 -1.744 0.23
4.6859999 -0.89200002 -1.744 0.2
4.684 -0.87599999 -1.742 0.13
4.6960001 -0.86299998 -1.745 0.20999999
4.6820002 -0.85299999 -1.739 0.17
4.7069998 -0.84200001 -1.748 0.27000001
4.697 -0.82499999 -1.743 0.23
4.7069998 -0.81199998 -1.7460001 0.25
4.698 -0.79500002 -1.742 0.17
4.7129998 -0.78200001 -1.747 0.28
4.7010002 -0.76499999 -1.7410001 0.25
4.704 -0.75800002 -1.742 0.17
4.7249999 -0.74599999 -1.749 0.27000001
4.7090001 -0.72899997 -1.742 0.22
4.711 -0.71399999 -1.742 0.19
4.7189999 -0.69999999 -1.744 0.27000001
4.7189999 -0.685 -1.743 0.23999999
4.717 -0.67699999 -1.742 0.2
4.7319999 -0.66399997 -1.747 0.28
4.7150002 -0.64600003 -1.739 0.23
4.7059999 -0.63 -1.735 0.25
