# .PCD v0.7 - Point Cloud Data file format
VERSION 0.7
FIELDS x y z intensity
SIZE 4 4 4 4
TYPE F F F F
COUNT 1 1 1 1
WIDTH 1386
HEIGHT 1
VIEWPOINT 0 0 0 1 0 0 0
POINTS 1386
DATA ascii
4.9070001 17.867001 -1.734 0.28
4.8520002 17.886 -1.734 0.28999999
4.8000002 17.919001 -1.7359999 0.30000001
4.7480001 17.948999 -1.738 0.28999999
4.6900001 17.958 -1.737 0.28999999
4.6599998 17.958 -1.7359999 0.28999999
4.605 17.978001 -1.737 0.28999999
4.5489998 17.993999 -1.737 0.28999999
4.494 18.014 -1.738 0.30000001
4.4390001 18.038 -1.739 0.28999999
4.3870001 18.069 -1.7410001 0.28999999
4.3379998 18.114 -1.744 0.28999999
4.3140001 18.139999 -1.7460001 0.28999999
4.2600002 18.167 -1.747 0.30000001
4.2069998 18.195999 -1.749 0.28999999
4.1560001 18.236 -1.752 0.28999999
4.1020002 18.264999 -1.7539999 0.28999999
4.0479999 18.295 -1.755 0.28999999
3.9960001 18.333 -1.758 0.28999999
3.97 18.349001 -1.7589999 0.28999999
3.9189999 18.393999 -1.763 0.28999999
3.865 18.426001 -1.765 0.28999999
3.8080001 18.440001 -1.765 0.30000001
3.753 18.465 -1.766 0.28
3.7030001 18.518 -1.771 0.28999999
3.6500001 18.556999 -1.774 0.25999999
3.6289999 18.601999 -1.778 0.33000001
3.5710001 18.618999 -1.779 0.31
3.5109999 18.620001 -1.777 0.23
3.4489999 18.613001 -1.776 0.36000001
3.391 18.625999 -1.776 0.34
3.3280001 18.608999 -1.773 0.38
3.2709999 18.631001 -1.774 0.46000001
3.2420001 18.636 -1.774 0.27000001
3.1789999 18.622999 -1.772 0.36000001
3.1210001 18.636999 -1.772 0.40000001
3.066 18.664 -1.774 0.34
3.0050001 18.658001 -1.772 0.30000001
2.9460001 18.667 -1.772 0.33000001
2.8870001 18.677 -1.772 0.30000001
2.859 18.687 -1.773 0.34999999
2.799 18.688 -1.772 0.28999999
2.7409999 18.702999 -1.773 0.33000001
2.6830001 18.716999 -1.773 0.33000001
2.6240001 18.721001 -1.773 0.28999999
2.566 18.737 -1.774 0.34999999
2.506 18.74 -1.773 0.33000001
2.4790001 18.754999 -1.774 0.31999999
2.4189999 18.757 -1.774 0.31999999
2.362 18.782 -1.776 0.31999999
2.303 18.792 -1.776 0.31999999
2.2479999 18.826 -1.779 0.31999999
2.188 18.833 -1.779 0.31999999
2.1600001 18.849001 -1.78 0.28999999
2.1029999 18.868999 -1.781 0.31
2.0439999 18.884001 -1.7819999 0.34999999
1.984 18.882 -1.781 0.28999999
1.927 18.906 -1.783 0.33000001
1.867 18.91 -1.783 0.30000001
1.809 18.934 -1.785 0.34999999
1.779 18.93 -1.784 0.28999999
1.72 18.941999 -1.785 0.33000001
1.6619999 18.959 -1.786 0.30000001
1.602 18.969999 -1.7869999 0.31
1.543 18.979 -1.7869999 0.33000001
1.483 18.974001 -1.786 0.30000001
1.425 19 -1.788 0.34
1.365 19.007 -1.789 0.30000001
1.336 19.018999 -1.79 0.31
1.277 19.028999 -1.79 0.31999999
1.216 19.023001 -1.789 0.31
1.1569999 19.032 -1.79 0.30000001
1.098 19.046 -1.791 0.31
1.0369999 19.035 -1.79 0.30000001
1.008 19.052999 -1.791 0.34
0.94800001 19.058001 -1.791 0.28999999
0.889 19.083 -1.794 0.34
0.829 19.075001 -1.793 0.28999999
0.76999998 19.09 -1.794 0.34999999
0.70999998 19.101999 -1.795 0.34999999
0.64999998 19.110001 -1.796 0.33000001
0.62 19.093 -1.794 0.30000001
0.56 19.117001 -1.796 0.34
0.5 19.105 -1.794 0.30000001
0.44 19.124001 -1.796 0.36000001
0.38 19.115 -1.795 0.31999999
0.31999999 19.118999 -1.796 0.28
0.25999999 19.125 -1.796 0.33000001
0.23 19.138 -1.7970001 0.31999999
0.17 19.124001 -1.796 0.27000001
0.11 19.132999 -1.7970001 0.34
0.050000001 19.122999 -1.796 0.28
-0.0099999998 19.127001 -1.796 0.37
-0.07 19.122999 -1.796 0.31999999
-0.131 19.135 -1.7970001 0.31999999
-0.161 19.136 -1.7970001 0.31999999
-0.221 19.153999 -1.799 0.31999999
-0.28099999 19.149 -1.799 0.30000001
-0.34200001 19.17 -1.801 0.31999999
-0.40200001 19.169001 -1.801 0.31
-0.46200001 19.181 -1.802 0.31999999
-0.52200001 19.17 -1.801 0.28
-0.55199999 19.169001 -1.801 0.30000001
-0.61199999 19.159 -1.801 0.30000001
-0.67400002 19.188999 -1.804 0.33000001
-0.73400003 19.195 -1.8049999 0.30000001
-0.79500002 19.198 -1.8049999 0.31
-0.85500002 19.198 -1.806 0.31
-0.91600001 19.209 -1.807 0.31
-0.94700003 19.219 -1.808 0.28999999
-1.008 19.232 -1.8099999 0.31
-1.068 19.223 -1.809 0.27000001
-1.1289999 19.233 -1.811 0.33000001
-1.1900001 19.228001 -1.8099999 0.28999999
-1.251 19.238001 -1.812 0.34999999
-1.312 19.246 -1.813 0.31999999
-1.3430001 19.250999 -1.814 0.31999999
-1.403 19.245001 -1.814 0.31
-1.464 19.249001 -1.8150001 0.33000001
-1.524 19.238001 -1.814 0.27000001
-1.586 19.245001 -1.8150001 0.37
-1.646 19.232 -1.814 0.31
-1.707 19.237 -1.8150001 0.31
-1.7359999 19.218 -1.814 0.28
-1.798 19.233999 -1.816 0.33000001
-1.858 19.226999 -1.816 0.28999999
-1.921 19.246 -1.819 0.36000001
-1.982 19.243999 -1.819 0.31
-2.043 19.247999 -1.8200001 0.30000001
-2.1040001 19.240999 -1.8200001 0.34
-2.1340001 19.238001 -1.8200001 0.28999999
-2.1949999 19.237 -1.821 0.31999999
-2.257 19.242001 -1.822 0.34
-2.3180001 19.243 -1.823 0.28999999
-2.382 19.261 -1.825 0.33000001
-2.4419999 19.249001 -1.825 0.28
-2.5039999 19.252001 -1.826 0.30000001
-2.536 19.264999 -1.8279999 0.36000001
-2.5969999 19.254999 -1.8279999 0.25
-2.6459999 19.164 -1.819 0.37
-2.7079999 19.167999 -1.8200001 0.33000001
-2.7820001 19.259001 -1.831 0.31999999
-2.842 19.249001 -1.831 0.31
-2.905 19.250999 -1.832 0.34
-2.934 19.245001 -1.832 0.30000001
-2.997 19.247 -1.8329999 0.34
-3.0569999 19.236 -1.8329999 0.28999999
-3.1210001 19.247999 -1.835 0.34999999
-3.1819999 19.243999 -1.836 0.30000001
-3.2460001 19.250999 -1.837 0.34999999
-3.3050001 19.233 -1.837 0.25999999
-3.339 19.25 -1.839 0.38
-3.4000001 19.243 -1.839 0.30000001
-3.4630001 19.246 -1.841 0.34999999
-3.5250001 19.247 -1.842 0.28999999
-3.5910001 19.263 -1.845 0.34
-3.6500001 19.246 -1.844 0.27000001
-3.7160001 19.261 -1.847 0.36000001
-3.7479999 19.264999 -1.848 0.31
-3.8069999 19.247999 -1.848 0.28999999
-3.8710001 19.250999 -1.849 0.33000001
-3.931 19.239 -1.849 0.33000001
-3.993 19.233999 -1.85 0.31999999
-4.0549998 19.226999 -1.851 0.31999999
-4.0840001 19.216999 -1.85 0.28
-4.151 19.231001 -1.853 0.34999999
-4.2150002 19.236 -1.855 0.31999999
-4.2740002 19.216999 -1.854 0.30000001
-4.3379998 19.221001 -1.8559999 0.34999999
-4.4000001 19.215 -1.857 0.31999999
-4.461 19.201 -1.857 0.31999999
-4.493 19.202999 -1.858 0.31
-4.5539999 19.191 -1.858 0.31999999
-4.6160002 19.184 -1.859 0.28999999
-4.6820002 19.193001 -1.862 0.28999999
-4.743 19.181999 -1.862 0.28999999
-4.803 19.167 -1.862 0.28999999
-4.8629999 19.15 -1.862 0.28999999
-4.8979998 19.162001 -1.864 0.33000001
-4.9569998 19.139999 -1.863 0.28999999
-5.0219998 19.143999 -1.8660001 0.28999999
-5.0770001 19.111 -1.864 0.28999999
-5.1440001 19.118 -1.8660001 0.28999999
-5.2069998 19.115 -1.868 0.28999999
-5.2690001 19.106001 -1.868 0.28999999
-5.2989998 19.098 -1.868 0.25999999
-5.3649998 19.1 -1.87 0.33000001
-5.4250002 19.083 -1.87 0.28999999
-5.4910002 19.087 -1.873 0.28999999
-5.5549998 19.084999 -1.874 0.30000001
-5.6129999 19.062 -1.874 0.30000001
-5.6719999 19.040001 -1.873 0.31999999
-5.7069998 19.049999 -1.875 0.28999999
-5.7680001 19.035999 -1.876 0.30000001
-5.8330002 19.033001 -1.878 0.31999999
-5.902 19.045 -1.881 0.30000001
-5.961 19.023001 -1.88 0.31
-6.0229998 19.013 -1.881 0.30000001
-6.085 19 -1.882 0.28
-6.1170001 18.997999 -1.883 0.30000001
-6.1799998 18.988001 -1.8839999 0.28999999
-6.243 18.98 -1.885 0.30000001
-6.3060002 18.969999 -1.886 0.28999999
-6.368 18.958 -1.887 0.28999999
-6.4380002 18.968 -1.89 0.31999999
-6.4959998 18.943001 -1.89 0.31
-6.5300002 18.945999 -1.891 0.31
-6.599 18.952 -1.8940001 0.30000001
-6.658 18.929001 -1.8940001 0.31
-6.717 18.908001 -1.8940001 0.30000001
-6.7849998 18.91 -1.897 0.30000001
-6.8429999 18.885 -1.896 0.30000001
-6.9050002 18.872 -1.897 0.30000001
-6.9359999 18.865 -1.898 0.30000001
-6.9949999 18.841 -1.897 0.28
-7.0619998 18.84 -1.9 0.28999999
-7.131 18.844999 -1.903 0.28999999
-7.1919999 18.827 -1.903 0.28999999
-7.257 18.819 -1.905 0.31999999
-7.323 18.815001 -1.9069999 0.31
-7.3600001 18.823 -1.909 0.31
-7.4250002 18.813 -1.911 0.30000001
-7.4889998 18.802999 -1.9119999 0.28999999
-7.5479999 18.778999 -1.9119999 0.28
-7.6110001 18.766001 -1.913 0.31999999
-7.6729999 18.747999 -1.914 0.27000001
-7.7340002 18.731001 -1.915 0.31999999
-7.7670002 18.726 -1.916 0.30000001
-7.8299999 18.712999 -1.9170001 0.30000001
-7.8860002 18.681 -1.916 0.30000001
-7.948 18.663 -1.9170001 0.28999999
-8.0089998 18.643999 -1.918 0.28999999
-8.0699997 18.625999 -1.918 0.30000001
-8.1350002 18.615 -1.92 0.30000001
-8.1680002 18.611 -1.921 0.28999999
-8.2259998 18.583 -1.921 0.28999999
-8.2779999 18.542999 -1.919 0.28999999
-8.3430004 18.531 -1.921 0.28999999
-8.3959999 18.493999 -1.92 0.30000001
-8.4540005 18.468 -1.92 0.28
-8.5139999 18.445 -1.92 0.28999999
-8.5439997 18.434999 -1.921 0.28999999
-8.6129999 18.431 -1.923 0.33000001
-8.6739998 18.412001 -1.924 0.25
-2.835 5.928 -0.486 0.30000001
-2.826 5.8600001 -0.479 0.30000001
-2.836 5.835 -0.477 0.33000001
-2.832 5.7800002 -0.472 0.25999999
-2.835 5.763 -0.47 0.30000001
-2.8499999 5.7470002 -0.46900001 0.40000001
-2.8599999 5.7220001 -0.46700001 0.25999999
-2.8770001 5.711 -0.46700001 0.40000001
-2.8959999 5.7049999 -0.46799999 0.28
-2.914 5.6960001 -0.46799999 0.31999999
-2.9349999 5.6919999 -0.46799999 0.34
-2.95 5.6999998 -0.47 0.43000001
-2.964 5.6820002 -0.46900001 0.38999999
-2.9820001 5.6739998 -0.46900001 0.23999999
-3.0079999 5.6810002 -0.47099999 0.46000001
-3.027 5.6729999 -0.47099999 0.34
-3.049 5.671 -0.472 0.22
-3.0899999 5.7049999 -0.477 0.40000001
-3.1099999 5.7210002 -0.479 0.30000001
-3.1070001 5.6729999 -0.47499999 0
-9.9750004 18.056999 -1.9529999 0.36000001
-10.029 18.021999 -1.952 0.22
-10.072 17.966 -1.95 0.17
-10.125 17.927999 -1.949 0.38999999
-10.151 17.908001 -1.948 0.20999999
-10.204 17.871 -1.948 0.23999999
-10.254 17.829 -1.946 0.20999999
-10.308 17.792999 -1.946 0.16
-10.372 17.774 -1.948 0.38999999
-10.43 17.745001 -1.948 0.2
-10.485 17.711 -1.948 0.38
-10.518 17.702999 -1.949 0.19
-10.576 17.674999 -1.95 0.38
-10.63 17.638 -1.949 0.2
-10.691 17.615 -1.95 0.37
-10.745 17.579 -1.95 0.19
-10.805 17.552 -1.951 0.34999999
-10.863 17.523001 -1.952 0.2
-10.886 17.499001 -1.951 0.23
-10.941 17.465 -1.951 0.2
-11.008 17.448999 -1.9529999 0.22
-11.06 17.410999 -1.9529999 0.2
-11.126 17.393 -1.955 0.20999999
-11.181 17.360001 -1.955 0.2
-11.239 17.329 -1.956 0.20999999
-11.274 17.323 -1.957 0.18000001
-11.339 17.305 -1.959 0.20999999
-11.397 17.274 -1.96 0.18000001
-11.459 17.25 -1.961 0.30000001
-11.523 17.228001 -1.9630001 0.2
-11.574 17.188999 -1.9630001 0.18000001
-11.634 17.160999 -1.964 0.12
-11.672 17.159 -1.966 0.17
-11.73 17.129 -1.967 0.28
-11.786 17.094999 -1.967 0.27000001
-11.853 17.076 -1.969 0.27000001
-11.898 17.027 -1.9680001 0.23999999
-11.968 17.011999 -1.971 0.25
-12.016 16.968 -1.97 0.25
-12.042 16.948 -1.97 0.1
-12.092 16.905001 -1.969 0.15000001
-12.146 16.868 -1.969 0.1
-12.201 16.833 -1.97 0.15000001
-12.244 16.782 -1.9680001 0.1
-12.298 16.745001 -1.9680001 0.15000001
-12.351 16.707001 -1.9680001 0.1
-12.363 16.667999 -1.966 0.15000001
-12.413 16.625999 -1.965 0.1
-12.465 16.587 -1.965 0.15000001
-12.517 16.547001 -1.965 0.23
-12.563 16.5 -1.964 0.23999999
-12.605 16.448 -1.9630001 0.25
-12.646 16.393999 -1.961 0.25
-12.674 16.377001 -1.961 0.25
-12.713 16.322001 -1.959 0.11
-12.747 16.26 -1.956 0.15000001
-12.799 16.221001 -1.956 0.12
-12.847 16.176001 -1.956 0.16
-12.894 16.131001 -1.955 0.12
-12.943 16.089001 -1.955 0.17
-12.968 16.069 -1.955 0.30000001
-13.016 16.025 -1.955 0.2
-13.073 15.992 -1.956 0.18000001
-13.115 15.941 -1.954 0.20999999
-13.159 15.892 -1.9529999 0.18000001
-13.211 15.854 -1.954 0.31
-13.265 15.817 -1.954 0.2
-13.298 15.805 -1.956 0.16
-13.35 15.766 -1.956 0.13
-13.398 15.723 -1.956 0.17
-13.452 15.687 -1.957 0.12
-13.513 15.658 -1.959 0.17
-13.561 15.614 -1.9579999 0.28
-13.619 15.582 -1.96 0.27000001
-13.642 15.559 -1.96 0.27000001
-13.699 15.525 -1.961 0.27000001
-13.754 15.489 -1.962 0.25
-13.806 15.449 -1.962 0.25
-13.865 15.417 -1.964 0.23999999
-13.908 15.368 -1.9630001 0.11
-13.964 15.333 -1.964 0.15000001
-13.991 15.314 -1.965 0.1
-14.058 15.29 -1.9680001 0.16
-14.107 15.247 -1.9680001 0.1
-14.159 15.207 -1.9680001 0.15000001
-14.204 15.16 -1.9680001 0.23
-14.255 15.12 -1.969 0.23999999
-14.283 15.101 -1.969 0.25
-14.335 15.061 -1.97 0.23999999
-14.382 15.016 -1.97 0.1
-14.426 14.968 -1.97 0.16
-14.48 14.929 -1.971 0.17
-14.521 14.878 -1.97 0.18000001
-14.561 14.825 -1.969 0.16
-14.603 14.775 -1.9680001 0.16
-14.621 14.747 -1.967 0.16
-14.657 14.691 -1.966 0.17
-14.68 14.621 -1.962 0.18000001
-14.689 14.538 -1.957 0.22
-14.732 14.489 -1.956 0.25999999
-14.793 14.458 -1.959 0.31999999
-14.857 14.43 -1.961 0.34
-14.899 14.426 -1.964 0.43000001
-14.97 14.404 -1.9680001 0.38999999
-15.015 14.357 -1.9680001 0.27000001
-15.045 14.294 -1.966 0.27000001
-15.065 14.224 -1.962 0.19
-15.086 14.154 -1.959 0.12
-15.126 14.103 -1.9579999 0.17
-15.151 14.082 -1.959 0.12
-15.204 14.042 -1.96 0.17
-15.247 13.993 -1.96 0.12
-15.288 13.942 -1.959 0.16
-15.333 13.896 -1.96 0.12
-15.388 13.858 -1.961 0.18000001
-15.404 13.829 -1.96 0.12
-15.456 13.788 -1.962 0.17
-15.497 13.737 -1.961 0.28999999
-15.538 13.687 -1.961 0.27000001
-15.587 13.643 -1.962 0.27000001
-15.619 13.585 -1.96 0.27000001
-15.667 13.54 -1.961 0.27000001
-15.688 13.515 -1.961 0.25999999
-15.717 13.454 -1.959 0.27000001
-15.76 13.406 -1.959 0.27000001
-15.792 13.347 -1.9579999 0.11
-15.823 13.289 -1.956 0.16
-15.854 13.23 -1.955 0.12
-15.891 13.176 -1.954 0.17
-15.915 13.154 -1.955 0.30000001
-15.954 13.102 -1.955 0.2
-15.98 13.04 -1.952 0.18000001
-16.018999 12.988 -1.952 0.22
-16.058001 12.937 -1.952 0.18000001
-16.101 12.887 -1.952 0.31999999
-16.138 12.834 -1.952 0.2
-16.143999 12.798 -1.95 0.2
-16.190001 12.752 -1.951 0.20999999
-16.212999 12.687 -1.949 0.16
-13.34 10.365 -1.563 0.16
-13.455 10.388 -1.574 0.30000001
-13.467 10.33 -1.571 0.46000001
-13.726 10.46 -1.601 0.36000001
-13.882 10.545 -1.619 0.20999999
-13.672 10.317 -1.5880001 0.27000001
-13.893 10.417 -1.612 0.36000001
-13.974 10.409 -1.618 0.40000001
-13.963 10.333 -1.613 0.31
-13.917 10.231 -1.603 0.43000001
-13.965 10.199 -1.605 0.31999999
-13.813 10.054 -1.5829999 0.37
-14.01 10.131 -1.604 0.34
-14.179 10.185 -1.622 0.52999997
-14.091 10.055 -1.607 0.38
-14.071 9.974 -1.6 0.31999999
-14.261 10.042 -1.62 0.28999999
-14.254 9.9700003 -1.615 0.46000001
-14.227 9.9180002 -1.61 0.36000001
-14.242 9.8620005 -1.608 0.38999999
-14.184 9.7559996 -1.597 0.41999999
-14.256 9.7399998 -1.602 0.36000001
-14.219 9.6490002 -1.5930001 0.38999999
-14.356 9.677 -1.607 0.37
-14.44 9.6669998 -1.613 0.38999999
-14.445 9.6379995 -1.612 0.41
-14.44 9.5690002 -1.608 0.41999999
-14.537 9.5670004 -1.6160001 0.33000001
-14.572 9.5249996 -1.617 0.47
-14.62 9.4910002 -1.619 0.34999999
-14.656 9.4490004 -1.62 0.49000001
-14.704 9.415 -1.622 0.28999999
-14.761 9.4189997 -1.627 0.43000001
-14.79 9.3719997 -1.627 0.44999999
-14.763 9.29 -1.62 0.38999999
-14.883 9.3000002 -1.632 0.23999999
-14.9 9.2460003 -1.63 0.47
-14.86 9.1569996 -1.622 0.5
-14.938 9.1400003 -1.628 0.31
-14.913 9.0930004 -1.623 0.41999999
-14.844 8.9870005 -1.6109999 0.36000001
-14.874 8.941 -1.6109999 0.36000001
-14.8 8.8330002 -1.599 0.43000001
-14.971 8.8719997 -1.6160001 0.36000001
-14.869 8.7480001 -1.6 0.38
-14.934 8.7229996 -1.605 0.41999999
-15.097 8.7869997 -1.623 0.36000001
-15.147 8.7530003 -1.626 0.44999999
-15.245 8.7460003 -1.6339999 0.25999999
-15.297 8.7119999 -1.637 0.5
-15.305 8.6529999 -1.635 0.30000001
-15.28 8.5749998 -1.6289999 0.41999999
-15.345 8.5489998 -1.633 0.41999999
-15.287 8.4849997 -1.625 0.38999999
-15.337 8.4490004 -1.627 0.47999999
-15.403 8.4230003 -1.632 0.31999999
-15.517 8.4219999 -1.643 0.31999999
-15.51 8.3559999 -1.6390001 0.51999998
-15.44 8.2550001 -1.627 0.33000001
-15.36 8.1499996 -1.615 0.37
-15.355 8.1169996 -1.613 0.38
-15.361 8.0579996 -1.61 0.31999999
-15.463 8.0500002 -1.619 0.43000001
-15.61 8.0640001 -1.6339999 0.23
-15.605 8 -1.63 0.51999998
-15.64 7.9559999 -1.631 0.30000001
-15.711 7.961 -1.638 0.54000002
-15.511 7.7979999 -1.612 0.23999999
-15.729 7.8460002 -1.6339999 0.47
-15.668 7.7540002 -1.624 0.38
-15.423 7.572 -1.5930001 0.33000001
-15.463 7.5320001 -1.595 0.31999999
-15.803 7.6370001 -1.632 0.28999999
-15.641 7.5279999 -1.612 0.41999999
-15.658 7.4749999 -1.6109999 0.28999999
-15.649 7.4109998 -1.607 0.46000001
-15.737 7.3920002 -1.614 0.34
-15.699 7.3140001 -1.607 0.38999999
-15.711 7.2600002 -1.6059999 0.28
-15.743 7.2140002 -1.607 0.44999999
-15.727 7.177 -1.604 0.34999999
-15.818 7.1589999 -1.612 0.44999999
-15.764 7.0749998 -1.603 0.37
-15.792 7.0279999 -1.604 0.41999999
-15.812 6.9770002 -1.604 0.34
-15.748 6.8899999 -1.594 0.27000001
-15.814 6.8600001 -1.599 0.47
-15.815 6.8309999 -1.598 0.22
-14.673 6.2810001 -1.466 0.43000001
-14.54 6.1700001 -1.448 0.31999999
-14.521 6.1079998 -1.444 0.38999999
-14.502 6.046 -1.4400001 0.41
-14.57 6.0209999 -1.4450001 0.44999999
-14.551 5.9590001 -1.441 0.31999999
-14.494 5.9089999 -1.433 0.62
-14.492 5.8559999 -1.431 0.33000001
-14.523 5.8150001 -1.433 0.44999999
-14.515 5.7589998 -1.4299999 0.43000001
-14.554 5.7220001 -1.432 0.36000001
-14.559 5.671 -1.431 0.54000002
-14.623 5.6430001 -1.436 0.33000001
-14.567 5.5949998 -1.428 0.49000001
-14.694 5.5910001 -1.441 0.33000001
-14.804 5.5799999 -1.451 0.41
-14.85 5.5440001 -1.454 0.43000001
-14.834 5.4850001 -1.45 0.47999999
-14.927 5.4660001 -1.459 0.41
-14.937 5.4169998 -1.4579999 0.23999999
-16.888 6.098 -1.674 0.27000001
-16.909 6.046 -1.674 0.41
-16.797001 5.9460001 -1.66 0.40000001
-16.823 5.8959999 -1.66 0.34999999
-16.872999 5.8540001 -1.664 0.44
-16.962999 5.8260002 -1.6720001 0.36000001
-16.985001 5.7740002 -1.6720001 0.44999999
-17.083 5.777 -1.682 0.34
-17.172001 5.7470002 -1.6900001 0.43000001
-17.087 5.6589999 -1.678 0.43000001
-16.959 5.5570002 -1.6619999 0.34999999
-16.857 5.4650002 -1.649 0.25
-16.872 5.4109998 -1.649 0.47
-16.947001 5.4060001 -1.656 0.41
-16.952999 5.349 -1.655 0.37
-17.032 5.316 -1.6619999 0.37
-16.944 5.23 -1.651 0.43000001
-17.049999 5.204 -1.66 0.38
-17.003 5.131 -1.654 0.38999999
-17.007999 5.0739999 -1.652 0.28999999
-16.863001 5.0019999 -1.636 0.31
-16.771999 4.9180002 -1.624 0.41
-16.865999 4.888 -1.633 0.41
-17.013 4.8730001 -1.647 0.40000001
-17.118 4.8449998 -1.6569999 0.36000001
-17.187 4.8060002 -1.6619999 0.28999999
-16.966 4.6869998 -1.637 0.46000001
-17.259001 4.7389998 -1.668 0.36000001
-17.211 4.6669998 -1.661 0.34
-17.386999 4.6570001 -1.678 0.30000001
-17.291 4.573 -1.6670001 0.25999999
-17.292 4.5149999 -1.665 0.5
-17.530001 4.5190001 -1.689 0.28999999
-17.783001 4.5250001 -1.715 0.46000001
-17.750999 4.487 -1.711 0.36000001
-17.752001 4.428 -1.709 0.38
-17.789 4.3779998 -1.712 0.41
-17.725 4.303 -1.704 0.44999999
-17.669001 4.23 -1.696 0.43000001
-17.407 4.1100001 -1.6670001 0.25999999
-17.403 4.0510001 -1.665 0.36000001
-17.343 4.0079999 -1.658 0.36000001
-17.367001 3.9560001 -1.659 0.38999999
-17.518999 3.9330001 -1.674 0.36000001
-17.698999 3.915 -1.692 0.31
-17.746 3.868 -1.6950001 0.33000001
-17.797001 3.8199999 -1.7 0.56999999
-17.562 3.7119999 -1.673 0.33000001
-17.559999 3.6819999 -1.6720001 0.31
-17.606001 3.635 -1.676 0.28999999
-17.653 3.586 -1.6799999 0.40000001
-17.631001 3.5239999 -1.676 0.33000001
-17.700001 3.48 -1.683 0.41
-17.684 3.4189999 -1.6799999 0.34
-17.777 3.4089999 -1.689 0.38999999
-17.752001 3.346 -1.6849999 0.31999999
-17.825001 3.302 -1.692 0.37
-17.916 3.2609999 -1.7 0.34999999
-17.941999 3.207 -1.702 0.38
-18.046 3.1670001 -1.712 0.38
-18.179001 3.132 -1.725 0.41999999
-18.17 3.1010001 -1.724 0.34999999
-18.247 3.0550001 -1.7309999 0.38999999
-18.195 2.9879999 -1.724 0.34
-18.167 2.925 -1.72 0.47999999
-18.247 2.8789999 -1.728 0.34
-18.162001 2.8069999 -1.7180001 0.37
-18.247 2.7620001 -1.726 0.38999999
-18.313 2.7130001 -1.732 0.38999999
-18.124001 2.655 -1.712 0.41
-18.073 2.5899999 -1.705 0.37
-17.985001 2.52 -1.6950001 0.31
-18.299999 2.506 -1.728 0.36000001
-18.367001 2.4560001 -1.734 0.40000001
-18.316999 2.391 -1.728 0.38999999
-18.483 2.3829999 -1.745 0.31999999
-18.524 2.329 -1.748 0.41999999
-18.507 2.2679999 -1.7460001 0.38
-18.724001 2.2349999 -1.768 0.41
-18.735001 2.177 -1.768 0.34
-18.761 2.1199999 -1.77 0.40000001
-18.684999 2.052 -1.762 0.34
-18.826 2.0380001 -1.776 0.25
-18.926001 1.989 -1.786 0.47
-18.879999 1.924 -1.781 0.33000001
-18.957001 1.872 -1.788 0.38
-18.976999 1.813 -1.79 0.43000001
-19.076 1.763 -1.799 0.38999999
-19.313 1.724 -1.824 0.31999999
-19.395 1.7 -1.832 0.37
-19.545 1.652 -1.847 0.38999999
-19.659 1.599 -1.858 0.37
-19.792999 1.548 -1.872 0.30000001
-19.983999 1.5 -1.891 0.40000001
-20.266001 1.457 -1.921 0.38999999
-20.541 1.413 -1.949 0.36000001
-20.625999 1.386 -1.957 0.47999999
-20.719999 1.327 -1.967 0.41
-21.625 1.318 -2.0610001 0.23
-21.927 1.268 -2.092 0.31999999
-22.01 1.2029999 -2.1010001 0.28999999
-21.988001 1.133 -2.098 0.34
-21.892 1.059 -2.0869999 0.16
-22.091 1.034 -2.108 0.44999999
-22.098 0.96499997 -2.108 0.20999999
-22.105 0.89499998 -2.109 0.23999999
-22.1 0.82599998 -2.108 0.2
-22.073999 0.755 -2.105 0.12
-16.975 0.52100003 -1.572 0.079999998
-16.738001 0.461 -1.5470001 0.14
-16.657 0.43200001 -1.539 0.16
-16.622 0.37900001 -1.535 0.38999999
-16.610001 0.32699999 -1.534 0.22
-16.573 0.27399999 -1.53 0.23
-16.558001 0.222 -1.528 0.15000001
-16.514999 0.169 -1.524 0.12
-16.541 0.117 -1.526 0.27000001
-16.542999 0.090999998 -1.526 0.57999998
-16.531 0.039000001 -1.525 0.69999999
-16.427999 -0.013 -1.5140001 0.99000001
-16.427999 -0.064000003 -1.5140001 0.99000001
-16.429001 -0.116 -1.515 0.99000001
-16.429001 -0.167 -1.515 0.99000001
-16.426001 -0.219 -1.5140001 0.99000001
-16.424 -0.245 -1.5140001 0.99000001
-16.423 -0.296 -1.5140001 0.99000001
-16.422001 -0.34799999 -1.5140001 0.99000001
-16.423 -0.40000001 -1.5140001 0.99000001
-16.42 -0.45100001 -1.5140001 0.99000001
-16.416 -0.50300002 -1.5140001 0.99000001
-16.532 -0.55800003 -1.526 0.89999998
-16.531 -0.58399999 -1.526 0.63999999
-16.525 -0.63599998 -1.526 0.61000001
-16.493 -0.68699998 -1.523 0.60000002
-16.518999 -0.74000001 -1.526 0.36000001
-16.544001 -0.79299998 -1.529 0.23999999
-16.569 -0.84600002 -1.531 0.25
-16.59 -0.89899999 -1.534 0.27000001
-16.613001 -0.92699999 -1.536 0.20999999
-16.653999 -0.98100001 -1.541 0.16
-16.551001 -1.028 -1.531 0
-16.643 -1.086 -1.541 0.15000001
-16.865999 -1.153 -1.564 0.11
-21.728001 -1.5470001 -2.073 0.17
-21.719 -1.615 -2.073 0.11
-21.705999 -1.648 -2.072 0.16
-21.702999 -1.716 -2.072 0.27000001
-21.698 -1.784 -2.072 0.2
-21.690001 -1.852 -2.072 0.16
-21.676001 -1.92 -2.0710001 0.13
-21.656 -1.987 -2.0699999 0.16
-21.671 -2.0569999 -2.072 0.12
-21.672001 -2.0910001 -2.072 0.16
-21.65 -2.158 -2.0710001 0.12
-21.649 -2.2260001 -2.0710001 0.16
-21.624001 -2.293 -2.069 0.28999999
-21.608999 -2.3599999 -2.069 0.18000001
-21.607 -2.428 -2.069 0.18000001
-21.607 -2.497 -2.0699999 0.17
-21.607 -2.5309999 -2.0699999 0.17
-21.613001 -2.6010001 -2.072 0.16
-21.624001 -2.671 -2.0739999 0.16
-21.612 -2.7390001 -2.0739999 0.16
-21.594999 -2.8050001 -2.073 0.1
-21.569 -2.8710001 -2.0710001 0.16
-21.558001 -2.904 -2.0699999 0.1
-21.539 -2.97 -2.069 0.15000001
-21.507999 -3.0350001 -2.0669999 0.23
-21.490999 -3.1010001 -2.066 0.25
-21.466999 -3.1670001 -2.0650001 0.11
-21.447001 -3.233 -2.0639999 0.16
-21.441 -3.3010001 -2.0639999 0.12
-21.431999 -3.3340001 -2.0639999 0.17
-21.417 -3.401 -2.063 0.20999999
-21.393999 -3.4660001 -2.062 0.19
-21.378 -3.5320001 -2.0610001 0.22
-21.362 -3.599 -2.0610001 0.19
-21.358999 -3.6670001 -2.062 0.20999999
-21.349001 -3.734 -2.062 0.19
-21.343 -3.7679999 -2.062 0.20999999
-21.337 -3.836 -2.063 0.18000001
-21.316999 -3.902 -2.062 0.12
-21.297001 -3.967 -2.0610001 0.18000001
-21.277 -4.033 -2.0599999 0.28
-21.266001 -4.0999999 -2.0599999 0.27000001
-21.254999 -4.1669998 -2.0599999 0.25999999
-21.25 -4.2010002 -2.0610001 0.25
-21.237 -4.2670002 -2.0610001 0.11
-21.225 -4.335 -2.0610001 0.16
-21.212 -4.401 -2.0610001 0.23
-21.195999 -4.467 -2.0610001 0.23999999
-21.186001 -4.5349998 -2.0610001 0.25
-21.160999 -4.599 -2.0599999 0.25
-21.15 -4.632 -2.0599999 0.25
-21.138 -4.698 -2.0599999 0.11
-21.125 -4.7649999 -2.0599999 0.16
-21.117001 -4.8330002 -2.0610001 0.28
-21.087999 -4.8969998 -2.059 0.19
-21.075001 -4.9629998 -2.0599999 0.18000001
-21.024 -5.0209999 -2.056 0.33000001
-21.02 -5.0549998 -2.056 0.19
-20.987 -5.1170001 -2.0539999 0.34
-20.966999 -5.1820002 -2.0539999 0.16
-20.952 -5.2480001 -2.0539999 0.38999999
-20.917 -5.309 -2.052 0.23
-20.917 -5.3790002 -2.0539999 0.19
-20.898001 -5.4439998 -2.0539999 0.41
-20.884001 -5.4759998 -2.053 0.23
-20.888 -5.5469999 -2.0550001 0.2
-20.841 -5.605 -2.052 0.23999999
-20.797001 -5.6630001 -2.049 0.47999999
-20.66 -5.6960001 -2.0369999 0.30000001
-20.423 -5.6999998 -2.013 0.28
-20.202 -5.6719999 -1.99 0.28999999
-19.976999 -5.677 -1.967 0.28999999
-19.749001 -5.6799998 -1.9450001 0.30000001
-19.593 -5.7020001 -1.9299999 0.28
-19.584999 -5.7659998 -1.931 0.2
-19.481001 -5.803 -1.921 0.31
-19.313999 -5.8189998 -1.905 0.38
-19.132999 -5.7979999 -1.886 0.34999999
-19.025999 -5.8309999 -1.877 0.41999999
-18.848 -5.8410001 -1.859 0.36000001
-18.690001 -5.8569999 -1.844 0.34999999
-18.621 -5.9000001 -1.839 0.38999999
-18.559999 -5.9450002 -1.834 0.34
-18.584999 -6.0170002 -1.839 0.44
-18.239 -5.9369998 -1.802 0.36000001
-18.103001 -5.9559999 -1.789 0.25
-18.065001 -6.007 -1.7869999 0.36000001
-17.993999 -6.046 -1.781 0.33000001
-17.822001 -6.0510001 -1.7640001 0.41999999
-17.792999 -6.1030002 -1.763 0.34999999
-17.698999 -6.1329999 -1.755 0.34
-17.533001 -6.1069999 -1.738 0.36000001
-17.429001 -6.132 -1.728 0.33000001
-17.487 -6.2140002 -1.737 0.36000001
-17.158001 -6.1589999 -1.7029999 0.27000001
-17.253 -6.2540002 -1.715 0.43000001
-17.195999 -6.2940001 -1.711 0.36000001
-17.174 -6.348 -1.711 0.38
-17.207001 -6.3899999 -1.716 0.31999999
-17.302 -6.4879999 -1.728 0.27000001
-17.124001 -6.4819999 -1.711 0.40000001
-17.448999 -6.6680002 -1.749 0.30000001
-17.257 -6.6570001 -1.73 0.37
-17.294001 -6.7329998 -1.737 0.17
-17.389 -6.8330002 -1.75 0.5
-17.482 -6.901 -1.761 0.30000001
-17.266001 -6.8790002 -1.74 0.28999999
-17.094999 -6.8740001 -1.723 0.36000001
-17.127001 -6.9489999 -1.729 0.25
-16.961 -6.9439998 -1.7130001 0.47999999
-17.021999 -7.0310001 -1.722 0.43000001
-17.068001 -7.1129999 -1.73 0.18000001
-16.856001 -7.0560002 -1.707 0.57999998
-18.662001 -7.8779998 -1.914 0.2
-16.66 -7.098 -1.6900001 0.34999999
-16.528 -7.1030002 -1.677 0.2
-16.367001 -7.0949998 -1.6619999 0.33000001
-16.238001 -7.0999999 -1.65 0.23
-16.110001 -7.105 -1.638 0.25
-18.497999 -8.1879997 -1.911 0.20999999
-18.458 -8.2399998 -1.91 0.18000001
-18.433001 -8.2989998 -1.91 0.41999999
-18.42 -8.3620005 -1.911 0.19
-15.748 -7.2129998 -1.608 0.15000001
-15.792 -7.2930002 -1.615 0.47
-15.469 -7.204 -1.581 0.27000001
-15.123 -7.072 -1.5420001 0.28
-15.624 -7.3649998 -1.603 0.34
-15.786 -7.5019999 -1.624 0.62
-14.581 -6.9879999 -1.487 0.23999999
-18.184 -8.7770004 -1.9069999 0.31
-15.703 -7.7059999 -1.626 0.47
-15.621 -7.6960001 -1.617 0.30000001
-15.567 -7.73 -1.614 0.56999999
-15.729 -7.8730001 -1.636 0.38
-15.79 -7.9650002 -1.646 0.5
-13.771 -7.059 -1.415 0.57999998
-17.996 -9.2519999 -1.9119999 0.23
-17.958 -9.3039999 -1.911 0.2
-15.858 -8.2819996 -1.6670001 0.22
-15.757 -8.2930002 -1.658 0.22
-15.689 -8.3199997 -1.653 0.54000002
-15.626 -8.3500004 -1.649 0.16
-15.53 -8.3610001 -1.641 0.47999999
-13.108 -7.0890002 -1.355 0.57999998
-17.724001 -9.6459999 -1.906 0.2
-15.914 -8.7290001 -1.694 0.22
-12.588 -6.9619999 -1.301 0.41
-12.545 -6.9899998 -1.299 0.23999999
-15.706 -8.809 -1.679 0.28999999
-15.707 -8.8739996 -1.683 0.54000002
-15.81 -8.9650002 -1.697 0.47999999
-12.098 -6.9679999 -1.257 0.57999998
-11.923 -6.9169998 -1.239 0.23999999
-17.43 -10.172 -1.906 0.27000001
-17.424 -10.242 -1.909 0.27000001
-17.392 -10.297 -1.909 0.27000001
-17.290001 -10.273 -1.899 0.34
-17.280001 -10.341 -1.902 0.27000001
-17.309999 -10.433 -1.909 0.37
-11.335 -6.8909998 -1.184 0.23
-11.245 -6.8850002 -1.176 0.18000001
-11.174 -6.8899999 -1.17 0.36000001
-11.085 -6.8829999 -1.1619999 0.31999999
-11.01 -6.8610001 -1.154 0.25999999
-10.96 -6.8769999 -1.15 0.20999999
-17.084999 -10.779 -1.908 0.38
-10.782 -6.8610001 -1.1339999 0.22
-10.725 -6.8720002 -1.1289999 0.17
-16.997999 -10.949 -1.91 0.43000001
-16.969999 -11.007 -1.911 0.25
-10.541 -6.8720002 -1.113 0.25999999
-16.913 -11.083 -1.91 0.25
-16.867001 -11.129 -1.909 0.20999999
-10.305 -6.8579998 -1.092 0.20999999
-10.819 -7.2480001 -1.159 0.22
-10.912 -7.3590002 -1.174 0.34
-10.892 -7.3709998 -1.1720001 0.22
-10.066 -6.8600001 -1.071 0.51999998
-10.044 -6.8920002 -1.071 0.38
-15.715 -10.837 -1.7920001 0.38999999
-9.8529997 -6.8530002 -1.052 0.16
-12.797 -8.9499998 -1.4299999 0.28
-12.74 -8.9700003 -1.426 0.49000001
-9.6800003 -6.8460002 -1.0369999 0.30000001
-9.6669998 -6.882 -1.038 0.31
-12.627 -9.0389996 -1.421 0.50999999
-10.939 -7.8870001 -1.207 0.28
-10.869 -7.8889999 -1.202 0.40000001
-10.857 -7.9330001 -1.2029999 0.28
-10.858 -7.9850001 -1.207 0.33000001
-10.875 -8.0249996 -1.21 0.36000001
-10.882 -8.0830002 -1.215 0.36000001
-10.85 -8.1120005 -1.214 0.5
-10.86 -8.1719999 -1.2180001 0.31999999
-10.866 -8.2299995 -1.223 0.47
-10.848 -8.2709999 -1.224 0.28
-12.499 -9.5860004 -1.444 0.36000001
-12.517 -9.6309996 -1.448 0.34
-12.499 -9.6800003 -1.45 0.37
-12.489 -9.7349997 -1.4529999 0.38999999
-12.483 -9.7939997 -1.456 0.37
-15.302 -12.076 -1.834 0.30000001
-15.336 -12.181 -1.844 0.41
-15.013 -12.002 -1.806 0.30000001
-14.961 -12 -1.802 0.31
-8.3579998 -6.7620001 -0.92199999 0.30000001
-8.3079996 -6.7639999 -0.91799998 0.31
-8.2550001 -6.7649999 -0.91399997 0.34
-8.1940002 -6.7579999 -0.90799999 0.34999999
-8.151 -6.7659998 -0.90600002 0.23
-14.399 -12.002 -1.756 0.25
-14.392 -12.035 -1.758 0.33000001
-14.38 -12.102 -1.761 0.47
-15.464 -13.094 -1.915 0.23999999
-15.424 -13.144 -1.915 0.25999999
-15.383 -13.192 -1.915 0.18000001
-7.8099999 -6.757 -0.87800002 0.18000001
-7.8769999 -6.8369999 -0.88800001 0.38999999
-15.277 -13.312 -1.915 0.20999999
-15.223 -13.349 -1.913 0.22
-15.187 -13.402 -1.914 0.17
-15.123 -13.43 -1.911 0.34999999
-15.083 -13.48 -1.911 0.2
-7.4720001 -6.737 -0.85000002 0.33000001
-14.992 -13.526 -1.9069999 0.15000001
-14.955 -13.578 -1.908 0.44
-14.918 -13.63 -1.909 0.25
-14.865 -13.668 -1.9069999 0.23
-7.3319998 -6.8449998 -0.847 0.57999998
-7.1529999 -6.7420001 -0.82599998 0.37
-7.1360002 -6.7690001 -0.82599998 0.44
-7.0469999 -6.7270002 -0.81699997 0.18000001
-14.577 -13.963 -1.9069999 0.44
-14.539 -14.014 -1.9069999 0.23
-14.508 -14.072 -1.909 0.25999999
-6.8639998 -6.7189999 -0.80199999 0.28
-14.509 -14.207 -1.919 0.28
-14.465 -14.253 -1.919 0.25
-14.379 -14.257 -1.913 0.38999999
-14.313 -14.281 -1.91 0.33000001
-14.261 -14.319 -1.909 0.30000001
-14.212 -14.36 -1.908 0.31999999
-14.137 -14.375 -1.904 0.31999999
-14.115 -14.397 -1.904 0.28999999
-14.067 -14.438 -1.904 0.25999999
-14.014 -14.475 -1.903 0.23
-13.995 -14.546 -1.9069999 0.14
-6.467 -6.7839999 -0.778 0.57999998
-13.906 -14.637 -1.9069999 0.25
-13.857 -14.678 -1.9069999 0.25999999
-6.27 -6.6830001 -0.75599998 0.18000001
-10.448 -11.251 -1.402 0.47999999
-10.378 -11.247 -1.397 0.41999999
-10.344 -11.281 -1.397 0.38999999
-10.266 -11.267 -1.391 0.36000001
-10.188 -11.217 -1.381 0.62
-10.175 -11.274 -1.385 0.20999999
-8.5799999 -9.573 -1.142 0.56999999
-8.5279999 -9.5740004 -1.138 0.38999999
-8.5 -9.6040001 -1.138 0.36000001
-8.5190001 -9.6859999 -1.146 0.28
-10.182 -11.643 -1.414 0.49000001
-10.153 -11.647 -1.4119999 0.38
-10.16 -11.728 -1.419 0.38
-10.118 -11.754 -1.419 0.64999998
-8.5690002 -10.089 -1.181 0.62
-8.5380001 -10.116 -1.181 0.23
-8.4790001 -10.111 -1.177 0.55000001
-8.4870005 -10.153 -1.181 0.40000001
-8.4720001 -10.199 -1.184 0.56999999
-12.972 -15.696 -1.925 0.2
-8.5229998 -10.392 -1.2029999 0.23
-8.4849997 -10.413 -1.202 0.44999999
-8.4390001 -10.422 -1.199 0.68000001
-8.4469995 -10.467 -1.204 0.22
-8.4230003 -10.504 -1.205 0.46000001
-8.3809996 -10.519 -1.204 0.46000001
-8.3739996 -10.578 -1.2079999 0.57999998
-12.423 -15.774 -1.895 0.23999999
-5.1680002 -6.6290002 -0.67699999 0.25
-11.095 -14.322 -1.691 0.28999999
-5.1479998 -6.6469998 -0.67699999 0.14
-11.027 -14.327 -1.687 0.30000001
-10.954 -14.325 -1.682 0.31999999
-10.88 -14.321 -1.677 0.25999999
-10.811 -14.324 -1.673 0.31999999
-10.735 -14.316 -1.6670001 0.19
-10.672 -14.326 -1.664 0.38999999
-10.601 -14.324 -1.66 0.28999999
-10.569 -14.328 -1.658 0.28999999
-10.498 -14.326 -1.654 0.38
-10.439 -14.34 -1.651 0.25999999
-10.406 -14.39 -1.653 0.41999999
-10.361 -14.423 -1.653 0.25
-10.315 -14.454 -1.653 0.38
-10.294 -14.473 -1.654 0.2
-10.257 -14.517 -1.655 0.51999998
-4.631 -6.6230001 -0.64300001 0.25999999
-4.6090002 -6.6360002 -0.64300001 0.34999999
-4.5900002 -6.6529999 -0.64300001 0.23
-4.5900002 -6.697 -0.64700001 0.23
-9.9759998 -14.601 -1.645 0.20999999
-9.9359999 -14.592 -1.642 0.43000001
-9.8649998 -14.586 -1.638 0.27000001
-9.8199997 -14.617 -1.638 0.43000001
-9.7589998 -14.627 -1.635 0.30000001
-9.7229996 -14.672 -1.637 0.38
-9.6499996 -14.661 -1.632 0.34
-9.6359997 -14.741 -1.638 0.33000001
-9.6079998 -14.748 -1.637 0.38999999
-9.5690002 -14.79 -1.638 0.36000001
-9.5209999 -14.818 -1.638 0.34
-9.4820004 -14.86 -1.64 0.36000001
-9.4610004 -14.93 -1.645 0.34
-9.4259996 -14.978 -1.647 0.37
-9.4160004 -15.015 -1.65 0.38
-9.3649998 -15.037 -1.649 0.33000001
-9.3299999 -15.087 -1.651 0.34999999
-9.2819996 -15.116 -1.651 0.43000001
-9.2530003 -15.174 -1.655 0.28999999
-7.9289999 -13.104 -1.398 0.31
-7.8010001 -12.984 -1.381 0.28999999
-7.7540002 -12.951 -1.375 0.67000002
-7.7290001 -13.003 -1.3789999 0.25
-7.7069998 -13.058 -1.382 0.55000001
-7.6760001 -13.099 -1.3839999 0.25999999
-7.6079998 -13.079 -1.3789999 0.57999998
-7.5609999 -13.092 -1.378 0.27000001
-7.552 -13.171 -1.3839999 0.47
-9.0480003 -15.828 -1.7029999 0.28999999
-9.0360003 -15.922 -1.711 0.46000001
-9.033 -16.034 -1.721 0.28999999
-9.0249996 -16.138 -1.73 0.44999999
-9.0200005 -16.247999 -1.739 0.25
-9.0089998 -16.348 -1.748 0.52999997
-9.4809999 -17.33 -1.862 0.27000001
-9.448 -17.334 -1.86 0.23
-5.632 -10.434 -1.0369999 0.31999999
-5.6090002 -10.469 -1.039 0.20999999
-5.553 -10.444 -1.034 0.58999997
-5.5229998 -10.467 -1.035 0.25999999
-5.5029998 -10.507 -1.038 0.57999998
-9.1590004 -17.584999 -1.869 0.19
-9.132 -17.601 -1.869 0.40000001
-9.066 -17.608999 -1.867 0.23
-7.9619999 -15.591 -1.627 0.31
-7.9060001 -15.603 -1.626 0.44999999
-5.277 -10.515 -1.028 0.25
-5.23 -10.503 -1.024 0.5
-5.2160001 -10.517 -1.025 0.27000001
-5.1939998 -10.555 -1.028 0.57999998
-5.191 -10.633 -1.035 0.2
-5.1869998 -10.71 -1.0420001 0.34999999
-7.494 -15.572 -1.603 0.31
-7.4450002 -15.595 -1.603 0.31
-7.382 -15.588 -1.6 0.47
-7.3540001 -15.592 -1.599 0.25
-7.2810001 -15.565 -1.5930001 0.56
-7.224 -15.57 -1.591 0.27000001
-7.1539998 -15.547 -1.586 0.5
-7.1030002 -15.564 -1.585 0.30000001
-5.099 -11.285 -1.092 0.20999999
-5.0419998 -11.252 -1.087 0.55000001
-5.0229998 -11.258 -1.087 0.30000001
-4.9959998 -11.292 -1.089 0.57999998
-4.5970001 -10.483 -0.995 0.16
-4.5489998 -10.463 -0.991 0.37
-4.5159998 -10.477 -0.991 0.40000001
-4.4970002 -10.524 -0.99400002 0.18000001
-4.4590001 -10.528 -0.99299997 0.60000002
-7.6170001 -18.013 -1.841 0.27000001
-7.5549998 -18.025999 -1.84 0.38
-7.4889998 -18.025 -1.837 0.23999999
-4.5009999 -10.958 -1.036 0.27000001
-4.4549999 -10.943 -1.033 0.47999999
-4.4289999 -10.979 -1.035 0.20999999
-4.3769999 -10.949 -1.03 0.58999997
-4.3990002 -11.053 -1.041 0.22
-4.5009999 -11.413 -1.08 0.2
-5.6230001 -14.37 -1.41 0.44
-5.5760002 -14.382 -1.41 0.36000001
-5.5830002 -14.535 -1.425 0.56999999
-5.5570002 -14.605 -1.431 0.19
-5.5440001 -14.71 -1.441 0.28999999
-5.5599999 -14.822 -1.452 0.28999999
-5.5549998 -14.95 -1.464 0.41999999
-5.54 -15.055 -1.474 0.34999999
-6.625 -18.162001 -1.818 0.30000001
-6.586 -18.235001 -1.823 0.31999999
-6.5289998 -18.254999 -1.823 0.34
-6.4959998 -18.252001 -1.822 0.31
-6.4359999 -18.267 -1.821 0.43000001
-6.3709998 -18.264999 -1.819 0.28999999
-6.2969999 -18.236 -1.813 0.34999999
-6.2410002 -18.261 -1.814 0.30000001
-6.1750002 -18.254 -1.811 0.31
-6.118 -18.275 -1.811 0.50999999
-6.0900002 -18.285 -1.811 0.27000001
-6.0430002 -18.336 -1.8150001 0.41
-5.9970002 -18.393 -1.819 0.34999999
-2.0880001 -6.5279999 -0.51499999 0.23
-2.062 -6.5159998 -0.51300001 0
-5.7859998 -18.429001 -1.816 0.2
-5.7290001 -18.451 -1.816 0.44
-5.6690001 -18.462999 -1.816 0.25999999
-5.612 -18.485001 -1.816 0.34
-5.5539999 -18.502001 -1.816 0.41
-5.4879999 -18.490999 -1.813 0.28999999
-5.428 -18.503 -1.812 0.37
-5.402 -18.521 -1.813 0.31999999
-5.3439999 -18.539 -1.814 0.34
-5.2859998 -18.556 -1.814 0.43000001
-5.2210002 -18.552 -1.811 0.25
-5.1630001 -18.568001 -1.811 0.34
-5.1090002 -18.599001 -1.813 0.23999999
-1.8049999 -6.717 -0.52600002 0.57999998
-2.802 -10.435 -0.92799997 0.18000001
-2.7579999 -10.401 -0.92299998 0.28
-2.7160001 -10.377 -0.91900003 0.18000001
-2.678 -10.365 -0.917 0.30000001
-2.6470001 -10.381 -0.91799998 0.30000001
-4.6469998 -18.625999 -1.803 0.47
-4.6040001 -18.579 -1.798 0.28
-4.5510001 -18.615 -1.8 0.33000001
-4.4990001 -18.656 -1.803 0.36000001
-4.4250002 -18.606001 -1.796 0.37
-4.3740001 -18.650999 -1.799 0.36000001
-2.3940001 -10.403 -0.91399997 0.41
-2.3570001 -10.393 -0.912 0.25
-2.342 -10.405 -0.91299999 0.43000001
-2.306 -10.397 -0.91100001 0.20999999
-4.1030002 -18.68 -1.796 0.19
-4.0479999 -18.705999 -1.7970001 0.46000001
-3.987 -18.709 -1.796 0.27000001
-3.927 -18.716 -1.796 0.31999999
-3.868 -18.73 -1.796 0.41
-3.8369999 -18.726 -1.795 0.38999999
-2.0829999 -10.389 -0.90600002 0.25
-2.052 -10.403 -0.90700001 0.40000001
-2.016 -10.396 -0.90499997 0.28999999
-1.9859999 -10.414 -0.90600002 0.31
-3.533 -18.735001 -1.79 0.2
-3.507 -18.757999 -1.7920001 0.27000001
-3.45 -18.778999 -1.793 0.47
-3.3859999 -18.766001 -1.79 0.27000001
-3.329 -18.789 -1.791 0.28
-3.2679999 -18.783001 -1.79 0.49000001
-1.765 -10.407 -0.90200001 0.18000001
-1.729 -10.395 -0.89999998 0.25999999
-1.714 -10.404 -0.89999998 0.41
-1.677 -10.383 -0.898 0.2
-1.645 -10.395 -0.898 0.44999999
-1.62 -10.443 -0.903 0.12
-2.872 -18.771999 -1.7819999 0.31999999
-2.8110001 -18.764999 -1.78 0.41999999
-2.7509999 -18.768 -1.78 0.28999999
-2.7179999 -18.752001 -1.777 0.33000001
-2.658 -18.749001 -1.776 0.44
-2.598 -18.753 -1.776 0.31
-2.5369999 -18.745001 -1.774 0.25
-1.3609999 -10.389 -0.89300001 0.47
-1.326 -10.372 -0.89099997 0.16
-1.295 -10.394 -0.89300001 0.17
-1.272 -10.339 -0.88700002 0.51999998
-0.764 -6.461 -0.479 0.12
-2.2049999 -18.716999 -1.767 0.27000001
-2.1440001 -18.708 -1.765 0.38999999
-2.086 -18.721001 -1.766 0.25999999
-1.469 -13.64 -1.232 0.27000001
-1.4220001 -13.601 -1.227 0.68000001
-1.4119999 -13.716 -1.239 0.44
-1.398 -14.007 -1.2690001 0.18000001
-1.8150001 -18.684999 -1.7589999 0.36000001
-1.7539999 -18.667 -1.757 0.36000001
-1.696 -18.681999 -1.758 0.33000001
-1.636 -18.674 -1.756 0.33000001
-1.577 -18.673 -1.756 0.31999999
-1.545 -18.643999 -1.752 0.37
-1.487 -18.65 -1.753 0.30000001
-1.428 -18.659 -1.753 0.34
-1.368 -18.646999 -1.751 0.43000001
-1.309 -18.636 -1.75 0.28
-1.249 -18.628 -1.748 0.37
-1.22 -18.624001 -1.748 0.38999999
-1.159 -18.596001 -1.744 0.30000001
-1.101 -18.611 -1.7460001 0.34
-1.04 -18.570999 -1.7410001 0.47
-0.98100001 -18.562 -1.74 0.25999999
-0.92299998 -18.565001 -1.74 0.28999999
-0.86400002 -18.546 -1.738 0.52999997
-0.83399999 -18.544001 -1.737 0.27000001
-0.77700001 -18.576 -1.74 0.22
-0.71700001 -18.523001 -1.734 0.55000001
-0.65899998 -18.521 -1.734 0.27000001
-0.60299999 -18.594 -1.742 0.27000001
-0.542 -18.525999 -1.734 0.49000001
-0.484 -18.544001 -1.7359999 0.28999999
-0.45500001 -18.547001 -1.7359999 0.28
-0.39700001 -18.540001 -1.735 0.50999999
-0.34 -18.584999 -1.74 0.28999999
-0.28099999 -18.576 -1.739 0.28999999
-0.223 -18.639999 -1.7460001 0.44
-0.164 -18.573 -1.738 0.30000001
-0.106 -18.594 -1.7410001 0.31999999
-0.077 -18.573999 -1.738 0.43000001
-0.017999999 -18.612 -1.742 0.28999999
0.039999999 -18.58 -1.739 0.31999999
0.098999999 -18.628 -1.744 0.37
0.15700001 -18.613001 -1.743 0.47999999
0.146 -11.822 -1.034 0.25999999
0.16500001 -11.82 -1.034 0.37
0.20200001 -11.827 -1.034 0.34999999
0.23899999 -11.826 -1.034 0.28
0.27599999 -11.828 -1.035 0.34999999
0.31299999 -11.809 -1.033 0.28
0.35100001 -11.834 -1.035 0.41
0.38800001 -11.83 -1.035 0.15000001
0.625 -18.627001 -1.745 0.28999999
0.68400002 -18.635 -1.7460001 0.49000001
0.74299997 -18.643 -1.747 0.28
0.801 -18.622999 -1.745 0.31999999
0.86000001 -18.622 -1.7460001 0.47999999
0.91799998 -18.605 -1.744 0.30000001
0.97600001 -18.594 -1.743 0.34999999
1.003 -18.565001 -1.74 0.49000001
1.063 -18.582001 -1.742 0.27000001
1.12 -18.563999 -1.7410001 0.37
1.177 -18.541 -1.739 0.51999998
0.44499999 -6.421 -0.472 0.17
0.465 -6.415 -0.47099999 0.47
0.76700002 -10.35 -0.88300002 0.12
1.378 -18.487 -1.735 0.36000001
0.81300002 -10.313 -0.88 0.18000001
0.73100001 -8.8669996 -0.72799999 0.30000001
0.76800001 -8.9750004 -0.74000001 0.58999997
0.78899997 -8.8979998 -0.73199999 0.17
0.78100002 -8.4890003 -0.69 0.2
0.77999997 -8.3290005 -0.67299998 0.56999999
0.778 -8.0220003 -0.64099997 0.18000001
0.81900001 -8.184 -0.65799999 0.23999999
0.81199998 -7.8540001 -0.62400001 0.52999997
0.82800001 -7.7649999 -0.61500001 0.23
0.84799999 -7.7280002 -0.611 0.36000001
0.87900001 -7.783 -0.61699998 0.38
0.88800001 -7.75 -0.61400002 0.28999999
0.91000003 -7.7329998 -0.61299998 0.34
0.93599999 -7.744 -0.61400002 0.46000001
0.95999998 -7.7329998 -0.61299998 0.33000001
0.98299998 -7.7220001 -0.61199999 0.31999999
1.006 -7.7059999 -0.611 0.44
1.0319999 -7.7160001 -0.61199999 0.28
1.045 -7.7220001 -0.61299998 0.52999997
1.084 -7.8280001 -0.625 0.2
1.092 -7.7080002 -0.61199999 0.41
1.122 -7.744 -0.61699998 0.38
1.1440001 -7.724 -0.61500001 0.41
1.169 -7.7290001 -0.616 0.37
1.184 -7.7470002 -0.61799997 0.30000001
1.2079999 -7.7389998 -0.61699998 0.41
1.227 -7.7020001 -0.61400002 0.28
1.251 -7.6919999 -0.61299998 0.54000002
1.289 -7.7740002 -0.62199998 0.28999999
1.3200001 -7.809 -0.62599999 0.16
1.335 -7.7480001 -0.62 0.62
1.349 -7.7579999 -0.62199998 0.25999999
1.3940001 -7.875 -0.63499999 0.28999999
1.396 -7.7399998 -0.62099999 0.54000002
1.473 -7.8889999 -0.63700002 0.55000001
3.3859999 -18 -1.711 0.28
3.4489999 -18.02 -1.715 0.30000001
3.4749999 -18.003 -1.714 0.34
3.5320001 -17.996 -1.714 0.41999999
3.5869999 -17.975 -1.7130001 0.34999999
3.6400001 -17.950001 -1.711 0.38999999
3.7 -17.952 -1.7130001 0.38
3.75 -17.913 -1.71 0.37
3.8 -17.868 -1.706 0.38
3.8340001 -17.892 -1.71 0.34
3.8900001 -17.879 -1.71 0.33000001
3.9489999 -17.879 -1.711 0.44999999
4.0100002 -17.888 -1.7130001 0.30000001
4.0770001 -17.924999 -1.719 0.28
4.1220002 -17.864 -1.7130001 0.5
4.1739998 -17.834 -1.711 0.27000001
4.2010002 -17.819 -1.711 0.27000001
4.2509999 -17.783001 -1.7079999 0.52999997
4.3039999 -17.757999 -1.707 0.25
4.3590002 -17.74 -1.706 0.22
4.4070001 -17.695999 -1.7029999 0.55000001
4.4660001 -17.693001 -1.704 0.28
4.487 -17.663 -1.702 0.31999999
4.5469999 -17.664 -1.704 0.40000001
4.599 -17.638 -1.702 0.37
4.6490002 -17.601 -1.7 0.36000001
4.6999998 -17.570999 -1.698 0.36000001
4.7550001 -17.556 -1.698 0.34999999
4.7930002 -17.479 -1.692 0.41999999
4.8309999 -17.51 -1.696 0.30000001
4.8870001 -17.497 -1.696 0.31
4.9419999 -17.483 -1.696 0.47
4.9959998 -17.464001 -1.696 0.28999999
5.059 -17.476999 -1.699 0.30000001
5.1090002 -17.444 -1.697 0.47999999
5.1300001 -17.413 -1.694 0.38
5.1919999 -17.423 -1.697 0.34
5.2480001 -17.409 -1.698 0.41
5.2909999 -17.354 -1.693 0.23999999
5.3060002 -17.209999 -1.679 0.55000001
5.4039998 -17.336 -1.6950001 0.33000001
5.4699998 -17.353001 -1.699 0.30000001
5.4959998 -17.341999 -1.699 0.5
5.5450001 -17.306 -1.697 0.27000001
5.6040001 -17.302999 -1.698 0.25999999
5.658 -17.285999 -1.698 0.52999997
5.7140002 -17.274 -1.699 0.28999999
5.7729998 -17.268999 -1.7 0.31
5.8249998 -17.245001 -1.7 0.30000001
5.8429999 -17.207001 -1.697 0.36000001
5.9050002 -17.212 -1.699 0.46000001
5.9520001 -17.174 -1.697 0.28
5.9980001 -17.131001 -1.694 0.34999999
6.053 -17.118 -1.6950001 0.44999999
6.1040001 -17.089001 -1.694 0.27000001
6.1389999 -17.018999 -1.688 0.38
6.1729999 -17.028 -1.6900001 0.38
6.2329998 -17.028 -1.692 0.36000001
6.276 -16.98 -1.689 0.43000001
6.3299999 -16.962 -1.689 0.30000001
6.395 -16.972 -1.693 0.17
4.0910001 -10.727 -0.99800003 0.64999998
4.0359998 -10.484 -0.972 0.27000001
4.0799999 -10.55 -0.98000002 0.25
4.039 -10.346 -0.95899999 0.67000002
4.0500002 -10.276 -0.95300001 0.27000001
4.0120001 -10.087 -0.93300003 0.67000002
4.033 -10.047 -0.93000001 0.25
4.0040002 -9.8850002 -0.91299999 0.31999999
4.033 -9.8669996 -0.912 0.58999997
4.0190001 -9.7889996 -0.90399998 0.14
3.96 -9.5570002 -0.88 0.60000002
3.98 -9.5209999 -0.87699997 0.31999999
3.9519999 -9.3699999 -0.861 0.33000001
3.9489999 -9.2810001 -0.85299999 0.38999999
3.8940001 -9.0710001 -0.82999998 0.33000001
3.914 -9.0780001 -0.83200002 0.28
3.8829999 -8.9280005 -0.81599998 0.58999997
3.9389999 -8.9799995 -0.82300001 0.20999999
3.98 -8.9969997 -0.82700002 0.66000003
4.112 -9.2189999 -0.85299999 0.18000001
3.925 -8.7209997 -0.79799998 0.50999999
3.8729999 -8.5319996 -0.778 0.38
3.8559999 -8.4589996 -0.76999998 0.23
3.872 -8.4239998 -0.76700002 0.62
2.9719999 -6.3979998 -0.53600001 0.30000001
2.9879999 -6.3800001 -0.53500003 0.19
3 -6.3540001 -0.53299999 0.27000001
3.0209999 -6.3470001 -0.53299999 0.15000001
3.9030001 -8.1829996 -0.74599999 0.31999999
3.901 -8.1129999 -0.73900002 0.38
3.9519999 -8.1549997 -0.74599999 0.25
3.9960001 -8.1800003 -0.75 0.56999999
3.97 -8.0620003 -0.73799998 0.17
4.0830002 -8.2259998 -0.75800002 0.19
4.007 -8.0100002 -0.73500001 0.49000001
4.4109998 -8.7869997 -0.82599998 0.14
4.02 -7.941 -0.72899997 0.55000001
4.0190001 -7.8769999 -0.72299999 0.16
4.2309999 -8.2309999 -0.76599997 0.38
4.0469999 -7.809 -0.71799999 0.33000001
4.0739999 -7.743 -0.713 0.54000002
4.0890002 -7.7420001 -0.71399999 0.28
4.2210002 -7.9310002 -0.73799998 0.57999998
3.398 -6.3270001 -0.54900002 0.18000001
4.3319998 -8.0200005 -0.75099999 0.34
4.5440001 -8.3509998 -0.792 0.2
4.2870002 -7.816 -0.73000002 0.31999999
4.2389998 -7.6719999 -0.71499997 0.46000001
3.5050001 -6.3099999 -0.55299997 0.12
3.536 -6.3200002 -0.55599999 0.16
3.5539999 -6.3049998 -0.55500001 0.17
4.362 -7.6939998 -0.72299999 0.28
4.4089999 -7.7199998 -0.72799999 0.41
4.5739999 -7.9239998 -0.755 0.57999998
4.5 -7.737 -0.73400003 0.16
4.5300002 -7.7329998 -0.73500001 0.34
4.5960002 -7.7909999 -0.74400002 0.38999999
4.5799999 -7.7080002 -0.736 0.25
9.3330002 -15.646 -1.701 0.23999999
9.3649998 -15.59 -1.698 0.31999999
9.3970003 -15.587 -1.699 0.28999999
9.4259996 -15.525 -1.6950001 0.54000002
9.4949999 -15.527 -1.699 0.28
8.1739998 -13.266 -1.426 0.17
8.1610003 -13.153 -1.415 0.41999999
8.1389999 -13.026 -1.403 0.2
8.1899996 -13.015 -1.405 0.27000001
9.7089996 -15.385 -1.699 0.28999999
9.7650003 -15.366 -1.7 0.31999999
9.8170004 -15.342 -1.701 0.34999999
9.8479996 -15.284 -1.698 0.31999999
9.8979998 -15.257 -1.698 0.43000001
9.974 -15.269 -1.7029999 0.30000001
10.031 -15.251 -1.705 0.56
7.1929998 -10.81 -1.155 0.66000003
7.1999998 -10.674 -1.1440001 0.60000002
7.21 -10.617 -1.1390001 0.31
7.3150001 -10.699 -1.153 0.41
7.362 -10.732 -1.158 0.31999999
7.349 -10.642 -1.15 0.52999997
7.1020002 -10.213 -1.098 0.31
7.053 -10.075 -1.0829999 0.23999999
7.0560002 -10.012 -1.0779999 0.67000002
7.2579999 -10.232 -1.109 0.30000001
7.3060002 -10.23 -1.112 0.30000001
7.027 -9.8059998 -1.059 0.28
7.007 -9.7119999 -1.05 0.56999999
6.9980001 -9.6359997 -1.043 0.36000001
6.993 -9.5649996 -1.0369999 0.31999999
7.0190001 -9.5380001 -1.036 0.61000001
7.3280001 -9.8940001 -1.085 0.31999999
7.0240002 -9.4209995 -1.026 0.2
6.9829998 -9.335 -1.017 0.67000002
6.9899998 -9.2819996 -1.013 0.23
6.941 -9.1569996 -0.99900001 0.68000001
7.007 -9.184 -1.006 0.20999999
6.9619999 -9.066 -0.99299997 0.62
7.1490002 -9.2489996 -1.02 0.22
7.29 -9.3710003 -1.039 0.49000001
7.1599998 -9.1739998 -1.0140001 0.18000001
6.9780002 -8.882 -0.97899997 0.34999999
6.9840002 -8.8319998 -0.97500002 0.50999999
