# .PCD v0.7 - Point Cloud Data file format
VERSION 0.7
FIELDS x y z intensity
SIZE 4 4 4 4
TYPE F F F F
COUNT 1 1 1 1
WIDTH 1409
HEIGHT 1
VIEWPOINT 0 0 0 1 0 0 0
POINTS 1409
DATA ascii
8.4219999 5.96 -1.706 0.2
8.4130001 5.993 -1.7079999 0.28
8.3920002 6.0180001 -1.7079999 0.25
8.3739996 6.0450001 -1.7079999 0.25
8.3669996 6.0799999 -1.71 0.2
8.3610001 6.1160002 -1.7130001 0.28
8.3319998 6.1149998 -1.709 0.25
8.3179998 6.145 -1.71 0.19
8.3170004 6.1849999 -1.714 0.27000001
8.2840004 6.1999998 -1.711 0.23999999
8.283 6.2410002 -1.715 0.18000001
8.2650003 6.2680001 -1.716 0.27000001
8.2329998 6.2839999 -1.7130001 0.23
8.2229996 6.2969999 -1.7130001 0.19
8.2259998 6.3410001 -1.7180001 0.27000001
8.1940002 6.3569999 -1.715 0.19
8.1820002 6.3889999 -1.717 0.25
8.1739998 6.4239998 -1.72 0.19
8.1459999 6.4439998 -1.7180001 0.23999999
8.1269999 6.4710002 -1.7180001 0.2
8.1280003 6.4920001 -1.721 0.23999999
8.0930004 6.506 -1.7180001 0.18000001
8.0810003 6.5380001 -1.719 0.23
8.0649996 6.5669999 -1.72 0.18000001
8.0450001 6.5939999 -1.721 0.23999999
8.0319996 6.625 -1.723 0.19
8.0129995 6.652 -1.723 0.12
7.9920001 6.6550002 -1.72 0.2
7.9819999 6.6890001 -1.723 0.11
7.9660001 6.7189999 -1.724 0.2
7.9359999 6.737 -1.722 0.11
7.914 6.7600002 -1.722 0.2
7.9070001 6.7979999 -1.725 0.11
7.8889999 6.8039999 -1.724 0.19
7.881 6.8400002 -1.727 0.11
7.8579998 6.8639998 -1.726 0.2
7.8309999 6.8829999 -1.725 0.11
7.803 6.9029999 -1.724 0.19
7.8000002 6.9439998 -1.728 0.11
7.7670002 6.9580002 -1.725 0.2
7.7649999 6.9780002 -1.727 0.11
7.7459998 7.0050001 -1.728 0.18000001
7.7179999 7.0240002 -1.727 0.20999999
7.7010002 7.0539999 -1.728 0.1
7.6810002 7.079 -1.729 0.18000001
7.6630001 7.1069999 -1.73 0.11
7.6350002 7.1259999 -1.728 0.2
7.6360002 7.1500001 -1.7309999 0.11
7.605 7.1659999 -1.729 0.19
7.5929999 7.1989999 -1.732 0.1
7.5640001 7.2179999 -1.73 0.18000001
7.5489998 7.2480001 -1.732 0.11
7.5409999 7.2870002 -1.7359999 0.18000001
7.507 7.3000002 -1.733 0.20999999
7.493 7.309 -1.732 0.1
7.474 7.336 -1.733 0.18000001
7.4569998 7.3649998 -1.735 0.11
7.4320002 7.3870001 -1.734 0.2
7.4200001 7.4219999 -1.737 0.11
7.395 7.4439998 -1.737 0.19
7.3720002 7.467 -1.737 0.11
7.3629999 7.4809999 -1.738 0.18000001
7.3429999 7.5089998 -1.739 0.11
7.3130002 7.5240002 -1.737 0.19
7.2950001 7.553 -1.738 0.11
7.2800002 7.586 -1.7410001 0.18000001
7.257 7.6090002 -1.7410001 0.12
7.2259998 7.6240001 -1.739 0.2
7.223 7.6459999 -1.7410001 0.11
7.1939998 7.6630001 -1.74 0.19
7.1789999 7.6950002 -1.742 0.11
7.1539998 7.7160001 -1.742 0.18000001
7.1389999 7.7490001 -1.745 0.11
7.1139998 7.7709999 -1.745 0.18000001
7.0939999 7.7979999 -1.7460001 0.11
7.092 7.8210001 -1.748 0.17
7.0650001 7.8400002 -1.748 0.050000001
7.0349998 7.8559999 -1.7460001 0.17
7.0209999 7.8899999 -1.749 0.2
7.0040002 7.921 -1.751 0.1
6.9770002 7.9419999 -1.751 0.16
6.9530001 7.9640002 -1.751 0.050000001
6.9390001 7.973 -1.751 0.17
6.914 7.9949999 -1.751 0.050000001
6.8899999 8.0179996 -1.751 0.18000001
6.8730001 8.0500002 -1.753 0.2
6.8520002 8.0760002 -1.7539999 0.1
6.835 8.1079998 -1.757 0.16
6.8200002 8.1160002 -1.756 0.050000001
6.796 8.1389999 -1.756 0.18000001
6.7750001 8.1660004 -1.758 0.050000001
6.7519999 8.1899996 -1.7589999 0.17
6.7309999 8.2180004 -1.76 0.19
6.7090001 8.243 -1.761 0.1
6.6869998 8.2690001 -1.762 0.16
6.6669998 8.2980003 -1.7640001 0.050000001
6.6550002 8.3100004 -1.7640001 0.17
6.6360002 8.3400002 -1.766 0.2
6.6129999 8.3640003 -1.767 0.1
6.5830002 8.3800001 -1.766 0.18000001
6.5710001 8.4189997 -1.77 0.2
6.5469999 8.4429998 -1.771 0.1
6.5300002 8.448 -1.77 0.18000001
6.513 8.4809999 -1.773 0.11
6.487 8.5030003 -1.773 0.19
6.4689999 8.5349998 -1.775 0.11
6.4530001 8.5690002 -1.778 0.18000001
6.4250002 8.5880003 -1.778 0.23
6.3940001 8.6029997 -1.777 0.18000001
6.3740001 8.6330004 -1.779 0.23
6.3660002 8.651 -1.781 0.2
6.336 8.6660004 -1.78 0.23
6.3140001 8.6940002 -1.7819999 0.19
6.289 8.717 -1.7819999 0.23
6.2589998 8.7329998 -1.7819999 0.19
6.2350001 8.7580004 -1.783 0.22
6.2090001 8.7790003 -1.783 0.18000001
6.1999998 8.7950001 -1.784 0.23999999
6.1789999 8.8240004 -1.7869999 0.18000001
6.152 8.8450003 -1.7869999 0.23
6.1259999 8.868 -1.788 0.18000001
6.0999999 8.8889999 -1.788 0.23999999
6.066 8.8999996 -1.786 0.18000001
6.046 8.9300003 -1.789 0.23999999
6.0359998 8.9460001 -1.79 0.18000001
6.013 8.9720001 -1.791 0.25
5.9840002 8.9899998 -1.791 0.2
5.9580002 9.0120001 -1.7920001 0.12
5.928 9.0279999 -1.791 0.20999999
5.9029999 9.0509996 -1.7920001 0.17
5.901 9.0799999 -1.7970001 0.25999999
5.875 9.1020002 -1.7970001 0.19
5.8470001 9.1219997 -1.798 0.25
5.8169999 9.1389999 -1.7970001 0.22
5.7909999 9.1610003 -1.798 0.2
5.7659998 9.1850004 -1.799 0.25
5.7350001 9.1999998 -1.799 0.22
5.7119999 9.2279997 -1.801 0.18000001
5.7059999 9.25 -1.804 0.25999999
5.6729999 9.2620001 -1.802 0.23
5.6459999 9.283 -1.803 0.19
5.6240001 9.3120003 -1.8049999 0.27000001
5.5999999 9.3380003 -1.807 0.23
5.5700002 9.3559999 -1.807 0.19
5.5419998 9.375 -1.807 0.27000001
5.5359998 9.3990002 -1.811 0.23999999
5.5019999 9.4099998 -1.809 0.19
5.48 9.4390001 -1.812 0.27000001
5.4559999 9.4659996 -1.814 0.25
5.421 9.4750004 -1.812 0.25999999
5.3940001 9.4969997 -1.813 0.19
5.3860002 9.5170002 -1.816 0.28
5.355 9.5319996 -1.8150001 0.25
5.336 9.5679998 -1.819 0.23
5.302 9.5780001 -1.818 0.18000001
5.2789998 9.6079998 -1.8200001 0.28999999
5.2470002 9.6219997 -1.8200001 0.25
5.223 9.6479998 -1.822 0.25
5.2140002 9.6689997 -1.824 0.23
5.1729999 9.6660004 -1.8200001 0.18000001
5.1539998 9.7030001 -1.825 0.28999999
5.125 9.7209997 -1.825 0.25
5.0949998 9.7390003 -1.825 0.2
5.0700002 9.7650003 -1.827 0.28
5.04 9.783 -1.8279999 0.25
5.0250001 9.7919998 -1.8279999 0.17
4.9980001 9.8149996 -1.83 0.28
4.9679999 9.8330002 -1.83 0.25
4.9369998 9.8479996 -1.83 0.16
4.9120002 9.8760004 -1.832 0.28
4.882 9.8929996 -1.8329999 0.25
4.8509998 9.908 -1.8329999 0.25999999
4.8449998 9.9359999 -1.836 0.25
4.8119998 9.9469995 -1.836 0.25999999
4.783 9.9659996 -1.836 0.25
4.7519999 9.9829998 -1.837 0.25999999
4.7249999 10.006 -1.839 0.25
4.6919999 10.018 -1.8380001 0.17
4.6729999 10.059 -1.8430001 0.28
4.658 10.068 -1.8430001 0.25
4.6279998 10.088 -1.845 0.23999999
4.598 10.106 -1.845 0.22
4.5689998 10.126 -1.846 0.27000001
4.5300002 10.124 -1.8430001 0.25
4.5050001 10.155 -1.846 0.25
4.4910002 10.208 -1.854 0.25
4.4640002 10.19 -1.849 0.25999999
4.4349999 10.213 -1.851 0.33000001
4.4089999 10.24 -1.853 0.30000001
4.375 10.25 -1.853 0.30000001
4.342 10.262 -1.852 0.28999999
4.316 10.29 -1.855 0.28
4.283 10.302 -1.855 0.28999999
4.2670002 10.308 -1.855 0.27000001
4.2389998 10.334 -1.857 0.28999999
4.198 10.326 -1.853 0.27000001
4.1700001 10.35 -1.855 0.34
4.1350002 10.356 -1.854 0.30000001
4.0900002 10.339 -1.848 0.34
4.0570002 10.348 -1.847 0.31999999
4.0380001 10.349 -1.846 0.31999999
3.9960001 10.338 -1.842 0.31999999
3.9679999 10.361 -1.844 0.28999999
3.9330001 10.366 -1.842 0.31
3.8929999 10.358 -1.839 0.30000001
3.859 10.369 -1.8380001 0.28999999
3.8340001 10.401 -1.842 0.27000001
3.8150001 10.4 -1.841 0.27000001
3.793 10.441 -1.846 0.27000001
3.7780001 10.502 -1.855 0.27000001
3.7520001 10.534 -1.859 0.33000001
3.721 10.551 -1.86 0.31999999
3.6960001 10.587 -1.865 0.23
3.6630001 10.598 -1.865 0.27000001
3.651 10.619 -1.868 0.34
3.6300001 10.668 -1.875 0.34999999
3.5910001 10.662 -1.8710001 0.31999999
3.563 10.689 -1.874 0.34
3.533 10.711 -1.876 0.27000001
3.4949999 10.709 -1.874 0.22
3.4630001 10.727 -1.875 0.31
3.4489999 10.74 -1.877 0.36000001
3.4100001 10.736 -1.874 0.20999999
3.3840001 10.769 -1.878 0.40000001
3.352 10.785 -1.8789999 0.2
3.3199999 10.803 -1.881 0.41
3.28 10.793 -1.877 0.25999999
3.2449999 10.801 -1.876 0.18000001
3.234 10.825 -1.88 0.49000001
3.201 10.837 -1.88 0.30000001
3.1659999 10.847 -1.88 0.20999999
3.1300001 10.85 -1.8789999 0.31
3.1029999 10.884 -1.883 0.43000001
3.0669999 10.888 -1.882 0.28
3.03 10.886 -1.88 0.25
3.0139999 10.895 -1.881 0.36000001
2.984 10.921 -1.8839999 0.46000001
2.948 10.925 -1.883 0.28
2.9070001 10.909 -1.878 0.20999999
2.8770001 10.934 -1.881 0.28999999
2.842 10.939 -1.881 0.43000001
2.8069999 10.948 -1.881 0.31999999
2.789 10.948 -1.88 0.23
2.7550001 10.959 -1.88 0.44999999
2.723 10.977 -1.882 0.38
2.6830001 10.963 -1.878 0.22
2.652 10.985 -1.88 0.36000001
2.619 10.999 -1.881 0.31999999
2.5840001 11.007 -1.881 0.22
2.5639999 10.999 -1.8789999 0.44
2.529 11.003 -1.878 0.28
2.4949999 11.013 -1.8789999 0.23999999
2.4630001 11.036 -1.882 0.41999999
2.427 11.036 -1.88 0.25999999
2.391 11.038 -1.8789999 0.31999999
2.362 11.071 -1.8839999 0.34999999
2.3429999 11.069 -1.883 0.25999999
2.3069999 11.07 -1.882 0.33000001
2.2709999 11.07 -1.88 0.28
2.2390001 11.09 -1.883 0.36000001
2.2079999 11.118 -1.886 0.37
2.1689999 11.102 -1.882 0.19
2.135 11.113 -1.883 0.31999999
2.1240001 11.151 -1.8890001 0.41999999
2.0829999 11.127 -1.8839999 0.23
2.05 11.145 -1.886 0.23
2.017 11.161 -1.888 0.44999999
1.9809999 11.163 -1.887 0.27000001
1.947 11.173 -1.888 0.18000001
1.905 11.14 -1.881 0.47999999
1.893 11.174 -1.886 0.44
1.858 11.182 -1.886 0.23
1.825 11.202 -1.8890001 0.20999999
1.79 11.207 -1.8890001 0.46000001
1.758 11.236 -1.893 0.34
1.721 11.23 -1.891 0.23999999
1.684 11.224 -1.8890001 0.44999999
1.668 11.236 -1.891 0.34
1.6339999 11.253 -1.893 0.23
1.596 11.24 -1.89 0.34
1.561 11.247 -1.89 0.44
1.528 11.268 -1.893 0.33000001
1.4910001 11.263 -1.891 0.25
1.455 11.262 -1.89 0.28999999
1.4400001 11.283 -1.893 0.38
1.403 11.274 -1.891 0.25999999
1.3660001 11.267 -1.8890001 0.2
1.331 11.273 -1.8890001 0.46000001
1.298 11.297 -1.893 0.37
1.26 11.283 -1.89 0.2
1.224 11.277 -1.888 0.38
1.205 11.275 -1.887 0.30000001
1.171 11.287 -1.8890001 0.28999999
1.135 11.288 -1.888 0.34
1.101 11.304 -1.89 0.41999999
1.066 11.317 -1.892 0.31
1.031 11.322 -1.892 0.27000001
0.99400002 11.308 -1.8890001 0.34
0.97799999 11.329 -1.893 0.31999999
0.94199997 11.326 -1.892 0.34
0.90600002 11.323 -1.891 0.37
0.86900002 11.31 -1.888 0.37
0.83499998 11.338 -1.892 0.38
0.79900002 11.333 -1.891 0.31
0.764 11.341 -1.892 0.31999999
0.74699998 11.36 -1.895 0.44
0.71100003 11.361 -1.895 0.30000001
0.676 11.365 -1.895 0.34
0.63999999 11.367 -1.895 0.34
0.60399997 11.359 -1.893 0.34999999
0.56800002 11.363 -1.8940001 0.36000001
0.53299999 11.382 -1.897 0.41
0.51499999 11.381 -1.897 0.23
0.479 11.377 -1.896 0.25999999
0.44400001 11.384 -1.897 0.47
0.40700001 11.368 -1.893 0.25999999
0.37200001 11.381 -1.896 0.27000001
0.33700001 11.401 -1.899 0.46000001
0.301 11.406 -1.9 0.31999999
0.28299999 11.391 -1.897 0.25
0.24699999 11.376 -1.8940001 0.33000001
0.212 11.414 -1.901 0.44
0.176 11.417 -1.901 0.20999999
0.14 11.421 -1.902 0.28999999
0.104 11.424 -1.902 0.41
0.068000004 11.428 -1.903 0.30000001
0.050000001 11.434 -1.904 0.31
0.014 11.426 -1.903 0.40000001
-0.022 11.438 -1.905 0.31999999
-0.057999998 11.45 -1.9069999 0.28999999
-0.093999997 11.442 -1.905 0.43000001
-0.12899999 11.435 -1.904 0.38
-0.16599999 11.462 -1.909 0.37
-0.184 11.466 -1.91 0.19
-0.22 11.459 -1.909 0.49000001
-0.25600001 11.457 -1.908 0.33000001
-0.292 11.452 -1.908 0.30000001
-0.32800001 11.461 -1.91 0.31
-0.36399999 11.475 -1.9119999 0.38
-0.40099999 11.482 -1.914 0.34
-0.419 11.495 -1.916 0.25999999
-0.45500001 11.486 -1.915 0.38999999
-0.491 11.475 -1.913 0.40000001
-0.52700001 11.483 -1.915 0.23999999
-0.56400001 11.499 -1.918 0.34
-0.60100001 11.501 -1.919 0.46000001
-0.63700002 11.499 -1.919 0.25
-0.65499997 11.502 -1.919 0.33000001
-0.69099998 11.496 -1.919 0.33000001
-0.72799999 11.508 -1.921 0.36000001
-0.76499999 11.521 -1.924 0.28
-0.80199999 11.528 -1.926 0.49000001
-0.83899999 11.534 -1.927 0.31999999
-0.87599999 11.545 -1.929 0.28999999
-0.89399999 11.535 -1.928 0.28
-0.93000001 11.529 -1.927 0.43000001
-0.96700001 11.543 -1.9299999 0.28999999
-1.001 11.515 -1.926 0.31
-1.039 11.523 -1.928 0.43000001
-1.079 11.559 -1.9349999 0.33000001
-1.114 11.55 -1.934 0.25999999
-1.132 11.544 -1.933 0.25
-1.171 11.564 -1.937 0.47
-1.205 11.541 -1.934 0.25
-1.243 11.552 -1.937 0.19
-1.28 11.558 -1.939 0.47
-1.314 11.535 -1.9349999 0.22
-1.351 11.534 -1.936 0.30000001
-1.369 11.534 -1.936 0.41
-1.406 11.53 -1.936 0.41
-1.4450001 11.549 -1.9400001 0.25
-1.4809999 11.542 -1.9400001 0.17
-1.518 11.541 -1.941 0.44
-1.5549999 11.544 -1.942 0.34
-1.591 11.536 -1.941 0.25999999
-1.608 11.525 -1.9400001 0.49000001
-1.647 11.542 -1.944 0.23999999
-1.686 11.554 -1.947 0.18000001
-1.72 11.535 -1.944 0.34
-1.761 11.561 -1.95 0.43000001
-1.799 11.565 -1.952 0.27000001
-1.832 11.54 -1.948 0.17
-1.834 11.438 -1.9299999 0.34999999
-1.8940001 11.575 -1.956 0.23
-1.931 11.573 -1.957 0.20999999
-1.9680001 11.569 -1.957 0.41
-2.007 11.582 -1.961 0.25999999
-2.043 11.572 -1.96 0.19
-2.0810001 11.575 -1.962 0.43000001
-2.0999999 11.576 -1.9630001 0.23999999
-2.1359999 11.565 -1.962 0.20999999
-2.1760001 11.578 -1.965 0.46000001
-2.2160001 11.592 -1.969 0.22
-2.2539999 11.595 -1.971 0.15000001
-2.29 11.586 -1.971 0.49000001
-2.3310001 11.6 -1.975 0.23999999
-2.3499999 11.6 -1.975 0.19
-2.3859999 11.589 -1.975 0.31
-2.4230001 11.583 -1.975 0.54000002
-2.4649999 11.604 -1.98 0.25999999
-2.5009999 11.593 -1.979 0.27000001
-2.543 11.61 -1.984 0.41
-2.576 11.586 -1.9809999 0.20999999
-2.5940001 11.584 -1.982 0.36000001
-2.642 11.624 -1.99 0.38
-2.6789999 11.619 -1.9910001 0.28999999
-2.7130001 11.6 -1.989 0.25
-2.7490001 11.591 -1.989 0.36000001
-2.7869999 11.586 -1.99 0.28
-2.8239999 11.579 -1.99 0.22
-2.8499999 11.609 -1.9960001 0.43000001
-2.8889999 11.608 -1.998 0.23
-2.9289999 11.614 -2 0.27000001
-2.973 11.635 -2.006 0.43000001
-3.006 11.612 -2.0039999 0
-2.6630001 10.167 -1.74 0.059999999
-2.684 10.117 -1.732 0.039999999
-2.698 10.105 -1.7309999 0.18000001
-2.7349999 10.118 -1.735 0.16
-2.773 10.132 -1.739 0.28999999
-2.8399999 10.128 -1.7410001 0.23999999
-2.8740001 10.124 -1.742 0.56999999
-2.9059999 10.117 -1.743 0.34
-2.928 10.131 -1.7460001 0.2
-2.971 10.162 -1.7539999 0.16
-2.997 10.132 -1.75 0.57999998
-3.003 10.037 -1.734 0.34999999
-3.075 10.16 -1.7589999 0.16
-3.1059999 10.146 -1.758 0.15000001
-3.1429999 10.153 -1.761 0.49000001
-3.161 10.156 -1.762 0.059999999
-3.1960001 10.157 -1.765 0
-3.266 10.263 -1.786 0.029999999
-3.3169999 10.311 -1.7970001 0.039999999
-3.345 10.288 -1.795 0.14
-3.7479999 11.397 -2.0039999 0.12
-3.7939999 11.415 -2.0090001 0.14
-3.8150001 11.418 -2.0109999 0.23
-3.862 11.44 -2.0179999 0.22
-3.9030001 11.44 -2.02 0.31
-3.9419999 11.437 -2.0220001 0.23999999
-3.9779999 11.425 -2.0220001 0.27000001
-4.0219998 11.437 -2.026 0.37
-4.0500002 11.402 -2.0220001 0.28
-4.073 11.408 -2.0239999 0.22
-4.118 11.423 -2.03 0.34
-4.1469998 11.39 -2.026 0.25999999
-4.1810002 11.371 -2.0250001 0.31
-4.2290001 11.393 -2.0309999 0.27000001
-4.2519999 11.345 -2.0250001 0.25
-4.2909999 11.341 -2.027 0.31
-4.3109999 11.339 -2.0280001 0.28999999
-4.3429999 11.316 -2.026 0.28999999
-4.381 11.31 -2.027 0.36000001
-4.4029999 11.261 -2.0209999 0.30000001
-4.454 11.286 -2.0280001 0.40000001
-4.4959998 11.288 -2.0309999 0.28999999
-4.5279999 11.267 -2.03 0.23999999
-4.546 11.26 -2.03 0.34
-4.5749998 11.231 -2.027 0.31999999
-4.6209998 11.24 -2.0309999 0.28999999
-4.6570001 11.227 -2.0320001 0.31
-4.6929998 11.216 -2.033 0.25999999
-4.7199998 11.182 -2.029 0.31
-4.7610002 11.181 -2.0309999 0.25
-4.7800002 11.176 -2.0320001 0.18000001
-4.8119998 11.153 -2.03 0.31
-4.849 11.143 -2.0309999 0.23
-4.8860002 11.132 -2.0320001 0.25
-4.9219999 11.12 -2.033 0.20999999
-4.9419999 11.07 -2.026 0.23999999
-4.9829998 11.069 -2.029 0.31
-5.0149999 11.094 -2.0350001 0.23
-5.039 11.054 -2.0309999 0.20999999
-5.0760002 11.044 -2.0320001 0.25999999
-5.1199999 11.048 -2.036 0.2
-5.1430001 11.006 -2.0309999 0.19
-5.1820002 10.999 -2.033 0.30000001
-5.224 10.999 -2.036 0.22
-5.2410002 10.991 -2.036 0.25
-5.2659998 10.953 -2.0309999 0.25
-5.3039999 10.945 -2.033 0.25
-5.3379998 10.927 -2.033 0.22
-5.3730001 10.911 -2.033 0.27000001
-5.4029999 10.886 -2.0309999 0.23999999
-5.434 10.863 -2.03 0.22
-5.4289999 10.811 -2.0220001 0.15000001
-5.276 10.425 -1.948 0.039999999
-5.3130002 10.417 -1.95 0
-5.3379998 10.387 -1.947 0
-5.375 10.379 -1.949 0.029999999
-5.4190001 10.383 -1.9529999 0.029999999
-5.4559999 10.374 -1.955 0.039999999
-5.4959998 10.409 -1.964 0
-5.5229998 10.381 -1.962 0
-5.5619998 10.376 -1.964 0
-5.6240001 10.412 -1.975 0.14
-5.7820001 10.624 -2.0209999 0.25999999
-5.8109999 10.599 -2.02 0.25
-5.8639998 10.615 -2.027 0.27000001
-5.8839998 10.613 -2.0280001 0.23
-5.9089999 10.579 -2.0250001 0.27000001
-5.9299998 10.538 -2.0209999 0.31999999
-5.9699998 10.533 -2.023 0.23
-6.006 10.519 -2.0239999 0.36000001
-6.0359998 10.494 -2.023 0.34999999
-6.0640001 10.468 -2.0220001 0.28
-6.0890002 10.472 -2.0239999 0.33000001
-6.1059999 10.426 -2.0190001 0.36000001
-6.1259999 10.386 -2.0150001 0.25
-6.1440001 10.341 -2.0090001 0.2
-6.1729999 10.317 -2.0079999 0.43000001
-6.184 10.262 -2.0009999 0.31
-6.244 10.288 -2.0109999 0.25999999
-6.2509999 10.263 -2.007 0.20999999
-6.263 10.21 -2 0.38999999
-6.2870002 10.178 -1.998 0.22
-6.3150001 10.152 -1.997 0.44
-6.348 10.134 -1.997 0.33000001
-6.3829999 10.119 -1.998 0.23999999
-6.4299998 10.122 -2.003 0.31999999
-6.4320002 10.09 -1.998 0.28
-6.447 10.045 -1.993 0.25999999
-6.48 10.026 -1.993 0.34999999
-6.506 9.9980001 -1.992 0.25
-6.5289998 9.9639997 -1.989 0.28999999
-6.5700002 9.9580002 -1.992 0.36000001
-6.5970001 9.9309998 -1.9910001 0.18000001
-6.6079998 9.9139996 -1.989 0.41
-6.6389999 9.8929996 -1.989 0.27000001
-6.6560001 9.8509998 -1.985 0.28999999
-6.6989999 9.8479996 -1.989 0.34999999
-6.7290001 9.8260002 -1.988 0.31999999
-6.757 9.8009996 -1.987 0.34999999
-6.7849998 9.7749996 -1.9859999 0.23999999
-6.8000002 9.7639999 -1.9859999 0.34
-6.8410001 9.757 -1.99 0.30000001
-6.8730001 9.7370005 -1.99 0.31999999
-6.9039998 9.717 -1.99 0.30000001
-6.927 9.684 -1.988 0.23999999
-6.948 9.6499996 -1.985 0.2
-6.9970002 9.6529999 -1.9910001 0.31999999
-7.0110002 9.6409998 -1.99 0.22
-7.0469999 9.6269999 -1.992 0.20999999
-7.0760002 9.6029997 -1.992 0.27000001
-7.105 9.5790005 -1.9910001 0.43000001
-7.1300001 9.5500002 -1.99 0.25999999
-7.1659999 9.5360003 -1.992 0.28999999
-7.1880002 9.5019999 -1.989 0.36000001
-7.2129998 9.5050001 -1.992 0.33000001
-7.25 9.4919996 -1.994 0.33000001
-7.257 9.4390001 -1.988 0.20999999
-7.3060002 9.441 -1.993 0.28999999
-7.3540001 9.4420004 -1.999 0.20999999
-7.368 9.3979998 -1.994 0.28999999
-7.3940001 9.3710003 -1.993 0.30000001
-7.4159999 9.368 -1.995 0.31999999
-7.4499998 9.3509998 -1.997 0.34
-7.494 9.3459997 -2.0009999 0.28
-7.52 9.3179998 -2 0.31
-7.5500002 9.2959995 -2 0.25
-7.5879998 9.283 -2.0020001 0.28999999
-7.6279998 9.2720003 -2.006 0.27000001
-7.6220002 9.2349997 -2 0.27000001
-7.6490002 9.2089996 -1.999 0.34999999
-7.697 9.2080002 -2.0050001 0.33000001
-7.7270002 9.1850004 -2.0050001 0.25
-7.763 9.1680002 -2.007 0.28999999
-7.7880001 9.1389999 -2.006 0.31999999
-7.7979999 9.0939999 -2.0009999 0.34
-7.8319998 9.1040001 -2.006 0.27000001
-7.8889999 9.1120005 -2.0139999 0.27000001
-7.8909998 9.0570002 -2.007 0.27000001
-7.9190001 9.0310001 -2.006 0.31999999
-7.967 9.0279999 -2.0120001 0.20999999
-7.987 8.9940004 -2.0090001 0.31999999
-8.0190001 8.974 -2.0109999 0.31
-8.0480003 8.9770002 -2.0139999 0.34
-8.0790005 8.9549999 -2.0150001 0.31
-8.1029997 8.9250002 -2.0139999 0.31999999
-8.1190004 8.8859997 -2.0109999 0.27000001
-8.165 8.8809996 -2.016 0.34999999
-8.1719999 8.8319998 -2.01 0.31
-8.2069998 8.8149996 -2.0120001 0.23999999
-8.2119999 8.7919998 -2.01 0.28
-8.2220001 8.7480001 -2.0050001 0.18000001
-8.2530003 8.7259998 -2.006 0.28999999
-8.2700005 8.6890001 -2.0039999 0.25
-8.3039999 8.6700001 -2.0050001 0.28
-8.3450003 8.658 -2.0090001 0.27000001
-8.3769999 8.6370001 -2.01 0.28999999
-8.3920002 8.6260004 -2.0109999 0.25
-8.4390001 8.6190004 -2.0150001 0.36000001
-8.4809999 8.6079998 -2.0190001 0.28999999
-8.5190001 8.592 -2.0220001 0.31
-8.5419998 8.5609999 -2.0209999 0.31999999
-8.566 8.5310001 -2.02 0.28
-8.6009998 8.5129995 -2.0220001 0.25
-8.6149998 8.4989996 -2.0220001 0.20999999
-8.6359997 8.467 -2.0209999 0.28
-8.6520004 8.4300003 -2.0190001 0.25
-8.6870003 8.4110003 -2.0209999 0.2
-8.7150002 8.3850002 -2.0209999 0.25999999
-8.7379999 8.3549995 -2.02 0.23
-8.7600002 8.323 -2.0190001 0.18000001
-8.776 8.3120003 -2.02 0.25999999
-8.7939997 8.276 -2.0179999 0.22
-8.8269997 8.2559996 -2.02 0.2
-8.8459997 8.2209997 -2.0179999 0.25
-8.8739996 8.1960001 -2.0190001 0.23
-8.8929996 8.1610003 -2.017 0.17
-8.9180002 8.1330004 -2.017 0.25999999
-8.9239998 8.1129999 -2.0150001 0.2
-8.9560003 8.0909996 -2.017 0.25
-8.96 8.0430002 -2.0120001 0.22
-8.9849997 8.0150003 -2.0120001 0.20999999
-9.0290003 8.0039997 -2.016 0.25
-9.0369997 7.96 -2.0120001 0.22
-9.0620003 7.9310002 -2.0120001 0.17
-9.085 7.9260001 -2.0139999 0.25999999
-9.099 7.8889999 -2.0120001 0.2
-9.1219997 7.8590002 -2.0120001 0.25
-9.151 7.8340001 -2.013 0.2
-9.1639996 7.7950001 -2.01 0.25
-9.1899996 7.7670002 -2.01 0.19
-9.2259998 7.7490001 -2.013 0.25
-9.2189999 7.7179999 -2.0079999 0.18000001
-9.2539997 7.697 -2.0109999 0.25
-9.2700005 7.6620002 -2.0090001 0.19
-9.2930002 7.632 -2.0090001 0.25
-9.3039999 7.5929999 -2.006 0.19
-9.342 7.5739999 -2.0090001 0.23999999
-9.335 7.5450001 -2.0050001 0.18000001
-9.3710003 7.5250001 -2.0079999 0.23999999
-9.3920002 7.493 -2.007 0.19
-9.4110003 7.46 -2.006 0.23999999
-9.4370003 7.4330001 -2.007 0.18000001
-9.4650002 7.4070001 -2.0079999 0.23999999
-9.4650002 7.3590002 -2.0020001 0.19
-9.4989996 7.3379998 -2.0050001 0.23999999
-9.5120001 7.3239999 -2.0050001 0.18000001
-9.5270004 7.2880001 -2.0039999 0.23
-9.5450001 7.2550001 -2.0020001 0.18000001
-9.573 7.2280002 -2.0039999 0.23
-9.5839996 7.1900001 -2.0009999 0.19
-9.6149998 7.1659999 -2.003 0.11
-9.6330004 7.132 -2.0020001 0.19
-9.6389999 7.1129999 -2.0009999 0.11
-9.6569996 7.079 -2 0.18000001
-9.6879997 7.0560002 -2.0020001 0.11
-9.7069998 7.0229998 -2.0009999 0.18000001
-9.7259998 6.9899998 -2 0.20999999
-9.7419996 6.9549999 -1.999 0.1
-9.7489996 6.9380002 -1.998 0.18000001
-9.7650003 6.902 -1.997 0.2
-9.7930002 6.8759999 -1.998 0.1
-9.816 6.8470001 -1.999 0.17
-9.8310003 6.8109999 -1.997 0.050000001
-9.8470001 6.777 -1.9960001 0.17
-9.8649998 6.744 -1.995 0.050000001
-9.868 6.723 -1.994 0.17
-9.8950005 6.6960001 -1.995 0.050000001
-9.9029999 6.6560001 -1.992 0.16
-9.9289999 6.6279998 -1.993 0.18000001
-9.9510002 6.598 -1.994 0.18000001
-9.9650002 6.5630002 -1.992 0.18000001
-9.9910002 6.5339999 -1.993 0.18000001
-9.9960003 6.5159998 -1.992 0.18000001
-10.007 6.4780002 -1.99 0.16
-10.027 6.4460001 -1.99 0.18000001
-10.056 6.4200001 -1.992 0.17
-10.064 6.381 -1.99 0.17
-10.084 6.349 -1.99 0.17
-10.102 6.3169999 -1.989 0.16
-10.099 6.2919998 -1.9859999 0.17
-10.122 6.263 -1.987 0.16
-10.145 6.2329998 -1.988 0.16
-10.153 6.1939998 -1.985 0.17
-10.174 6.1630001 -1.9859999 0.17
-10.186 6.1269999 -1.984 0.17
-10.2 6.092 -1.983 0.17
-10.213 6.0780001 -1.984 0.17
-10.232 6.046 -1.984 0.18000001
-10.241 6.0079999 -1.982 0.16
-10.26 5.9749999 -1.982 0.18000001
-10.268 5.9369998 -1.98 0.039999999
-10.282 5.902 -1.979 0.15000001
-10.299 5.869 -1.978 0.039999999
-10.304 5.8509998 -1.978 0.16
-10.316 5.8140001 -1.976 0.050000001
-10.327 5.7779999 -1.975 0.16
-10.35 5.7480001 -1.976 0.050000001
-10.36 5.711 -1.974 0.16
-10.373 5.6760001 -1.973 0.050000001
-10.392 5.6440001 -1.973 0.16
-10.387 5.6199999 -1.971 0.050000001
-10.41 5.5900002 -1.972 0.17
-10.426 5.5570002 -1.971 0.050000001
-10.438 5.5209999 -1.97 0.16
-10.459 5.4899998 -1.971 0.2
-10.472 5.4559999 -1.97 0.1
-10.482 5.4190001 -1.969 0.16
-10.484 5.3990002 -1.9680001 0.050000001
-10.506 5.369 -1.969 0.17
-10.519 5.3340001 -1.9680001 0.2
-10.534 5.3000002 -1.9680001 0.1
-10.539 5.2610002 -1.965 0.18000001
-10.553 5.2270002 -1.965 0.050000001
-10.571 5.1939998 -1.965 0.17
-10.583 5.1789999 -1.966 0.050000001
-10.58 5.1370001 -1.962 0.17
-10.605 5.1079998 -1.964 0.050000001
-10.628 5.0780001 -1.965 0.16
-10.633 5.039 -1.9630001 0.050000001
-10.638 5.0009999 -1.961 0.16
-10.664 4.993 -1.964 0.18000001
-10.667 4.9530001 -1.962 0.18000001
-10.677 4.9169998 -1.961 0.18000001
-10.696 4.8850002 -1.962 0.18000001
-10.697 4.8449998 -1.959 0.039999999
-10.705 4.8080001 -1.957 0.16
-10.736 4.7820001 -1.961 0.18000001
-10.733 4.7600002 -1.9579999 0.18000001
-10.751 4.7280002 -1.959 0.18000001
-10.768 4.6950002 -1.96 0.17
-10.77 4.6560001 -1.957 0.18000001
-10.786 4.6230001 -1.957 0.17
-10.812 4.5929999 -1.96 0.17
-10.812 4.553 -1.957 0.17
-10.819 4.5359998 -1.957 0.039999999
-10.831 4.5019999 -1.956 0.15000001
-10.834 4.4629998 -1.954 0.050000001
-10.852 4.4299998 -1.955 0.16
-10.871 4.3990002 -1.956 0.050000001
-10.88 4.362 -1.955 0.16
-10.886 4.3249998 -1.954 0.050000001
-10.904 4.3119998 -1.956 0.16
-10.912 4.276 -1.955 0.19
-10.923 4.2410002 -1.954 0.090000004
-10.953 4.2129998 -1.957 0.16
-10.946 4.171 -1.954 0.050000001
-10.952 4.1339998 -1.952 0.18000001
-10.974 4.1030002 -1.954 0.2
-10.971 4.0819998 -1.952 0.1
-10.98 4.046 -1.951 0.18000001
-11.004 4.0159998 -1.954 0.11
-10.998 3.974 -1.95 0.18000001
-11.016 3.9419999 -1.951 0.22
-11.036 3.9100001 -1.9529999 0.19
-11.035 3.8710001 -1.95 0.23
-11.043 3.8540001 -1.95 0.19
-11.059 3.8199999 -1.951 0.12
-11.048 3.7780001 -1.947 0.2
-11.073 3.7479999 -1.949 0.11
-11.077 3.71 -1.948 0.2
-11.079 3.6730001 -1.946 0.17
-11.052 3.625 -1.939 0.20999999
-11.089 3.618 -1.9450001 0.36000001
-11.097 3.582 -1.944 0.38
-11.11 3.5469999 -1.944 0.36000001
-11.147 3.5209999 -1.949 0.51999998
-11.156 3.4849999 -1.949 0.23999999
-11.177 3.4530001 -1.951 0.28999999
-11.17 3.4130001 -1.948 0.23
-11.165 3.392 -1.946 0.19
-11.185 3.3599999 -1.947 0.28
-11.193 3.3239999 -1.947 0.25
-11.188 3.2839999 -1.944 0.27000001
-11.193 3.247 -1.943 0.17
-11.224 3.2179999 -1.947 0.28999999
-11.219 3.1789999 -1.944 0.25
-11.239 3.165 -1.947 0.23999999
-11.239 3.1270001 -1.9450001 0.18000001
-11.247 3.0910001 -1.9450001 0.30000001
-11.244 3.053 -1.942 0.25
-11.27 3.0220001 -1.946 0.25999999
-11.272 2.984 -1.944 0.27000001
-11.287 2.95 -1.9450001 0.25999999
-11.292 2.9330001 -1.9450001 0.25999999
-11.276 2.891 -1.941 0.25
-11.293 2.8570001 -1.942 0.25999999
-11.307 2.823 -1.943 0.25999999
-11.309 2.786 -1.942 0.25999999
-11.308 2.7479999 -1.9400001 0.19
-11.337 2.717 -1.944 0.28
-11.319 2.694 -1.9400001 0.23999999
-11.329 2.6589999 -1.9400001 0.19
-11.351 2.6270001 -1.942 0.27000001
-11.342 2.5869999 -1.939 0.23999999
-11.346 2.55 -1.939 0.19
-11.373 2.5190001 -1.942 0.27000001
-11.36 2.4790001 -1.938 0.23999999
-11.373 2.4630001 -1.9400001 0.25999999
-11.381 2.427 -1.9400001 0.2
-11.39 2.392 -1.9400001 0.28
-11.394 2.355 -1.9400001 0.25
-11.407 2.3210001 -1.941 0.18000001
-11.407 2.283 -1.939 0.27000001
-11.406 2.2460001 -1.938 0.23
-11.419 2.23 -1.9400001 0.25
-11.397 2.188 -1.934 0.19
-11.429 2.1570001 -1.939 0.27000001
-11.418 2.118 -1.936 0.23999999
-11.425 2.082 -1.936 0.25
-11.428 2.046 -1.9349999 0.25
-11.448 2.0120001 -1.937 0.25999999
-11.429 1.9910001 -1.934 0.25999999
-11.434 1.954 -1.933 0.25999999
-11.447 1.92 -1.9349999 0.25
-11.45 1.883 -1.934 0.25999999
-11.455 1.847 -1.934 0.19
-11.479 1.814 -1.937 0.28
-11.471 1.776 -1.9349999 0.25
-11.47 1.757 -1.934 0.25999999
-11.483 1.722 -1.9349999 0.17
-11.492 1.687 -1.936 0.28999999
-11.49 1.649 -1.9349999 0.25
-11.495 1.613 -1.9349999 0.25999999
-11.492 1.576 -1.933 0.19
-11.508 1.5420001 -1.9349999 0.28
-11.503 1.522 -1.934 0.25
-11.496 1.485 -1.932 0.19
-11.526 1.452 -1.936 0.28
-11.533 1.416 -1.937 0.18000001
-11.525 1.378 -1.9349999 0.23999999
-11.518 1.341 -1.933 0.22
-11.524 1.323 -1.933 0.19
-11.534 1.288 -1.934 0.28
-11.536 1.251 -1.934 0.25
-11.534 1.214 -1.933 0.17
-11.526 1.177 -1.931 0.22
-11.523 1.14 -1.9299999 0.40000001
-11.529 1.104 -1.9299999 0.38999999
-11.525 1.085 -1.929 0.50999999
-11.562 1.052 -1.9349999 0.43000001
-11.567 1.016 -1.9349999 0.2
-11.576 0.98000002 -1.936 0.27000001
-11.567 0.94300002 -1.934 0.25
-11.542 0.88599998 -1.929 0.19
-11.57 0.852 -1.934 0.27000001
-11.554 0.83200002 -1.9299999 0.23
-11.548 0.79500002 -1.929 0.20999999
-11.572 0.75999999 -1.933 0.13
-11.565 0.72299999 -1.931 0.20999999
-11.565 0.68699998 -1.931 0.18000001
-11.577 0.65100002 -1.933 0.25999999
-11.583 0.61500001 -1.933 0.23
-11.562 0.59600002 -1.929 0.18000001
-11.586 0.56 -1.933 0.25999999
-11.576 0.52399999 -1.931 0.23999999
-11.573 0.48699999 -1.9299999 0.18000001
-11.585 0.45100001 -1.932 0.25999999
-11.578 0.414 -1.931 0.18000001
-11.589 0.37799999 -1.933 0.25
-11.588 0.36000001 -1.932 0.19
-11.587 0.324 -1.932 0.12
-11.564 0.287 -1.928 0.19
-11.583 0.25099999 -1.931 0.11
-11.57 0.214 -1.928 0.19
-11.576 0.178 -1.929 0.11
-11.577 0.141 -1.929 0.18000001
-11.573 0.123 -1.929 0.12
-11.56 0.086999997 -1.926 0.2
-11.572 0.050000001 -1.928 0.11
-11.56 0.014 -1.926 0.2
-11.56 -0.022 -1.926 0.11
-11.538 -0.057999998 -1.9220001 0.18000001
-11.548 -0.077 -1.924 0.11
-11.548 -0.113 -1.924 0.2
-11.549 -0.149 -1.925 0.18000001
-11.555 -0.186 -1.926 0.25999999
-11.542 -0.222 -1.924 0.20999999
-11.534 -0.25799999 -1.9220001 0.18000001
-11.548 -0.294 -1.925 0.27000001
-11.53 -0.31200001 -1.9220001 0.23999999
-11.525 -0.34799999 -1.921 0.19
-11.534 -0.38499999 -1.923 0.25999999
-11.525 -0.421 -1.921 0.23999999
-11.512 -0.456 -1.919 0.19
-11.516 -0.493 -1.92 0.25999999
-11.507 -0.528 -1.919 0.23
-11.506 -0.54699999 -1.919 0.18000001
-11.518 -0.583 -1.921 0.27000001
-11.496 -0.61799997 -1.918 0.23999999
-11.494 -0.65499997 -1.918 0.19
-11.504 -0.69099998 -1.92 0.25999999
-11.492 -0.727 -1.918 0.19
-11.503 -0.764 -1.921 0.25
-11.485 -0.79900002 -1.918 0.19
-11.488 -0.81699997 -1.919 0.23
-11.491 -0.85399997 -1.92 0.18000001
-11.471 -0.889 -1.9170001 0.16
-11.458 -0.92400002 -1.915 0.19
-11.477 -0.96200001 -1.919 0.25
-11.471 -0.99699998 -1.918 0.20999999
-11.458 -1.033 -1.9170001 0.12
-11.439 -1.049 -1.913 0.2
-11.452 -1.086 -1.916 0.11
-11.432 -1.1210001 -1.913 0.2
-11.437 -1.158 -1.915 0.11
-11.443 -1.194 -1.9170001 0.19
-11.427 -1.229 -1.914 0.11
-11.412 -1.2460001 -1.9119999 0.2
-11.423 -1.283 -1.915 0.11
-11.4 -1.317 -1.911 0.19
-11.399 -1.353 -1.9119999 0.1
-11.401 -1.39 -1.913 0.18000001
-11.385 -1.424 -1.911 0.23
-11.386 -1.46 -1.9119999 0.19
-11.38 -1.478 -1.911 0.22
-11.342 -1.5089999 -1.905 0.18000001
-11.351 -1.5470001 -1.908 0.23
-11.336 -1.581 -1.906 0.18000001
-11.333 -1.617 -1.906 0.23
-11.31 -1.65 -1.903 0.18000001
-11.325 -1.688 -1.9069999 0.25
-11.285 -1.7 -1.9 0.22
-11.282 -1.7359999 -1.9 0.19
-11.301 -1.776 -1.905 0.28
-11.286 -1.809 -1.903 0.23
-11.249 -1.84 -1.898 0.17
-11.276 -1.881 -1.904 0.28
-11.251 -1.913 -1.9 0.23999999
-11.242 -1.929 -1.899 0.19
-11.261 -1.969 -1.904 0.27000001
-11.265 -2.006 -1.905 0.25
-11.266 -2.043 -1.9069999 0.19
-11.271 -2.0810001 -1.909 0.27000001
-11.241 -2.112 -1.905 0.23999999
-11.24 -2.148 -1.906 0.25999999
-11.183 -2.155 -1.896 0.28999999
-11.01 -2.1570001 -1.8660001 0.25
-10.932 -2.177 -1.853 0.23
-10.884 -2.204 -1.846 0.22
-10.808 -2.223 -1.8329999 0.31
-10.71 -2.2379999 -1.817 0.33000001
-10.653 -2.2609999 -1.807 0.38
-10.567 -2.26 -1.7920001 0.38999999
-10.477 -2.2750001 -1.777 0.38999999
-10.424 -2.2969999 -1.7690001 0.33000001
-10.349 -2.3150001 -1.757 0.33000001
-10.296 -2.3369999 -1.748 0.34999999
-10.279 -2.3670001 -1.747 0.34999999
-10.25 -2.3940001 -1.743 0.36000001
-10.208 -2.401 -1.7359999 0.33000001
-10.162 -2.424 -1.729 0.40000001
-10.026 -2.425 -1.705 0.37
-10.009 -2.454 -1.704 0.37
-9.9799995 -2.48 -1.7 0.34
-9.9519997 -2.506 -1.696 0.44
-9.8959999 -2.5250001 -1.687 0.28
-9.6610003 -2.4809999 -1.645 0.37
-9.7340002 -2.5320001 -1.66 0.33000001
-9.8000002 -2.582 -1.673 0.31999999
-9.8520002 -2.6289999 -1.684 0.34
-9.9110003 -2.6789999 -1.697 0.36000001
-9.8409996 -2.6930001 -1.686 0.43000001
-9.71 -2.6889999 -1.663 0.38
-9.5819998 -2.6700001 -1.64 0.36000001
-9.5469999 -2.6919999 -1.635 0.33000001
-9.4799995 -2.7049999 -1.624 0.36000001
-9.566 -2.763 -1.642 0.41999999
-9.6590004 -2.823 -1.661 0.30000001
-9.6219997 -2.845 -1.655 0.31999999
-9.5059996 -2.8429999 -1.636 0.33000001
-9.5050001 -2.859 -1.636 0.38999999
-9.4429998 -2.872 -1.626 0.34
-9.316 -2.865 -1.604 0.40000001
-9.4189997 -2.9300001 -1.625 0.33000001
-9.2919998 -2.9219999 -1.603 0.34999999
-9.2259998 -2.9330001 -1.5930001 0.38
-9.2119999 -2.96 -1.592 0.36000001
-9.2559996 -2.99 -1.601 0.43000001
-9.1969995 -3.0039999 -1.592 0.31999999
-9.1300001 -3.013 -1.581 0.41999999
-9.0979996 -3.0339999 -1.577 0.37
-9.2250004 -3.109 -1.602 0.36000001
-9.1459999 -3.1140001 -1.589 0.34
-9.1020002 -3.115 -1.582 0.36000001
-9.0620003 -3.1329999 -1.577 0.34
-8.9729996 -3.1340001 -1.561 0.34
-8.9069996 -3.142 -1.551 0.41
-8.9320002 -3.1830001 -1.558 0.34
-8.908 -3.2049999 -1.5549999 0.36000001
-8.835 -3.21 -1.543 0.34999999
-8.9049997 -3.2520001 -1.557 0.34999999
-8.8470001 -3.2620001 -1.548 0.38999999
-8.7609997 -3.2620001 -1.534 0.36000001
-8.6750002 -3.2609999 -1.52 0.40000001
-8.6029997 -3.2639999 -1.508 0.33000001
-8.7320004 -3.345 -1.534 0.34
-8.7049999 -3.3659999 -1.531 0.36000001
-8.8079996 -3.4219999 -1.552 0.38999999
-8.7309999 -3.4230001 -1.539 0.36000001
-8.6870003 -3.438 -1.533 0.33000001
-8.552 -3.415 -1.5089999 0.31
-8.6110001 -3.47 -1.522 0.41
-8.5690002 -3.484 -1.516 0.31999999
-8.4720001 -3.4760001 -1.5 0.40000001
-8.5179996 -3.51 -1.51 0.34
-8.5190001 -3.5420001 -1.512 0.41999999
-8.4320002 -3.5369999 -1.498 0.33000001
-8.3990002 -3.5539999 -1.493 0.38
-8.3990002 -3.585 -1.495 0.33000001
-8.4110003 -3.622 -1.5 0.44
-8.4099998 -3.6530001 -1.502 0.38
-8.3649998 -3.6489999 -1.494 0.38999999
-8.4110003 -3.7 -1.506 0.38999999
-8.3979998 -3.7260001 -1.505 0.36000001
-8.3389997 -3.7309999 -1.4960001 0.41
-8.3439999 -3.7650001 -1.499 0.33000001
-8.3170004 -3.7839999 -1.4960001 0.44
-8.2589998 -3.789 -1.487 0.31
-8.2939997 -3.8210001 -1.495 0.41
-8.2410002 -3.8280001 -1.487 0.38
-8.2379999 -3.858 -1.489 0.38999999
-8.3109999 -3.924 -1.506 0.33000001
-8.3409996 -3.971 -1.5140001 0.40000001
-8.368 -4.0159998 -1.522 0.33000001
-8.217 -3.9749999 -1.495 0.31999999
-8.2279997 -3.997 -1.498 0.41999999
-8.1809998 -4.0050001 -1.4910001 0.38999999
-8.2189999 -4.0560002 -1.501 0.34
-8.25 -4.1040001 -1.51 0.40000001
-8.2849998 -4.1539998 -1.52 0.33000001
-8.3439999 -4.2160001 -1.534 0.36000001
-8.3710003 -4.263 -1.5420001 0.38
-8.4169998 -4.303 -1.552 0.34
-8.3800001 -4.3179998 -1.548 0.38
-8.3979998 -4.3610001 -1.554 0.41
-8.3769999 -4.3839998 -1.553 0.44999999
-8.3859997 -4.4219999 -1.557 0.38
-8.4189997 -4.473 -1.567 0.38
-8.4069996 -4.5009999 -1.567 0.36000001
-8.4399996 -4.5349998 -1.575 0.34
-8.3959999 -4.546 -1.569 0.38
-8.4060001 -4.585 -1.574 0.34
-8.3649998 -4.598 -1.569 0.43000001
-8.3100004 -4.6009998 -1.5599999 0.40000001
-8.3050003 -4.6329999 -1.563 0.34999999
-8.2650003 -4.6440001 -1.557 0.47999999
-8.2480001 -4.651 -1.5549999 0.31999999
-8.2119999 -4.665 -1.551 0.47999999
-8.1719999 -4.677 -1.546 0.34999999
-8.1619997 -4.7049999 -1.5470001 0.40000001
-8.1389999 -4.7259998 -1.545 0.38999999
-8.0950003 -4.7340002 -1.539 0.31
-8.0530005 -4.744 -1.534 0.37
-8.059 -4.7639999 -1.536 0.40000001
-7.9899998 -4.757 -1.525 0.37
-7.9970002 -4.796 -1.53 0.41
-7.8460002 -4.7379999 -1.501 0.38999999
-7.8210001 -4.756 -1.499 0.38999999
-7.789 -4.7709999 -1.4960001 0.40000001
-7.9109998 -4.8629999 -1.523 0.40000001
-7.783 -4.8179998 -1.499 0.43000001
-7.77 -4.8429999 -1.5 0.37
-7.7659998 -4.875 -1.502 0.34
-7.7870002 -4.9219999 -1.51 0.36000001
-7.7870002 -4.9559999 -1.513 0.37
-7.842 -5.027 -1.528 0.41
-7.7620001 -4.9920001 -1.513 0.34999999
-7.6620002 -4.9619999 -1.495 0.38
-7.7059999 -5.0240002 -1.507 0.34
-7.6810002 -5.0430002 -1.506 0.38999999
-7.6409998 -5.0510001 -1.5 0.37
-7.6149998 -5.0679998 -1.498 0.43000001
-7.632 -5.1139998 -1.505 0.43000001
-7.6810002 -5.165 -1.517 0.38
-7.71 -5.2199998 -1.527 0.36000001
-7.7639999 -5.2919998 -1.5420001 0.25
-7.796 -5.3499999 -1.553 0.36000001
-7.8140001 -5.3990002 -1.5599999 0.36000001
-7.9219999 -5.5110002 -1.587 0.51999998
-7.6659999 -5.368 -1.536 0.31
-7.46 -5.2399998 -1.493 0.33000001
-7.7399998 -5.4749999 -1.557 0.28999999
-7.8940001 -5.6220002 -1.595 0.2
-7.8730001 -5.6440001 -1.594 0.38999999
-7.8649998 -5.6760001 -1.596 0.31999999
-7.8390002 -5.6950002 -1.594 0.28
-7.809 -5.71 -1.592 0.31999999
-7.7870002 -5.7129998 -1.589 0.34
-7.7719998 -5.7389998 -1.589 0.28
-7.7449999 -5.757 -1.587 0.27000001
-7.711 -5.7690001 -1.584 0.30000001
-7.6830001 -5.7859998 -1.582 0.28
-7.6599998 -5.8070002 -1.581 0.27000001
-7.6339998 -5.8249998 -1.579 0.31
-7.6329999 -5.8429999 -1.581 0.28
-7.5910001 -5.849 -1.575 0.27000001
-7.5760002 -5.875 -1.576 0.28999999
-7.5500002 -5.8930001 -1.574 0.28999999
-7.5190001 -5.9070001 -1.572 0.28
-7.506 -5.9349999 -1.573 0.25999999
-7.4889998 -5.96 -1.573 0.27000001
-7.4699998 -5.9640002 -1.571 0.30000001
-7.4439998 -5.9809999 -1.5700001 0.31
-7.4330001 -6.0110002 -1.571 0.30000001
-7.3969998 -6.0209999 -1.567 0.28999999
-7.3660002 -6.0339999 -1.5650001 0.27000001
-7.3520002 -6.0609999 -1.566 0.33000001
-7.316 -6.0700002 -1.562 0.30000001
-7.3060002 -6.0809999 -1.562 0.36000001
-7.2870002 -6.1040001 -1.562 0.28999999
-7.257 -6.118 -1.559 0.33000001
-7.2340002 -6.1370001 -1.558 0.31999999
-7.2140002 -6.1599998 -1.558 0.31999999
-7.1820002 -6.171 -1.5549999 0.33000001
-7.1669998 -6.197 -1.556 0.31999999
-7.1469998 -6.1999998 -1.554 0.28999999
-7.1199999 -6.2150002 -1.552 0.33000001
-7.085 -6.2249999 -1.549 0.25999999
-7.072 -6.2519999 -1.55 0.38999999
-7.0450001 -6.2680001 -1.548 0.27000001
-7.0159998 -6.2820001 -1.546 0.34
-7.0089998 -6.296 -1.5470001 0.28999999
-6.973 -6.303 -1.543 0.33000001
-6.9520001 -6.3239999 -1.543 0.33000001
-6.9289999 -6.3429999 -1.5420001 0.28999999
-6.9050002 -6.3610001 -1.541 0.34
-6.8779998 -6.375 -1.539 0.31999999
-6.855 -6.3940001 -1.538 0.31999999
-6.822 -6.3839998 -1.533 0.28
-6.8070002 -6.4099998 -1.534 0.34
-6.789 -6.4330001 -1.535 0.33000001
-6.7509999 -6.4380002 -1.53 0.28999999
-6.7420001 -6.4699998 -1.533 0.34
-6.7049999 -6.4749999 -1.529 0.27000001
-6.678 -6.4889998 -1.527 0.38999999
-6.6560001 -6.4879999 -1.524 0.33000001
-6.6430001 -6.5159998 -1.526 0.34
-6.6199999 -6.5339999 -1.525 0.31999999
-6.5949998 -6.5510001 -1.524 0.31999999
-6.5640001 -6.5619998 -1.522 0.31999999
-6.5419998 -6.5809999 -1.522 0.31
-6.5120001 -6.592 -1.5190001 0.30000001
-6.5040002 -6.605 -1.52 0.31999999
-6.473 -6.6139998 -1.517 0.31
-6.4520001 -6.6339998 -1.517 0.31999999
-6.428 -6.651 -1.516 0.33000001
-6.401 -6.665 -1.515 0.31
-6.369 -6.6729999 -1.512 0.28
-6.3499999 -6.6960001 -1.513 0.33000001
-6.3319998 -6.697 -1.51 0.28999999
-6.3039999 -6.71 -1.5089999 0.31999999
-6.2870002 -6.7340002 -1.51 0.30000001
-6.2579999 -6.7449999 -1.508 0.27000001
-6.243 -6.7719998 -1.5089999 0.38
-6.217 -6.7859998 -1.508 0.28999999
-6.1859999 -6.7950001 -1.506 0.30000001
-6.1830001 -6.8140001 -1.508 0.31
-6.151 -6.8210001 -1.505 0.31999999
-6.1269999 -6.8379998 -1.5039999 0.33000001
-6.098 -6.848 -1.502 0.30000001
-6.072 -6.8629999 -1.501 0.31
-6.0440001 -6.8740001 -1.499 0.30000001
-6.0250001 -6.8959999 -1.5 0.31999999
-6.007 -6.8969998 -1.498 0.31
-5.9809999 -6.9109998 -1.497 0.31
-5.9520001 -6.921 -1.495 0.31999999
-5.927 -6.9369998 -1.494 0.31999999
-5.9060001 -6.9549999 -1.494 0.34
-5.8769999 -6.9660001 -1.492 0.34
-5.8610001 -6.9689999 -1.4910001 0.28
-5.836 -6.9829998 -1.49 0.30000001
-5.7950001 -6.9790001 -1.485 0.41
-5.7649999 -6.9879999 -1.483 0.37
-5.7480001 -7.0120001 -1.484 0.30000001
-5.7290001 -7.033 -1.485 0.41999999
-5.7090001 -7.0539999 -1.485 0.40000001
-5.691 -7.0539999 -1.483 0.31
-5.665 -7.0669999 -1.482 0.30000001
-5.6269999 -7.0650001 -1.478 0.30000001
-5.6069999 -7.085 -1.478 0.43000001
-5.586 -7.1040001 -1.479 0.47
-5.5650001 -7.1240001 -1.479 0.37
-5.5359998 -7.1329999 -1.477 0.23
-5.5029998 -7.1139998 -1.471 0.51999998
-5.4780002 -7.1259999 -1.47 0.38
-5.4400001 -7.1230001 -1.465 0.25999999
-5.4159999 -7.1389999 -1.465 0.51999998
-5.395 -7.1570001 -1.465 0.31999999
-5.3559999 -7.152 -1.46 0.5
-5.3390002 -7.177 -1.462 0.34
-5.3070002 -7.1570001 -1.456 0.41
-5.2919998 -7.184 -1.4579999 0.34
-5.257 -7.1830001 -1.455 0.49000001
-5.2280002 -7.1900001 -1.452 0.38
-5.1869998 -7.1810002 -1.447 0.38999999
-5.1059999 -7.1160002 -1.429 0.46000001
-5.0650001 -7.1059999 -1.423 0.27000001
-5.0510001 -7.1090002 -1.4220001 0.5
-5.0349998 -7.1339998 -1.425 0.34
-5.0180001 -7.158 -1.426 0.5
-5.0009999 -7.1820002 -1.428 0.31999999
-4.9699998 -7.1849999 -1.425 0.43000001
-4.9260001 -7.1700001 -1.419 0.47999999
-4.901 -7.1820002 -1.418 0.43000001
-4.8759999 -7.1680002 -1.413 0.37
-4.8470001 -7.1739998 -1.411 0.37
-4.803 -7.158 -1.405 0.36000001
-4.7729998 -7.1609998 -1.402 0.36000001
-4.7389998 -7.158 -1.398 0.36000001
-4.7080002 -7.1599998 -1.395 0.20999999
-4.6690001 -7.1500001 -1.39 0.56
-4.678 -7.1890001 -1.397 0.28999999
-4.638 -7.177 -1.391 0.36000001
-4.6240001 -7.204 -1.3940001 0.28999999
-4.6090002 -7.2309999 -1.397 0.31999999
-4.5929999 -7.2550001 -1.399 0.38
-4.632 -7.3699999 -1.42 0.19
-4.6700001 -7.4829998 -1.4400001 0.58999997
-4.586 -7.3730001 -1.416 0.2
-4.619 -7.4780002 -1.4349999 0.47
-4.5710001 -7.4520001 -1.426 0.34
-4.5710001 -7.5050001 -1.434 0.31999999
-4.533 -7.4959998 -1.429 0.51999998
-4.4850001 -7.4689999 -1.421 0.41
-4.5079999 -7.5609999 -1.437 0.38999999
-4.474 -7.5310001 -1.429 0.28999999
-4.4419999 -7.5320001 -1.427 0.56
-4.421 -7.5510001 -1.428 0.37
-4.3730001 -7.5219998 -1.419 0.37
-4.3260002 -7.4949999 -1.411 0.55000001
-4.3200002 -7.539 -1.4170001 0.23999999
-4.2740002 -7.4860001 -1.405 0.50999999
-4.2659998 -7.527 -1.41 0.41
-4.2270002 -7.5120001 -1.405 0.41
-4.1939998 -7.5089998 -1.401 0.34
-4.1810002 -7.5409999 -1.405 0.44999999
-4.0900002 -7.4310002 -1.38 0.36000001
-4.046 -7.4060001 -1.372 0.43000001
-4.0300002 -7.4050002 -1.3710001 0.38999999
-4 -7.4039998 -1.368 0.46000001
-3.9200001 -7.3099999 -1.347 0.38999999
-3.9170001 -7.3610001 -1.355 0.34
-3.914 -7.4120002 -1.362 0.38
-3.8940001 -7.4310002 -1.364 0.38999999
-3.8840001 -7.4679999 -1.369 0.40000001
-3.8559999 -7.4419999 -1.362 0.40000001
-3.855 -7.4980001 -1.3710001 0.37
-3.826 -7.5 -1.369 0.54000002
-3.8080001 -7.5240002 -1.3710001 0.34
-3.7539999 -7.474 -1.359 0.41999999
-3.7309999 -7.4879999 -1.36 0.38
-3.697 -7.4759998 -1.355 0.38999999
-3.721 -7.5560002 -1.37 0.41999999
-3.598 -7.3629999 -1.329 0.31999999
-3.5580001 -7.3400002 -1.322 0.55000001
-3.575 -7.4349999 -1.339 0.36000001
-3.6389999 -7.6290002 -1.375 0.47999999
-3.615 -7.6430001 -1.375 0.25999999
-3.5769999 -7.6230001 -1.369 0.51999998
-3.5469999 -7.5900002 -1.362 0.34
-3.4489999 -7.4400001 -1.33 0.47
-3.411 -7.4180002 -1.324 0.36000001
-3.3759999 -7.4039998 -1.319 0.47999999
-3.388 -7.4920001 -1.334 0.37
-3.3310001 -7.4289999 -1.3200001 0.30000001
-3.3010001 -7.3920002 -1.312 0.43000001
-3.3069999 -7.4679999 -1.324 0.37
-3.26 -7.4260001 -1.314 0.38999999
-3.27 -7.5120001 -1.329 0.46000001
-3.273 -7.5840001 -1.341 0.34
-3.2279999 -7.5450001 -1.331 0.41
-3.158 -7.4439998 -1.3099999 0.28
-3.1760001 -7.5219998 -1.324 0.54000002
-3.108 -7.4250002 -1.303 0.38
-3.1029999 -7.4780002 -1.312 0.50999999
-3.138 -7.632 -1.339 0.28999999
-3.1400001 -7.7049999 -1.351 0.5
-2.9389999 -7.2729998 -1.267 0.23
-2.8840001 -7.2020001 -1.252 0.47
-3.0190001 -7.5780001 -1.322 0.31
-3.03 -7.6750002 -1.339 0.5
-2.9760001 -7.6079998 -1.325 0.25
-2.9860001 -7.7049999 -1.341 0.50999999
-2.8280001 -7.3629999 -1.275 0.22
-2.7539999 -7.237 -1.249 0.56999999
-2.8629999 -7.598 -1.316 0.19
-2.921 -7.7909999 -1.351 0.50999999
-2.9089999 -7.8340001 -1.358 0.33000001
-2.8789999 -7.8280001 -1.355 0.56999999
-2.727 -7.4850001 -1.289 0.22
-2.6129999 -7.2389998 -1.2410001 0.38999999
-2.7190001 -7.6129999 -1.3099999 0.41
-2.6429999 -7.4710002 -1.281 0.38999999
-2.641 -7.5029998 -1.286 0.28999999
-2.668 -7.6589999 -1.314 0.43000001
-2.5799999 -7.4809999 -1.279 0.30000001
-2.5599999 -7.4980001 -1.281 0.56999999
-2.625 -7.7709999 -1.331 0.38999999
-2.6040001 -7.7909999 -1.3329999 0.33000001
-2.6400001 -7.9840002 -1.367 0.38
-2.622 -7.9710002 -1.364 0.41
-2.408 -7.3930001 -1.255 0.27000001
-2.3900001 -7.4169998 -1.258 0.44
-2.289 -7.1789999 -1.212 0.31999999
-2.29 -7.2589998 -1.226 0.31999999
-2.2720001 -7.2810001 -1.228 0.47
-2.2520001 -7.2979999 -1.23 0.36000001
-2.24 -7.3000002 -1.23 0.43000001
-2.2479999 -7.4120002 -1.249 0.33000001
-2.0829999 -6.9400001 -1.161 0.28999999
-2.0309999 -6.8439999 -1.142 0.36000001
-2.0150001 -6.869 -1.145 0.49000001
-2.1530001 -7.434 -1.248 0.5
-2.1860001 -7.5929999 -1.277 0.28
-2.006 -7.046 -1.175 0.25
-1.961 -6.967 -1.159 0.5
-1.918 -6.8990002 -1.146 0.33000001
-1.906 -6.941 -1.152 0.51999998
-1.883 -6.941 -1.151 0.31
-1.867 -6.9699998 -1.155 0.57999998
-1.88 -7.0640001 -1.1720001 0.25
-1.88 -7.1539998 -1.188 0.47999999
-1.869 -7.204 -1.196 0.27000001
-1.84 -7.1869998 -1.191 0.56999999
-1.842 -7.2919998 -1.21 0.19
-1.756 -7.04 -1.1619999 0.38999999
-1.734 -7.0450001 -1.1619999 0.55000001
-1.9529999 -8.0579996 -1.346 0.30000001
-1.9069999 -7.9229999 -1.321 0.16
-1.702 -7.1599998 -1.181 0.56999999
-1.692 -7.2189999 -1.191 0.38
-1.6160001 -6.9899998 -1.148 0.2
-1.58 -6.9299998 -1.136 0.56999999
-1.5549999 -6.921 -1.1339999 0.25
-1.5420001 -6.914 -1.132 0.49000001
-1.5089999 -6.869 -1.123 0.34999999
-1.4680001 -6.7789998 -1.1059999 0.36000001
-1.456 -6.8299999 -1.114 0.62
-1.439 -6.8540001 -1.118 0.25999999
-1.439 -6.9650002 -1.137 0.51999998
-1.4069999 -6.9229999 -1.1289999 0.34999999
-1.372 -6.7989998 -1.1059999 0.44
-1.346 -6.7820001 -1.102 0.43000001
-1.337 -6.8520002 -1.114 0.34999999
-1.314 -6.8449998 -1.112 0.41
-1.2869999 -6.8179998 -1.1059999 0.31999999
-1.267 -6.8299999 -1.108 0.44999999
-1.2539999 -6.8860002 -1.117 0.40000001
-1.238 -6.8569999 -1.1109999 0.37
-1.216 -6.8590002 -1.1109999 0.63999999
-1.215 -6.9850001 -1.133 0.30000001
-1.176 -6.882 -1.114 0.44999999
-1.1440001 -6.8210001 -1.102 0.34
-1.118 -6.7979999 -1.097 0.46000001
-1.096 -6.8010001 -1.097 0.41999999
-1.085 -6.7989998 -1.097 0.43000001
-1.049 -6.7090001 -1.08 0.47999999
-1.0319999 -6.7340002 -1.084 0.34
-1.016 -6.776 -1.091 0.52999997
-0.995 -6.783 -1.091 0.31
-0.972 -6.7719998 -1.089 0.49000001
-0.954 -6.7969999 -1.0930001 0.36000001
-0.94099998 -6.7810001 -1.09 0.46000001
-0.92299998 -6.809 -1.094 0.34
-0.898 -6.783 -1.089 0.5
-0.88 -6.8109999 -1.094 0.28999999
-0.87300003 -6.9369998 -1.1160001 0.51999998
-0.861 -7.0219998 -1.13 0.34
-0.84600002 -6.9860001 -1.124 0.44
-0.81900001 -6.9429998 -1.1160001 0.34
-0.80400002 -7.0079999 -1.127 0.27000001
-0.77600002 -6.9619999 -1.118 0.43000001
-0.73699999 -6.7919998 -1.087 0.31999999
-0.71499997 -6.7880001 -1.086 0.58999997
-0.70099998 -6.8670001 -1.1 0.38999999
-0.69800001 -6.947 -1.114 0.41
-0.66399997 -6.8249998 -1.092 0.28999999
-0.64399999 -6.8449998 -1.095 0.55000001
-0.625 -6.8720002 -1.1 0.31999999
-0.60299999 -6.8699999 -1.099 0.47999999
-0.58099997 -6.8699999 -1.098 0.46000001
-0.55699998 -6.8410001 -1.0930001 0.28999999
-0.54299998 -6.796 -1.085 0.47999999
-0.52100003 -6.7820001 -1.082 0.34999999
-0.5 -6.8000002 -1.085 0.44999999
-0.48100001 -6.8309999 -1.09 0.50999999
-0.47600001 -7.0939999 -1.137 0.36000001
-0.43700001 -6.816 -1.087 0.28999999
-0.41600001 -6.8150001 -1.087 0.41999999
-0.40799999 -6.8730001 -1.097 0.47
-0.39899999 -7.1040001 -1.138 0.28999999
-0.38499999 -7.2859998 -1.17 0.54000002
-0.359 -7.223 -1.158 0.17
-0.32600001 -6.9840002 -1.1160001 0.47999999
-0.30000001 -6.8899999 -1.099 0.37
-0.27900001 -6.9050002 -1.101 0.38
-0.271 -6.9819999 -1.115 0.49000001
-0.25799999 -7.2589998 -1.164 0.16
-0.23800001 -7.368 -1.183 0.5
-0.207 -7.0450001 -1.126 0.25
-0.191 -7.3000002 -1.171 0.43000001
-0.16 -6.9190001 -1.103 0.31
-0.148 -6.842 -1.089 0.63
-0.127 -6.8699999 -1.094 0.23999999
-0.103 -6.6849999 -1.061 0.58999997
-0.083999999 -6.9180002 -1.103 0.30000001
-0.064000003 -7.1919999 -1.151 0.46000001
-0.041999999 -7.5170002 -1.209 0.36000001
-0.017999999 -7.4070001 -1.189 0.38999999
-0.0070000002 -7.2280002 -1.158 0.22
0.013 -6.8379998 -1.0880001 0.33000001
0.035 -6.8319998 -1.087 0.56999999
0.056000002 -6.8569999 -1.092 0.25999999
0.077 -6.763 -1.075 0.44999999
