# .PCD v0.7 - Point Cloud Data file format
VERSION 0.7
FIELDS x y z intensity
SIZE 4 4 4 4
TYPE F F F F
COUNT 1 1 1 1
WIDTH 1409
HEIGHT 1
VIEWPOINT 0 0 0 1 0 0 0
POINTS 1409
DATA ascii
-10.091 10.187 -0.34900001 0.34
-10.176 10.209 -0.352 0.66000003
-10.113 10.083 -0.347 0
-39.662998 39.188999 -1.9450001 0
-39.701 38.980999 -1.941 0
-39.715 38.872002 -1.938 0
-39.719002 38.632999 -1.932 0
-40.07 38.73 -1.944 0
-40.140999 38.556 -1.942 0
-40.169998 38.341 -1.937 0
-40.429001 38.347 -1.944 0
-40.695 38.355999 -1.952 0
-44.828999 42.117001 -2.1670001 0
-46.306999 43.230999 -2.2379999 0
-22.441 20.707001 -0.97299999 0.16
-22.431 20.566999 -0.96899998 0.31
-22.431999 20.438999 -0.96600002 0.37
-22.447001 20.323999 -0.963 0.5
-22.414 20.23 -0.95999998 0.18000001
-22.41 20.099001 -0.95599997 0.49000001
-22.410999 19.973 -0.95300001 0.22
-22.415001 19.851 -0.94999999 0.34999999
-22.41 19.721001 -0.94700003 0.27000001
-22.408001 19.594999 -0.94400001 0.20999999
-22.405001 19.469 -0.94 0.36000001
-22.375999 19.382 -0.93699998 0.38999999
-22.381001 19.264 -0.93400002 0.34
-22.381001 19.142 -0.93099999 0.36000001
-22.384001 19.023001 -0.92799997 0.37
-22.389 18.907 -0.926 0.37
-22.384001 18.782 -0.92199999 0.37
-22.382999 18.662001 -0.91900003 0.36000001
-22.360001 18.583 -0.917 0.37
-22.355 18.461 -0.91399997 0.38
-22.357 18.344999 -0.91100001 0.38
-22.365999 18.236 -0.90799999 0.38999999
-22.358 18.112 -0.90499997 0.40000001
-22.358 17.996 -0.90200001 0.38
-22.370001 17.891001 -0.89999998 0.33000001
-22.33 17.801001 -0.89700001 0.34
-22.349001 17.702 -0.89499998 0.30000001
-22.351 17.59 -0.89200002 0.56999999
-22.583 17.657 -0.90100002 0
-22.353001 16.864 -0.875 0
-22.076 16.547001 -0.86000001 0
-22.141001 16.487 -0.86000001 0.039999999
-22.547001 16.57 -0.875 0
-22.395 16.351 -0.86500001 0
-23.747999 16.219 -0.90499997 0
-24.033001 16.302 -0.91500002 0
-23.337 14.886 -0.86299998 0.20999999
-23.604 14.952 -0.87300003 0.28
-23.332001 14.678 -0.85900003 0.19
-23.462999 14.657 -0.86199999 0.38999999
-23.780001 14.648 -0.87300003 0.57999998
-23.431 14.333 -0.85500002 0.25
-24.284 14.8 -0.89200002 0.12
-23.201 14.042 -0.84100002 0.25
-24.318001 14.613 -0.88999999 0.19
-24.101 14.38 -0.87800002 0.15000001
-23.285999 13.795 -0.83899999 0.19
-23.669001 13.921 -0.85500002 0.16
-23.256001 13.581 -0.83399999 0.38999999
-22.879 13.217 -0.815 0.41
-23.941999 13.73 -0.86000001 0.25
-24.002001 13.664 -0.861 0.40000001
-24.084999 13.612 -0.86199999 0.25
-24.007 13.468 -0.85699999 0.25
-24.112 13.428 -0.86000001 0.43000001
-24.195999 13.326 -0.861 0.47
-24.415001 13.346 -0.86900002 0.15000001
-24.264 13.165 -0.86000001 0.31999999
-24.337 13.106 -0.86199999 0.38999999
-24.572001 13.132 -0.87 0.23999999
-24.655001 13.078 -0.87199998 0.47999999
-33.789001 17.775999 -1.268 0.2
-33.800999 17.714001 -1.267 0.30000001
-33.844002 17.601999 -1.267 0.46000001
-27.67 14.286 -0.99599999 0.16
-27.674 14.178 -0.995 0.44999999
-27.743 14.104 -0.99599999 0.25999999
-33.910999 17.098 -1.26 0.18000001
-33.917999 17.035 -1.2589999 0.34
-33.935001 16.910999 -1.258 0.31
-33.969002 16.794001 -1.257 0.33000001
-34.007 16.681 -1.256 0.31
-34.068001 16.577999 -1.257 0.46000001
-34.143002 16.482 -1.258 0.25999999
-34.292 16.421 -1.262 0
-34.460999 16.434999 -1.268 0
-34.717999 16.424 -1.277 0
-35.005001 16.424999 -1.2869999 0
-44.111 20.521999 -1.671 0.12
-44.125 20.360001 -1.669 0.12
-22 10.082 -0.72899997 0.31
-21.948999 9.9750004 -0.72500002 0.36000001
-21.955 9.8950005 -0.72399998 0.38
-21.976 9.8629999 -0.72500002 0.30000001
-22.047001 9.8120003 -0.72600001 0.52999997
-22.007999 9.7119999 -0.72299999 0
-43.882999 19.172001 -1.642 0.07
-44.112 19.107 -1.649 0.2
-44.099998 18.938 -1.646 0
-34.993999 14.903 -1.262 0.07
-33.362999 14.148 -1.193 0.14
-33.332001 14.011 -1.1900001 0.25
-33.444 13.935 -1.193 0.30000001
-35.147999 14.515 -1.262 0.23
-35.27 14.435 -1.265 0.12
-35.029999 14.209 -1.253 0.41
-24.368 9.8039999 -0.80900002 0.20999999
-24.360001 9.7119999 -0.80699998 0.31
-24.41 9.6870003 -0.80800003 0.27000001
-34.835999 13.686 -1.239 0.23999999
-34.990002 13.62 -1.243 0.36000001
-34.964001 13.484 -1.2410001 0.22
-34.75 13.276 -1.23 0.2
-34.931999 13.22 -1.2359999 0.40000001
-34.973 13.173 -1.237 0.2
-35.026001 13.067 -1.237 0.25
-35.153 12.989 -1.2410001 0.20999999
-35.637001 13.04 -1.2589999 0.28999999
-35.638 12.914 -1.257 0.2
-35.758999 12.831 -1.261 0.2
-35.830002 12.729 -1.262 0.27000001
-38.544998 13.623 -1.372 0
-46.823002 16.378 -1.7079999 0
-47.073002 16.299 -1.716 0.13
-46.862999 16.062 -1.706 0.13
-46.613998 15.814 -1.694 0.15000001
-46.879002 15.739 -1.702 0
-46.853001 15.567 -1.699 0
-46.439999 15.349 -1.681 0.07
-45.797001 14.978 -1.653 0.11
-45.620998 14.762 -1.6440001 0.34
-45.632999 14.607 -1.643 0.19
-45.597 14.438 -1.64 0.18000001
-45.43 14.229 -1.631 0.12
-45.477001 14.086 -1.631 0.17
-45.575001 14.038 -1.6339999 0.12
-45.452999 13.845 -1.628 0.14
-45.136002 13.594 -1.613 0.33000001
-45.612999 13.581 -1.631 0.23999999
-46.007 13.541 -1.645 0.19
-46.007 13.384 -1.643 0.16
-45.752998 13.154 -1.631 0.16
-45.263 12.86 -1.61 0.090000004
-45.960999 12.98 -1.637 0
-46.452 12.961 -1.655 0.11
-47.361 13.054 -1.6900001 0.2
-46.710999 12.717 -1.6619999 0.19
-46.667999 12.548 -1.659 0
-46.756001 12.414 -1.661 0
-52.862 13.854 -1.903 0
-52.557999 13.687 -1.89 0
-36.354 9.2320004 -1.242 0
-53.285999 13.341 -1.914 0
-53.369999 13.184 -1.915 0.11
-50.625 12.339 -1.8049999 0
-55.820999 13.417 -2.0090001 0
-54.860001 13.095 -1.97 0
-55.793999 13.133 -2.006 0
-55.722 12.931 -2.0009999 0
-55.785999 12.761 -2.0020001 0
-55.870998 12.596 -2.0039999 0
-56.012001 12.443 -2.0079999 0.059999999
-56.418999 12.348 -2.0220001 0
-57.431 12.474 -2.062 0
-60.282001 12.894 -2.1719999 0
-61.117001 12.871 -2.204 0
-60.571999 12.558 -2.181 0
-60.235001 12.291 -2.1659999 0
-60.23 12.093 -2.164 0
-59.375 11.728 -2.1289999 0
-60.798 11.909 -2.184 0
-60.763 11.704 -2.181 0.050000001
-48.085999 9.1120005 -1.683 0.15000001
-48.105999 8.9589996 -1.682 0
-66.264999 12.115 -2.3929999 0
-66.175003 11.884 -2.388 0
-66.491997 11.726 -2.3989999 0
-66.721001 11.55 -2.4059999 0
-68.122002 11.682 -2.46 0
-69.065002 11.62 -2.4960001 0
-52.32 8.6400003 -1.84 0
-70.234001 11.363 -2.539 0
-70.982002 11.255 -2.566 0
-71.699997 11.138 -2.5929999 0
-72.132004 10.973 -2.609 0
-72.230003 10.64 -2.6099999 0
-60.418999 8.5170002 -2.148 0
-60.485001 8.3319998 -2.1500001 0
-70.259003 8.6639996 -2.5250001 0
-70.383003 8.4549999 -2.529 0
-41.217999 4.6999998 -1.395 0.13
-41.168999 4.5630002 -1.393 0
-41.102001 4.4910002 -1.39 0
-41.088001 4.3590002 -1.3890001 0.13
-41.071999 4.2259998 -1.388 0.30000001
-41.073002 4.0960002 -1.387 0.20999999
-41.066002 3.9649999 -1.386 0.23
-41.043999 3.7030001 -1.385 0.68000001
-41.062 3.6400001 -1.385 0.31
-41.125 3.5150001 -1.387 0.18000001
-41.014 3.3759999 -1.382 0.74000001
-41.265999 3.266 -1.392 0
-67.847 -3.6140001 -2.415 0
-63.597 -5.092 -2.2550001 0
-61.536999 -5.1209998 -2.1760001 0
-58.166 -5.0229998 -2.0469999 0
-56.591 -5.0650001 -1.9859999 0
-53.398998 -4.8629999 -1.863 0
-53.000999 -4.994 -1.848 0
-52.462002 -5.1090002 -1.8279999 0
-50.773998 -5.105 -1.763 0
-50.137001 -5.1999998 -1.739 0
-49.823002 -5.3260002 -1.728 0
-49.945 -5.4970002 -1.733 0.039999999
-46.18 -5.3010001 -1.5880001 0
-50.820999 -5.9990001 -1.7690001 0
-49.972 -6.0570002 -1.737 0
-49.536999 -6.1620002 -1.72 0
-49.285 -6.2880001 -1.711 0.050000001
-43.231998 -5.651 -1.477 0
-49.334 -6.6100001 -1.715 0
-42.835999 -5.8039999 -1.462 0
-38.736 -5.3699999 -1.304 0
-51.769001 -7.3520002 -1.812 0
-52.113998 -7.5679998 -1.826 0
-61.638 -11.143 -2.211 0
-61.194 -11.261 -2.1949999 0
-60.501999 -11.33 -2.1689999 0
-60.994999 -12.118 -2.1930001 0
-60.305 -12.178 -2.168 0
-59.584999 -12.227 -2.141 0
-60.306 -13.267 -2.1760001 0
-60.070999 -13.413 -2.1689999 0
-59.778999 -13.545 -2.1589999 0
-59.313 -13.635 -2.142 0
-58.721001 -13.693 -2.1199999 0
-55.605 -13.612 -2.003 0
-57.117001 -14.554 -2.0680001 0
-56.377998 -14.555 -2.0409999 0
-55.547001 -14.526 -2.0090001 0
-55.058998 -14.49 -1.9910001 0
-54.405998 -14.501 -1.967 0
-53.669998 -14.485 -1.939 0
-52.921001 -14.461 -1.911 0
-52.334 -14.478 -1.8890001 0
-51.68 -14.471 -1.865 0
-50.820999 -14.403 -1.832 0.07
-50.443001 -14.381 -1.818 0
-50.118999 -14.459 -1.807 0
-49.432999 -14.429 -1.781 0
-48.91 -14.443 -1.762 0.079999998
-48.386002 -14.453 -1.743 0.090000004
-48.013 -14.506 -1.729 0
-47.488998 -14.511 -1.71 0
-46.877998 -14.485 -1.687 0
-46.856998 -14.559 -1.688 0
-46.339001 -14.557 -1.668 0.059999999
-10.354 -3.339 -0.215 0.74000001
-10.255 -3.342 -0.212 0.23
-10.213 -3.3469999 -0.20999999 0.66000003
-10.218 -3.3840001 -0.211 0.31999999
-10.361 -3.4679999 -0.21699999 0.61000001
-10.367 -3.506 -0.21799999 0.63
-10.367 -3.5420001 -0.21799999 0.56999999
-10.358 -3.576 -0.21799999 0.58999997
-10.362 -3.6129999 -0.219 0.64999998
-10.352 -3.6470001 -0.219 0.55000001
-10.442 -3.697 -0.223 0.73000002
-10.417 -3.7249999 -0.223 0.14
-10.274 -3.71 -0.21699999 0.44999999
-10.236 -3.733 -0.21600001 0.50999999
-10.208 -3.7590001 -0.215 0.69999999
-10.218 -3.799 -0.21600001 0.34
-39.001999 -14.718 -1.403 0.16
-38.821999 -14.72 -1.397 0.090000004
-38.598 -14.774 -1.3890001 0.14
-38.405998 -14.839 -1.383 0.12
-38.229 -14.908 -1.378 0
-37.355 -14.702 -1.344 0
-37.183998 -14.77 -1.3380001 0
-37.755001 -15.135 -1.364 0
-36.431999 -14.67 -1.3099999 0
-37.662998 -15.304 -1.363 0
-37.556999 -15.399 -1.3609999 0.059999999
-36.486 -15.093 -1.318 0.11
-36.258999 -15.133 -1.311 0.13
-35.880001 -15.107 -1.2970001 0.16
-35.969002 -15.277 -1.302 0.23
-35.921001 -15.324 -1.301 0.2
-35.720001 -15.371 -1.295 0.11
-35.480999 -15.4 -1.2869999 0.079999998
-35.326 -15.465 -1.283 0
-35.382 -15.622 -1.2869999 0
-35.382 -15.755 -1.289 0
-35.120998 -15.771 -1.28 0
-33.178001 -14.96 -1.199 0
-32.789001 -14.908 -1.1849999 0
-33.716999 -15.459 -1.226 0
-33.074001 -15.289 -1.201 0
-33.620998 -15.671 -1.226 0
-31.599001 -14.848 -1.142 0
-41.155998 -19.504999 -1.552 0
-41.062 -19.540001 -1.549 0
-40.931999 -19.636 -1.546 0.07
-40.742001 -19.702999 -1.541 0.2
-40.507999 -19.746 -1.533 0
-40.070999 -19.688999 -1.517 0
-39.800999 -19.712 -1.508 0.12
-31.128 -15.532 -1.137 0.11
-30.386999 -15.222 -1.1059999 0
-39.110001 -19.753 -1.485 0.07
-38.889 -19.795 -1.478 0.16
-38.455002 -19.726 -1.462 0.12
-38.071999 -19.681 -1.448 0.16
-29.396999 -15.307 -1.074 0.28
-29.065001 -15.25 -1.061 0.18000001
-28.798 -15.226 -1.052 0.34999999
-28.830999 -15.301 -1.054 0.23
-28.587 -15.287 -1.046 0.25
-28.381001 -15.291 -1.039 0.15000001
-28.08 -15.242 -1.028 0.47
-27.902 -15.259 -1.022 0.20999999
-27.826 -15.332 -1.021 0.16
-28.106001 -15.602 -1.035 0.47
-28.099001 -15.655 -1.036 0.19
-27.753 -15.577 -1.023 0.18000001
-27.809999 -15.724 -1.028 0.18000001
-34.362 -19.579 -1.321 0.090000004
-34.119999 -19.583 -1.313 0.16
-27.958 -16.158001 -1.041 0.16
-27.617001 -16.077 -1.028 0.30000001
-33.465 -19.556999 -1.29 0.19
-33.116001 -19.493 -1.277 0.18000001
-32.903 -19.507 -1.271 0.38999999
-32.556999 -19.440001 -1.258 0.23
-32.32 -19.436001 -1.25 0.25999999
-32.153999 -19.474001 -1.245 0.28999999
-31.989 -19.511999 -1.24 0.27000001
-31.771 -19.447001 -1.232 0.20999999
-31.568001 -19.459999 -1.226 0.28
-31.216999 -19.378 -1.212 0.20999999
-30.938999 -19.34 -1.2029999 0.23999999
-30.728001 -19.343 -1.196 0.34
-30.66 -19.434999 -1.1950001 0.25
-30.481001 -19.455999 -1.1900001 0.27000001
-30.01 -19.221001 -1.17 0.30000001
-29.915001 -19.292999 -1.168 0.22
-29.639 -19.247 -1.158 0.28
-29.427 -19.240999 -1.151 0.25999999
-29.315001 -19.299 -1.149 0.28999999
-29.212999 -19.364 -1.147 0.20999999
-28.961 -19.327999 -1.138 0.31999999
-28.882 -19.341 -1.136 0.20999999
-28.586 -19.273001 -1.125 0.27000001
-28.462999 -19.32 -1.122 0.25999999
-28.292999 -19.334 -1.117 0.25999999
-28.298 -19.469 -1.12 0.31999999
-28.205 -19.535999 -1.119 0.17
-27.913 -19.462999 -1.108 0.46000001
-27.948999 -19.554001 -1.1109999 0.2
-27.249001 -19.191 -1.081 0.23
-27.037001 -19.169001 -1.074 0.44999999
-26.754 -19.094999 -1.063 0.19
-27.018 -19.412001 -1.079 0.34999999
-26.632 -19.261 -1.063 0.23
-26.534 -19.318001 -1.061 0.31
-26.447001 -19.318001 -1.059 0.34
-26.143999 -19.222 -1.0470001 0.31
-25.947001 -19.202999 -1.04 0.31999999
-25.875 -19.275999 -1.04 0.27000001
-25.608 -19.202 -1.03 0.28
-25.363001 -19.143 -1.021 0.28999999
-25.280001 -19.205 -1.02 0.31999999
-25.174999 -19.188 -1.016 0.25
-25.014999 -19.190001 -1.011 0.28
-24.851999 -19.188999 -1.006 0.23999999
-24.752001 -19.237 -1.0039999 0.38
-24.681999 -19.306999 -1.0039999 0.30000001
-24.542999 -19.323 -1 0.28999999
-24.427 -19.356001 -0.99699998 0.28999999
-24.259001 -19.285 -0.991 0.31999999
-24.087999 -19.271999 -0.98500001 0.28
-23.968 -19.299999 -0.98199999 0.34
-23.892 -19.363001 -0.98199999 0.31
-23.701 -19.332001 -0.97500002 0.27000001
-23.622 -19.391001 -0.97399998 0.34
-23.570999 -19.474001 -0.97500002 0.34999999
-23.365 -19.365 -0.96600002 0.31
-23.261 -19.403 -0.96399999 0.33000001
-23.167 -19.447001 -0.96200001 0.25999999
-22.823 -19.281 -0.94800001 0.34999999
-18.493 -15.717 -0.73199999 0.23999999
-22.712 -19.433001 -0.94800001 0.25999999
-22.663 -19.514999 -0.949 0.38
-22.601999 -19.524 -0.94700003 0.37
-22.499001 -19.559 -0.94499999 0.23999999
-22.357 -19.559 -0.94099998 0.38
-22.184999 -19.532 -0.935 0.31999999
-22.101 -19.580999 -0.93400002 0.28
-21.989 -19.605 -0.93199998 0.34
-21.865 -19.618 -0.92799997 0.28
-21.653999 -19.490999 -0.91900003 0.31
-21.615 -19.579 -0.92000002 0.30000001
-21.509001 -19.606001 -0.91799998 0.31
-21.382999 -19.614 -0.91500002 0.34
-21.23 -19.597 -0.91000003 0.30000001
-21.125999 -19.624001 -0.90799999 0.38
-20.983999 -19.615 -0.903 0.28
-20.759001 -19.466 -0.89300001 0.34
-20.681 -19.514999 -0.89200002 0.36000001
-20.663 -19.621 -0.89399999 0.23
-20.431 -19.523001 -0.88499999 0.38
-14.173 -13.618 -0.55400002 0.23
-14.099 -13.632 -0.55199999 0.25999999
-14.062 -13.681 -0.55199999 0.38
-14.03 -13.694 -0.55199999 0.54000002
-14.005 -13.756 -0.55299997 0.47
-19.938 -19.722 -0.87699997 0.15000001
-19.891001 -19.799 -0.87800002 0.31999999
-19.632 -19.665001 -0.86699998 0.38
-19.546 -19.702 -0.866 0.31999999
-19.511 -19.790001 -0.86699998 0.34
-19.414 -19.816 -0.86500001 0.28
-19.423 -19.888 -0.86799997 0.31999999
-19.266001 -19.851 -0.86199999 0.40000001
-19.167 -19.874001 -0.86000001 0.34999999
-19.097 -19.926001 -0.86000001 0.34
-18.982 -19.93 -0.85699999 0.31
-18.826 -19.891001 -0.852 0.38999999
-18.722 -19.844 -0.84799999 0.30000001
-18.603001 -19.843 -0.84500003 0.34999999
-18.518 -19.875999 -0.84299999 0.30000001
-18.488001 -19.969 -0.84500003 0.36000001
-18.639 -20.26 -0.85699999 0.28
-18.362 -20.084999 -0.84500003 0.28
-18.273001 -20.115 -0.84399998 0.28999999
-18.171 -20.065001 -0.83999997 0.34
-18.152 -20.299 -0.84600002 0.57999998
-17.933001 -20.181 -0.83700001 0.22
-18.549999 -21.01 -0.87599999 0.27000001
-18.629 -21.233 -0.88499999 0.27000001
-18.398001 -21.103001 -0.875 0.33000001
-18.389999 -21.160999 -0.87699997 0.41
-18.333 -21.23 -0.87699997 0.23
-18.165001 -21.17 -0.87099999 0.34999999
-18.069 -21.191999 -0.87 0.36000001
-17.138 -20.226 -0.81800002 0.30000001
-17.843 -21.194 -0.86400002 0.27000001
-16.969 -20.284 -0.815 0.41999999
-17.726999 -21.327999 -0.86500001 0.34
-17.584 -21.223 -0.85799998 0.30000001
-17.292 -21.003 -0.84500003 0.23
-16.441999 -20.098 -0.79699999 0.25999999
-16.482 -20.277 -0.80299997 0.38999999
-17.257 -21.368999 -0.85500002 0.30000001
-16.233999 -20.23 -0.796 0.25
-17.080999 -21.426001 -0.852 0.37
-16.108 -20.267 -0.79400003 0.31999999
-16.267 -20.6 -0.80800003 0.23999999
-16.097 -20.517 -0.801 0.27000001
-15.953 -20.465 -0.796 0.27000001
-15.737 -20.319 -0.787 0.36000001
-15.597 -20.27 -0.78200001 0.22
-15.12 -19.777 -0.75599998 0.27000001
-15.243 -20.003 -0.76499999 0.46000001
-15.302 -20.212 -0.773 0.25999999
-15.134 -20.121 -0.76700002 0.34999999
-15.015 -20.094999 -0.76300001 0.28
-14.926 -20.106001 -0.76099998 0.34
-14.806 -20.076 -0.75800002 0.34999999
-14.755 -20.138 -0.75800002 0.33000001
-14.758 -20.209999 -0.76099998 0.41999999
-14.595 -20.118999 -0.75400001 0.27000001
-14.518 -20.145 -0.75300002 0.40000001
-14.41 -20.129 -0.75 0.37
-14.37 -20.205999 -0.75199997 0.41
-14.28 -20.214001 -0.75 0.33000001
-14.149 -20.162001 -0.74599999 0.34
-14.074 -20.122 -0.74299997 0.34999999
-14.056 -20.232 -0.74599999 0.40000001
-13.964 -20.235001 -0.74400002 0.33000001
-13.854 -20.211 -0.741 0.30000001
-13.831 -20.313999 -0.74299997 0.38999999
-13.629 -20.152 -0.73400003 0.36000001
-13.645 -20.313999 -0.73900002 0.34999999
-13.399 -20.014999 -0.72500002 0.40000001
-13.467 -20.253 -0.73400003 0.31999999
-13.466 -20.391001 -0.73799998 0.34999999
-13.397 -20.426001 -0.73799998 0.41999999
-13.274 -20.378 -0.73400003 0.23
-13.439 -20.773001 -0.75 0.44
-13.352 -20.782 -0.74800003 0.28999999
-13.236 -20.673 -0.74199998 0.25
-13.031 -20.493999 -0.73199999 0.34
-12.941 -20.493999 -0.73000002 0.43000001
-12.848 -20.489 -0.72799999 0.40000001
-12.799 -20.554001 -0.72899997 0.31999999
-12.673 -20.493999 -0.72500002 0.38
-12.648 -20.599001 -0.72799999 0.40000001
-12.57 -20.542999 -0.72399998 0.38
-12.551 -20.658001 -0.72799999 0.43000001
-12.423 -20.593 -0.72299999 0.31
-12.287 -20.513 -0.71799999 0.49000001
-12.325 -20.724001 -0.72600001 0.25
-12.126 -20.535 -0.71499997 0.41
-12.093 -20.627001 -0.71799999 0.31999999
-12.081 -20.681999 -0.71899998 0.44999999
-12.056 -20.789 -0.722 0.40000001
-11.989 -20.823 -0.722 0.33000001
-11.904 -20.826 -0.72100002 0.44999999
-11.845 -20.875 -0.72100002 0.34
-11.739 -20.841 -0.71799999 0.33000001
-11.689 -20.906 -0.71899998 0.44
-11.662 -20.934999 -0.72000003 0.38999999
-11.462 -20.728001 -0.70899999 0.31999999
-11.371 -20.716999 -0.70700002 0.43000001
-11.34 -20.815001 -0.70999998 0.36000001
-11.16 -20.638 -0.69999999 0.38
-11.047 -20.583 -0.69700003 0.41
-11.221 -21.068001 -0.71600002 0.31
-10.872 -20.488001 -0.69 0.36000001
-10.838 -20.579 -0.69300002 0.40000001
-10.784 -20.634001 -0.69400001 0.41
-10.741 -20.711 -0.69499999 0.38999999
-10.704 -20.799 -0.69800001 0.47
-10.657 -20.868999 -0.699 0.33000001
-10.51 -20.74 -0.69199997 0.34
-10.516 -20.833 -0.69599998 0.38
-10.444 -20.853001 -0.69499999 0.38
-10.351 -20.83 -0.69300002 0.37
-10.349 -20.992001 -0.69800001 0.37
-10.256 -20.969999 -0.69599998 0.37
-10.238 -21.101999 -0.69999999 0.44999999
-10.076 -20.934 -0.69199997 0.34
-10.03 -20.922001 -0.69 0.44999999
-9.9040003 -20.826 -0.685 0.36000001
-9.8509998 -20.884001 -0.68599999 0.41999999
-9.7959995 -20.938 -0.68699998 0.27000001
-9.7209997 -20.948999 -0.68599999 0.41999999
-9.6409998 -20.948 -0.685 0.38999999
-9.6079998 -21.049999 -0.68800002 0.37
-9.5439997 -20.997 -0.685 0.41
-9.5469999 -21.18 -0.69199997 0.44
-9.5129995 -21.283001 -0.69499999 0.34999999
-9.5039997 -21.445 -0.69999999 0.34999999
-9.3470001 -21.268999 -0.69199997 0.40000001
-9.3140001 -21.377001 -0.69499999 0.38999999
-9.2700005 -21.459999 -0.69700003 0.41
-9.2679996 -21.548 -0.69999999 0.41999999
-9.191 -21.555 -0.699 0.23999999
-9.1000004 -21.528 -0.69700003 0.55000001
-9.0319996 -21.556999 -0.69700003 0.36000001
-8.8889999 -21.403999 -0.68900001 0.28999999
-8.9259996 -21.684999 -0.69999999 0.43000001
-8.7309999 -21.402 -0.68699998 0.31
-8.7559996 -21.559999 -0.69300002 0.40000001
-8.7849998 -21.829 -0.70300001 0.43000001
-8.677 -21.757999 -0.699 0.38999999
-8.6129999 -21.796 -0.699 0.25999999
-8.4359999 -21.544001 -0.68800002 0.23
-8.3719997 -21.58 -0.68800002 0.54000002
-8.4099998 -21.884001 -0.69999999 0.23999999
-8.2919998 -21.677 -0.69099998 0.23
-8.2209997 -21.695 -0.69 0.57999998
-8.4350004 -22.475 -0.72100002 0.28
-8.3380003 -22.43 -0.71899998 0.31999999
-8.0570002 -21.884001 -0.69499999 0.44
-8.1499996 -22.355 -0.713 0.23999999
-8.158 -22.596001 -0.722 0.47
-7.9619999 -22.160999 -0.704 0.25
-8.0299997 -22.573999 -0.72000003 0.31999999
-7.98 -22.66 -0.722 0.31
-7.9180002 -22.711 -0.72299999 0.46000001
-7.881 -22.836 -0.727 0.31
-7.8330002 -22.931 -0.73000002 0.47
-7.7610002 -22.952999 -0.73000002 0.28
-7.7119999 -22.927 -0.72899997 0.31999999
-7.6869998 -23.094 -0.73400003 0.28999999
-7.6209998 -23.139 -0.73500001 0.44999999
-7.5310001 -23.108999 -0.73299998 0.34
-7.46 -23.139 -0.73299998 0.34999999
-7.4060001 -23.219 -0.736 0.36000001
-7.3000002 -23.136999 -0.73100001 0.40000001
-7.2379999 -23.069 -0.72799999 0.40000001
-7.2750001 -23.445 -0.74199998 0.40000001
-7.171 -23.368 -0.73799998 0.38999999
-7.165 -23.614 -0.74699998 0.27000001
-7.033 -23.441 -0.73900002 0.5
-7.0170002 -23.660999 -0.74699998 0.28
-6.9770002 -23.798 -0.75199997 0.41
-6.9089999 -23.702999 -0.74800003 0.28
-6.8039999 -23.618999 -0.74400002 0.47
-6.7470002 -23.702 -0.74599999 0.38999999
-6.6430001 -23.617001 -0.74199998 0.28
-6.5869999 -23.705 -0.74400002 0.34
-6.4819999 -23.612 -0.74000001 0.25999999
-7.0149999 -25.882 -0.82999998 0.25999999
-6.941 -25.768999 -0.82499999 0.34
-6.849 -25.749001 -0.82300001 0.34
-6.7529998 -25.712 -0.82099998 0.31999999
-6.6609998 -25.691999 -0.81900001 0.30000001
-6.5679998 -25.663 -0.81699997 0.5
-6.4720001 -25.625 -0.815 0.28
-6.3559999 -25.5 -0.80900002 0.28
-6.29 -25.407 -0.80500001 0.38
-6.1929998 -25.355 -0.80199999 0.36000001
-6.1110001 -25.364 -0.80199999 0.31
-5.9889998 -25.202999 -0.79500002 0.16
-5.902 -25.190001 -0.79299998 0.38999999
-5.763 -24.950001 -0.78299999 0.19
-5.6290002 -24.719999 -0.773 0.23
-5.3740001 -24.124001 -0.74900001 0.57999998
-5.3169999 -24.226999 -0.75199997 0.19
-4.6859999 -21.999001 -0.66299999 0.38999999
-4.6929998 -22.379999 -0.67799997 0.20999999
-4.6479998 -22.516001 -0.68199998 0.22
-4.5549998 -22.240999 -0.671 0.22
-4.4899998 -22.277 -0.67199999 0.37
-4.467 -22.532 -0.68199998 0.37
-4.348 -22.295 -0.67199999 0.28
-4.2880001 -22.363001 -0.67400002 0.33000001
-4.1680002 -22.110001 -0.66299999 0.28
-4.1469998 -22.386 -0.67400002 0.28
-4.072 -22.174 -0.66500002 0.23999999
-4.0229998 -22.301001 -0.67000002 0.23
-4.0040002 -22.605 -0.68099999 0.31999999
-3.902 -22.438 -0.67400002 0.38
-3.8 -22.267 -0.667 0.25
-3.7379999 -22.326 -0.66900003 0.33000001
-3.6689999 -22.348 -0.66900003 0.23
-3.6210001 -22.271999 -0.66600001 0.28
-3.598 -22.576 -0.67699999 0.36000001
-3.5220001 -22.555 -0.676 0.31
-3.3629999 -21.985001 -0.653 0.28999999
-3.3280001 -22.225 -0.662 0.25999999
-3.244 -22.143 -0.65899998 0.33000001
-3.168 -22.107 -0.65700001 0.28999999
-3.165 -22.334 -0.66600001 0.41999999
-3.092 -22.327999 -0.66500002 0.23999999
-3.046 -22.516001 -0.67199999 0.41
-2.961 -22.416 -0.66799998 0.31
-2.8740001 -22.296 -0.66299999 0.25999999
-2.7880001 -22.174999 -0.65799999 0.28999999
-2.7049999 -22.072001 -0.653 0.37
-2.6500001 -22.205 -0.65799999 0.34999999
-2.619 -22.240999 -0.65899998 0.23
-2.572 -22.454 -0.667 0.38
-2.51 -22.534 -0.67000002 0.28
-2.4519999 -22.664 -0.67500001 0.44999999
-2.365 -22.517 -0.66900003 0.23
-2.276 -22.351 -0.662 0.34999999
-2.2190001 -22.128 -0.653 0.25
-2.1470001 -22.107 -0.65200001 0.31999999
-2.0829999 -22.174 -0.65499997 0.30000001
-1.4170001 -15.53 -0.39700001 0.23
-1.9579999 -22.357 -0.66100001 0.38
-1.897 -22.473 -0.66500002 0.31999999
-1.816 -22.353001 -0.66100001 0.37
-1.795 -22.528999 -0.667 0.27000001
-1.702 -22.243999 -0.65600002 0.25999999
-1.6289999 -22.197001 -0.65399998 0.31
-1.549 -22.059 -0.648 0.37
-1.482 -22.098 -0.64999998 0.30000001
-1.4170001 -22.184 -0.653 0.34
-1.354 -22.285999 -0.65700001 0.30000001
-1.323 -22.358 -0.65899998 0.31
-1.257 -22.438 -0.662 0.41
-1.192 -22.549 -0.667 0.38999999
-1.1109999 -22.353001 -0.65899998 0.28
-1.0369999 -22.268999 -0.65499997 0.30000001
-0.97100002 -22.358 -0.65899998 0.36000001
-0.89999998 -22.344999 -0.65799999 0.36000001
-0.86299998 -22.312 -0.65700001 0.36000001
-0.79400003 -22.333 -0.65700001 0.36000001
-0.72500002 -22.375 -0.65899998 0.38
-0.65200001 -22.298 -0.65600002 0.36000001
-0.58499998 -22.424999 -0.66100001 0.38
-0.514 -22.399 -0.66000003 0.37
-0.44400001 -22.399 -0.66000003 0.30000001
-0.41 -22.445 -0.66100001 0.38999999
-0.34 -22.497999 -0.66299999 0.38999999
-0.26899999 -22.455 -0.662 0.34999999
-0.19599999 -22.118 -0.64899999 0.30000001
-0.126 -22.225 -0.653 0.37
-0.057 -22.235001 -0.653 0.40000001
0.013 -22.225 -0.653 0.31999999
0.048 -22.052999 -0.64600003 0.33000001
0.117 -22.033001 -0.64499998 0.34
0.186 -22.096001 -0.648 0.38999999
0.257 -22.216 -0.65200001 0.31999999
0.329 -22.325001 -0.65700001 0.38
0.39899999 -22.337 -0.65700001 0.37
0.46900001 -22.332001 -0.65700001 0.38
0.50400001 -22.313 -0.65600002 0.34
0.57499999 -22.332001 -0.65700001 0.41
0.64399999 -22.316 -0.65700001 0.30000001
0.70300001 -21.978001 -0.64399999 0.37
0.778 -22.138 -0.64999998 0.31
0.84500003 -22.056999 -0.64700001 0.30000001
0.91799998 -22.146 -0.64999998 0.28999999
0.95200002 -22.131001 -0.64999998 0.44999999
1.021 -22.118 -0.64999998 0.31
1.086 -22.021 -0.64600003 0.37
1.1569999 -22.049 -0.64700001 0.33000001
1.237 -22.237 -0.65499997 0.30000001
1.308 -22.253 -0.65499997 0.33000001
1.383 -22.322001 -0.65799999 0.28999999
1.4119999 -22.23 -0.65499997 0.37
1.484 -22.266001 -0.65600002 0.31999999
1.55 -22.195 -0.65399998 0.34999999
1.6210001 -22.208 -0.65399998 0.34999999
1.676 -22.021999 -0.64700001 0.41999999
1.76 -22.198999 -0.65399998 0.25
1.817 -22.038 -0.648 0.40000001
1.864 -22.183001 -0.65399998 0.27000001
1.925 -22.075001 -0.64999998 0.34
2.0050001 -22.187 -0.65499997 0.34999999
2.069 -22.121 -0.65200001 0.36000001
2.1470001 -22.202999 -0.65600002 0.31999999
2.214 -22.169001 -0.65499997 0.40000001
2.286 -22.18 -0.65600002 0.40000001
2.326 -22.23 -0.65799999 0.38
2.402 -22.278 -0.66000003 0.38
2.474 -22.290001 -0.66100001 0.40000001
2.549 -22.322001 -0.662 0.40000001
2.625 -22.365 -0.66399997 0.28
2.7060001 -22.440001 -0.667 0.54000002
2.77 -22.379999 -0.66500002 0.33000001
2.783 -22.201 -0.65899998 0.31
2.8540001 -22.204 -0.65899998 0.41
2.934 -22.268999 -0.662 0.36000001
3 -22.232 -0.66100001 0.31
3.0569999 -22.131001 -0.65700001 0.41999999
3.164 -22.388 -0.66799998 0.31
3.233 -22.364 -0.667 0.36000001
3.267 -22.353001 -0.667 0.31
3.368 -22.549 -0.67500001 0.37
3.4300001 -22.476999 -0.67299998 0.41
3.4879999 -22.389 -0.67000002 0.37
3.553 -22.341999 -0.66799998 0.34
3.628 -22.360001 -0.66900003 0.34999999
3.684 -22.268 -0.66600001 0.37
3.711 -22.211 -0.66399997 0.34
3.78 -22.195 -0.66399997 0.40000001
3.865 -22.27 -0.667 0.38
3.951 -22.348 -0.671 0.34
4.0240002 -22.353001 -0.67199999 0.36000001
4.1030002 -22.389999 -0.67400002 0.41
4.1680002 -22.347 -0.67199999 0.33000001
4.2010002 -22.330999 -0.67199999 0.41999999
4.2870002 -22.4 -0.67500001 0.38
4.3579998 -22.386999 -0.67500001 0.36000001
4.4200001 -22.332001 -0.67400002 0.34
4.4790001 -22.263 -0.671 0.30000001
4.539 -22.200001 -0.67000002 0.40000001
4.6110001 -22.198999 -0.67000002 0.31999999
4.6960001 -22.427999 -0.67900002 0.34
4.7670002 -22.417 -0.68000001 0.36000001
4.8150001 -22.297001 -0.67500001 0.38
4.8930001 -22.319 -0.67699999 0.37
4.9499998 -22.243 -0.67400002 0.37
5.0300002 -22.274 -0.676 0.34
5.105 -22.281 -0.67699999 0.38999999
5.1360002 -22.256001 -0.67699999 0.36000001
5.2069998 -22.240999 -0.67699999 0.33000001
5.2789998 -22.235001 -0.67699999 0.34
5.362 -22.271999 -0.67900002 0.30000001
5.4289999 -22.246 -0.67900002 0.38999999
5.5089998 -22.268999 -0.68000001 0.40000001
5.5489998 -22.129999 -0.676 0.31999999
5.6069999 -22.214001 -0.67900002 0.34999999
5.6760001 -22.191999 -0.67900002 0.37
5.7600002 -22.229 -0.68099999 0.34
5.8299999 -22.214001 -0.68099999 0.31
5.9109998 -22.236 -0.68300003 0.41
5.9910002 -22.256001 -0.685 0.38999999
6.059 -22.232 -0.68400002 0.41
6.098 -22.233999 -0.685 0.34
6.1620002 -22.195 -0.68400002 0.43000001
6.25 -22.240999 -0.68699998 0.37
6.3369999 -22.281 -0.68900001 0.37
6.408 -22.263 -0.68900001 0.34999999
6.4879999 -22.278999 -0.69099998 0.33000001
6.5539999 -22.245001 -0.69 0.36000001
6.5900002 -22.239 -0.69 0.36000001
6.6599998 -22.218 -0.69 0.36000001
6.744 -22.243999 -0.69199997 0.36000001
6.8340001 -22.285999 -0.69499999 0.36000001
6.9289999 -22.344999 -0.69800001 0.38
7.0029998 -22.336 -0.69800001 0.36000001
7.0830002 -22.344999 -0.69999999 0.41999999
7.0999999 -22.275999 -0.69700003 0.37
7.1599998 -22.223 -0.69599998 0.36000001
7.2859998 -22.374001 -0.70300001 0.31999999
7.3800001 -22.423 -0.70599997 0.36000001
7.4419999 -22.372999 -0.70499998 0.41
7.5240002 -22.386 -0.70599997 0.38
7.585 -22.334999 -0.70499998 0.34
7.6139998 -22.306 -0.70499998 0.34
7.7010002 -22.33 -0.70700002 0.33000001
7.7719998 -22.306999 -0.70700002 0.43000001
7.862 -22.339001 -0.70899999 0.38
7.9660001 -22.41 -0.713 0.37
8.0360003 -22.385 -0.713 0.34
8.099 -22.339001 -0.71200001 0.36000001
8.1420002 -22.349001 -0.713 0.31999999
8.2150002 -22.329 -0.713 0.47999999
8.3120003 -22.375999 -0.71600002 0.31999999
8.4069996 -22.415001 -0.71899998 0.36000001
8.4720001 -22.374001 -0.71799999 0.40000001
8.5609999 -22.396999 -0.72000003 0.41
8.6389999 -22.391001 -0.72100002 0.34
8.6800003 -22.389999 -0.722 0.38999999
8.7670002 -22.406 -0.72399998 0.34999999
8.8570004 -22.427999 -0.72600001 0.36000001
8.9370003 -22.424 -0.727 0.41999999
9.0109997 -22.406 -0.727 0.34
9.0939999 -22.407 -0.72799999 0.40000001
9.1780005 -22.410999 -0.73000002 0.34999999
9.2180004 -22.41 -0.73000002 0.36000001
9.3190002 -22.455 -0.73299998 0.36000001
9.4099998 -22.473 -0.73500001 0.34999999
9.4849997 -22.454 -0.736 0.37
9.5780001 -22.476 -0.73799998 0.36000001
9.677 -22.514 -0.741 0.31999999
9.7449999 -22.476 -0.74000001 0.41
9.7840004 -22.469999 -0.741 0.37
9.875 -22.485001 -0.74299997 0.38
9.967 -22.500999 -0.745 0.38999999
10.058 -22.517 -0.74699998 0.31999999
10.145 -22.52 -0.74800003 0.40000001
10.23 -22.521 -0.75 0.30000001
10.316 -22.521 -0.75099999 0.47
10.372 -22.549999 -0.75300002 0.37
10.449 -22.530001 -0.75300002 0.34999999
10.541 -22.542 -0.755 0.37
10.631 -22.551001 -0.75700003 0.37
10.722 -22.559 -0.759 0.36000001
10.802 -22.545 -0.75999999 0.38999999
10.895 -22.556 -0.76200002 0.38999999
10.949 -22.577999 -0.76300001 0.34
11.012 -22.527 -0.76300001 0.38999999
11.129 -22.586 -0.76700002 0.38999999
11.221 -22.594 -0.76899999 0.31
11.307 -22.587 -0.76999998 0.44
11.413 -22.621 -0.773 0.34
11.503 -22.622 -0.77399999 0.38
11.568 -22.663 -0.77700001 0.38999999
11.659 -22.664 -0.77899998 0.37
11.742 -22.65 -0.77999997 0.36000001
11.834 -22.653999 -0.78100002 0.34
11.924 -22.652 -0.78299999 0.38999999
12.007 -22.636999 -0.78399998 0.37
12.089 -22.705 -0.78799999 0.38
12.176 -22.697001 -0.78899997 0.33000001
12.272 -22.704 -0.79100001 0.38999999
12.367 -22.707001 -0.79299998 0.37
12.469 -22.724001 -0.79500002 0.36000001
12.559 -22.718 -0.79699999 0.34
12.644 -22.705 -0.79799998 0.31
12.678 -22.681999 -0.79799998 0.41
12.777 -22.690001 -0.80000001 0.38
12.853 -22.659 -0.80000001 0.36000001
12.962 -22.684 -0.80299997 0.30000001
13.068 -22.704 -0.80599999 0.40000001
13.156 -22.691999 -0.80699998 0.28
13.228 -22.650999 -0.80699998 0.38
13.278 -22.575001 -0.80599999 0.41
13.376 -22.659 -0.81 0.34
13.482 -22.674999 -0.81300002 0.25999999
13.563 -22.65 -0.81400001 0.41
13.664 -22.656 -0.81599998 0.28999999
13.731 -22.607 -0.81599998 0.38
8.6120005 -14.097 -0.433 0.20999999
8.651 -14.061 -0.43200001 0.28999999
8.6660004 -14.036 -0.43200001 0.36000001
8.6999998 -13.993 -0.43099999 0.54000002
8.7600002 -13.991 -0.43200001 0.52999997
10.633 -16.739 -0.56 0.41999999
10.643 -16.638 -0.55699998 0.37
10.643 -16.580999 -0.55599999 0.47
10.693 -16.544001 -0.55500001 0.33000001
10.726 -16.482 -0.55400002 0.5
10.765 -16.427999 -0.55299997 0.31
10.816 -16.393999 -0.55299997 0.41
10.872 -16.367001 -0.55299997 0.47999999
10.92 -16.327999 -0.55299997 0.43000001
10.955 -16.323999 -0.55400002 0.43000001
11.016 -16.304001 -0.55500001 0.66000003
11.097 -16.313 -0.55699998 0.34
15.314 -22.343 -0.83999997 0.16
15.409 -22.330999 -0.84200001 0.17
15.483 -22.289 -0.84200001 0.1
15.586 -22.285999 -0.84399998 0.16
15.684 -22.278 -0.84600002 0.1
15.745 -22.289 -0.84799999 0.14
15.834 -22.267 -0.84899998 0.1
15.941 -22.27 -0.852 0.15000001
16.017 -22.228001 -0.852 0.090000004
16.108 -22.205999 -0.85399997 0.16
16.188 -22.17 -0.85399997 0.16
16.277 -22.145 -0.85500002 0.16
16.316 -22.125999 -0.85600001 0.1
16.440001 -22.146 -0.85900003 0.15000001
16.528999 -22.122 -0.861 0.16
16.617001 -22.094 -0.86199999 0.23
16.712999 -22.076 -0.86299998 0.25999999
16.799 -22.046 -0.86400002 0.25
16.855 -22.048 -0.866 0.25999999
16.958 -22.038 -0.86799997 0.25
17.045 -22.007999 -0.86900002 0.23999999
17.127001 -21.969999 -0.87 0.25
17.218 -21.945 -0.87099999 0.27000001
17.306 -21.916 -0.87300003 0.25
17.400999 -21.893999 -0.87400001 0.25
17.466 -21.903999 -0.87599999 0.11
17.573999 -21.899 -0.87800002 0.16
17.684999 -21.895 -0.88099998 0.17
17.787001 -21.881001 -0.88300002 0.16
17.884001 -21.858999 -0.88499999 0.16
17.973 -21.827 -0.88599998 0.16
18.084999 -21.823 -0.889 0.16
18.139 -21.819 -0.88999999 0.1
18.237 -21.797001 -0.89200002 0
18.372 -21.818001 -0.89600003 0.13
16.333 -19.278 -0.76999998 0.16
16.417999 -19.256001 -0.77200001 0.19
16.407 -19.121 -0.76700002 0.23999999
16.459999 -19.061001 -0.76700002 0.27000001
16.687 -19.261999 -0.778 0.31999999
16.708 -19.164 -0.77600002 0.31
16.802999 -19.152 -0.778 0.28999999
16.906 -19.146999 -0.78100002 0.27000001
16.950001 -19.076 -0.77999997 0.28999999
16.931 -18.934999 -0.77499998 0.31999999
16.877001 -18.756001 -0.76899999 0.30000001
16.924 -18.747999 -0.76999998 0.36000001
16.964001 -18.674 -0.76899999 0.25999999
17.059 -18.660999 -0.77100003 0.33000001
17.104 -18.591999 -0.76999998 0.27000001
17.202999 -18.583 -0.77200001 0.41999999
17.268 -18.535999 -0.773 0.28999999
17.395 -18.554001 -0.77600002 0.33000001
17.187 -18.275 -0.76300001 0.25999999
17.152 -18.124001 -0.75800002 0.30000001
17.17 -18.028999 -0.75599998 0.34
17.264999 -18.016001 -0.75800002 0.36000001
17.403999 -18.046 -0.76200002 0.28999999
17.441999 -17.973 -0.76099998 0.31999999
17.475 -17.893999 -0.75999999 0.37
17.584999 -17.950001 -0.76499999 0.33000001
17.667999 -17.922001 -0.76599997 0.37
17.591 -17.732 -0.759 0.27000001
17.73 -17.76 -0.76300001 0.23
17.961 -17.879 -0.773 0.30000001
17.905001 -17.711 -0.76700002 0.27000001
18.132999 -17.823999 -0.77600002 0.34
18.153999 -17.789 -0.77600002 0.28999999
18.27 -17.790001 -0.77899998 0.33000001
18.313 -17.719999 -0.778 0.27000001
18.399 -17.691999 -0.77999997 0.31999999
18.569 -17.743 -0.78600001 0.30000001
18.598 -17.66 -0.78500003 0.30000001
18.648001 -17.596001 -0.78399998 0.36000001
18.650999 -17.542999 -0.78299999 0.33000001
18.742001 -17.518 -0.78500003 0.31999999
18.75 -17.416 -0.78299999 0.30000001
18.941 -17.483 -0.79000002 0.34
19.014999 -17.441 -0.79100001 0.31
19.146999 -17.451 -0.79500002 0.38
19.245001 -17.43 -0.79699999 0.31
19.275 -17.402 -0.79699999 0.31999999
19.26 -17.278999 -0.79299998 0.31999999
19.344 -17.245001 -0.79500002 0.36000001
19.405001 -17.190001 -0.79500002 0.34
19.573 -17.23 -0.801 0.27000001
19.709999 -17.24 -0.80500001 0.41
19.781 -17.193001 -0.80599999 0.30000001
19.792999 -17.149 -0.80599999 0.41
19.806 -17.051001 -0.80299997 0.31
19.983999 -17.094999 -0.81 0.23
20.089001 -17.076 -0.81199998 0.34
20.136 -17.007999 -0.81199998 0.31999999
20.165001 -16.924 -0.81099999 0.34
20.337999 -16.959999 -0.81699997 0.28999999
20.4 -16.958 -0.81900001 0.30000001
20.554001 -16.976 -0.824 0.38
20.750999 -17.028999 -0.83099997 0.34999999
20.843 -16.996 -0.833 0.28
20.868 -16.907 -0.83099997 0.28999999
20.955 -16.868999 -0.833 0.31
21.079 -16.914 -0.838 0.30000001
21.202 -16.903 -0.84100002 0.23
21.413 -16.962 -0.84899998 0.38
21.52 -16.937 -0.852 0.31999999
21.57 -16.865999 -0.852 0.34
21.558001 -16.747999 -0.84799999 0.25999999
21.725 -16.768 -0.85399997 0.27000001
21.895 -16.844999 -0.861 0.25
21.787001 -16.653999 -0.85299999 0.34999999
22.004999 -16.711 -0.861 0.18000001
21.877001 -16.506001 -0.852 0.14
21.882999 -16.402 -0.85000002 0.57999998
22.101999 -16.458 -0.85799998 0.23999999
22.514 -16.655001 -0.87599999 0.27000001
22.655001 -16.649 -0.88 0.25999999
22.712 -16.636 -0.88099998 0.28
22.837 -16.617001 -0.88499999 0.38
22.856001 -16.521999 -0.88300002 0.27000001
22.999001 -16.514999 -0.88800001 0.30000001
22.955999 -16.375999 -0.88300002 0.31999999
23.138 -16.396 -0.889 0.25999999
23.334 -16.424 -0.89600003 0.30000001
23.351 -16.382 -0.89600003 0.28999999
23.322001 -16.253 -0.89200002 0.25
23.052999 -15.851 -0.875 0.57999998
23.559 -16.089001 -0.89600003 0.23
23.726 -16.094999 -0.90100002 0.25999999
23.666 -15.946 -0.89600003 0.27000001
23.784 -15.971 -0.89999998 0.30000001
24.118 -16.084999 -0.91399997 0.31999999
24.302 -16.098 -0.92000002 0.23999999
24.281 -15.974 -0.91600001 0.34
24.549999 -16.041 -0.92699999 0.28999999
24.664 -16.004999 -0.92900002 0.27000001
24.711 -15.98 -0.93000001 0.30000001
24.837 -15.951 -0.93400002 0.28999999
24.865 -15.859 -0.93300003 0.31
25.023001 -15.849 -0.93800002 0.28
25.055 -15.76 -0.93699998 0.34999999
25.389999 -15.858 -0.94999999 0.28
25.49 -15.81 -0.95200002 0.34
25.548 -15.79 -0.954 0.17
9.4090004 -5.7940001 -0.222 0.34
9.3909998 -5.7420001 -0.22 0.67000002
9.3780003 -5.6939998 -0.219 0.75
9.382 -5.6560001 -0.21799999 0.77999997
9.3900003 -5.6209998 -0.21799999 0.81
9.4040003 -5.5890002 -0.21799999 0.81
9.4130001 -5.5739999 -0.21799999 0.80000001
9.4469995 -5.5549998 -0.219 0.75999999
9.4680004 -5.527 -0.219 0.81
9.7069998 -5.625 -0.229 0.57999998
27.563999 -15.802 -1.021 0.16
27.610001 -15.714 -1.021 0.31999999
27.716 -15.659 -1.023 0.31999999
27.788 -15.642 -1.025 0.23
28.000999 -15.646 -1.033 0.27000001
28.041 -15.553 -1.0319999 0.2
28.122999 -15.484 -1.034 0.12
28.358 -15.497 -1.0420001 0.17
28.632999 -15.53 -1.052 0.30000001
28.896 -15.555 -1.061 0.27000001
29.164 -15.64 -1.072 0.16
29.412001 -15.654 -1.08 0.36000001
29.629 -15.651 -1.0880001 0.20999999
29.634001 -15.534 -1.086 0.17
29.77 -15.486 -1.09 0.47999999
30.021 -15.497 -1.098 0.19
30.08 -15.408 -1.099 0.090000004
30.822001 -15.726 -1.13 0.16
30.983 -15.686 -1.135 0
28.885 -14.512 -1.0420001 0
29.117001 -14.514 -1.05 0
29.438 -14.558 -1.062 0
29.877001 -14.658 -1.079 0
30.322001 -14.758 -1.096 0.12
30.594999 -14.832 -1.107 0
30.613001 -14.722 -1.105 0
30.618999 -14.606 -1.104 0
30.648001 -14.503 -1.103 0
30.698999 -14.409 -1.103 0
30.695 -14.289 -1.101 0
30.722 -14.185 -1.1 0
30.728001 -14.129 -1.1 0
30.743 -14.019 -1.099 0
30.774 -13.917 -1.098 0
32.488998 -14.568 -1.169 0
29.648001 -13.185 -1.0470001 0
29.875999 -13.174 -1.0549999 0
30.358999 -13.272 -1.073 0
30.774 -13.396 -1.09 0
31.209999 -13.469 -1.1059999 0
31.655001 -13.543 -1.123 0
32.111 -13.618 -1.141 0
32.453999 -13.643 -1.153 0
32.563 -13.569 -1.156 0
32.744999 -13.524 -1.1619999 0
32.752998 -13.467 -1.161 0
32.852001 -13.387 -1.164 0
32.935001 -13.301 -1.165 0
32.993 -13.204 -1.166 0
33.18 -13.157 -1.1720001 0.059999999
33.23 -13.057 -1.1720001 0.079999998
33.414001 -13.008 -1.178 0
33.582001 -13.012 -1.184 0
33.319 -12.79 -1.1720001 0
33.632999 -12.79 -1.183 0
33.842999 -12.748 -1.1900001 0
33.952999 -12.667 -1.193 0.11
33.944 -12.543 -1.191 0
34.214001 -12.52 -1.2 0
32.250999 -11.632 -1.118 0
32.953999 -11.768 -1.145 0
33.462002 -11.83 -1.164 0
34.623001 -11.996 -1.209 0.28
34.709999 -11.904 -1.211 0
34.761002 -11.86 -1.212 0.13
34.887001 -11.781 -1.215 0.22
34.908001 -11.666 -1.215 0
35.241001 -11.654 -1.227 0
35.165001 -11.507 -1.222 0
35.183998 -11.391 -1.222 0
35.167 -11.263 -1.219 0
35.084999 -11.177 -1.215 0
32.823002 -10.344 -1.123 0
33.233002 -10.358 -1.138 0
34.231998 -10.551 -1.177 0
35.034 -10.677 -1.2079999 0
35.528 -10.706 -1.226 0
35.610001 -10.608 -1.228 0
35.627998 -10.553 -1.228 0
35.391998 -10.363 -1.2180001 0
35.391998 -10.242 -1.216 0.13
35.595001 -10.179 -1.223 0.090000004
32.990002 -9.2130003 -1.1160001 0.16
33.254002 -9.1739998 -1.126 0.090000004
32.534 -8.9209995 -1.096 0.079999998
32.199001 -8.7200003 -1.082 0.14
32.030998 -8.5670004 -1.074 0.17
31.893999 -8.4230003 -1.068 0.18000001
33.212002 -8.6590004 -1.119 0.18000001
32.549999 -8.3780003 -1.092 0.23999999
33.792999 -8.5830002 -1.14 0
27.684 -6.9899998 -0.89700001 0.059999999
27.216999 -6.7820001 -0.87699997 0.14
27.698 -6.717 -0.89499998 0.23999999
27.579 -6.5960002 -0.889 0.38
36.436001 -8.585 -1.239 0.2
37.205002 -8.6429996 -1.268 0.22
37.500999 -8.6490002 -1.28 0
37.780998 -8.5889997 -1.29 0
38.040001 -8.5220003 -1.299 0
38.199001 -8.4320002 -1.304 0
38.363998 -8.342 -1.309 0
38.467999 -8.2379999 -1.313 0
38.588001 -8.1370001 -1.316 0
38.691002 -8.0950003 -1.3200001 0
38.834999 -7.9980001 -1.324 0
38.952 -7.8940001 -1.3279999 0
39.073002 -7.7909999 -1.332 0
39.16 -7.6799998 -1.334 0
39.235001 -7.5669999 -1.336 0
39.331001 -7.4569998 -1.339 0
39.445 -7.415 -1.3430001 0
39.435001 -7.2849998 -1.342 0.090000004
36.966 -6.71 -1.244 0.16
36.691002 -6.5419998 -1.233 0.41999999
36.511002 -6.3909998 -1.225 0.25
32.77 -5.6329999 -1.0779999 0.23
32.567001 -5.493 -1.069 0.28
32.408001 -5.414 -1.063 0.27000001
32.34 -5.2989998 -1.059 0.28999999
32.248001 -5.1799998 -1.0549999 0.28999999
32.144001 -5.059 -1.05 0.28999999
32.058998 -4.9429998 -1.046 0.30000001
31.987 -4.829 -1.043 0.30000001
31.905001 -4.7140002 -1.039 0.28999999
31.83 -4.652 -1.036 0.30000001
31.763 -4.5409999 -1.033 0.30000001
31.722 -4.4330001 -1.031 0.31
31.691999 -4.3270001 -1.029 0.30000001
31.642 -4.2199998 -1.027 0.28
31.611 -4.1139998 -1.025 0.31
31.586 -4.0100002 -1.023 0.30000001
31.593 -3.961 -1.023 0.30000001
31.597 -3.8610001 -1.023 0.30000001
31.613001 -3.7620001 -1.023 0.30000001
31.631001 -3.6630001 -1.024 0.28999999
31.632 -3.563 -1.023 0.23999999
20.183001 -2.1860001 -0.579 0.99000001
20.155001 -2.119 -0.57700002 0.99000001
20.15 -2.0550001 -0.57700002 0.99000001
20.089001 -1.985 -0.574 0.99000001
20.061001 -1.919 -0.57300001 0.62
43.604 -4.0009999 -1.484 0.28999999
43.644001 -3.8670001 -1.485 0.19
43.672001 -3.8 -1.4859999 0.14
43.771 -3.6700001 -1.489 0.079999998
27.844999 -2.0799999 -0.87199998 0.91000003
27.743999 -1.985 -0.86799997 0.99000001
27.993 -1.914 -0.87800002 0.77999997
27.542999 -1.7970001 -0.86000001 0
27.649 -1.76 -0.86400002 0
39.980999 -2.2820001 -1.34 0
39.952 -2.154 -1.3380001 0
44.259998 -2.244 -1.5039999 0
43.776001 -2.082 -1.485 0
43.796001 -1.9450001 -1.4859999 0
43.794998 -1.876 -1.4859999 0
43.948002 -1.744 -1.492 0
44.446999 -1.624 -1.511 0
44.486 -1.485 -1.512 0
44.481998 -1.345 -1.512 0
44.535999 -1.207 -1.513 0
44.574001 -1.138 -1.515 0
44.634998 -0.99900001 -1.517 0
44.706001 -0.86000001 -1.52 0
44.769001 -0.72100002 -1.522 0
44.870998 -0.58099997 -1.526 0
44.916 -0.44100001 -1.528 0
44.965 -0.30000001 -1.529 0
45.049999 -0.23 -1.533 0
45.161999 -0.088 -1.5369999 0
39.783001 0.123 -1.566 0
39.841999 0.248 -1.568 0
39.889 0.373 -1.571 0
39.909 0.49900001 -1.572 0
39.908001 0.62400001 -1.572 0
39.908001 0.75 -1.572 0
39.924 0.81300002 -1.572 0
39.886002 0.93699998 -1.571 0
39.900002 1.063 -1.572 0
39.938999 1.1900001 -1.574 0
39.987 1.317 -1.576 0
40.028 1.444 -1.5779999 0
40.066002 1.572 -1.58 0
40.103001 1.636 -1.582 0
40.144001 1.7640001 -1.584 0
40.206001 1.893 -1.587 0
40.241001 2.0220001 -1.5880001 0
40.261002 2.1489999 -1.59 0
40.290001 2.2780001 -1.591 0
40.327999 2.4070001 -1.5930001 0
40.366001 2.473 -1.595 0
40.431999 2.605 -1.598 0
40.481998 2.7360001 -1.601 0
40.550999 2.868 -1.604 0
40.640999 3.003 -1.609 0
40.794998 3.1429999 -1.6160001 0
40.723 3.266 -1.613 0
40.960999 3.3499999 -1.624 0
41.117001 3.493 -1.632 0
41.243 3.6340001 -1.638 0
41.379002 3.777 -1.6440001 0
41.493999 3.9189999 -1.65 0
41.603001 4.0609999 -1.656 0
41.721001 4.2049999 -1.661 0
41.807999 4.2800002 -1.666 0
41.903999 4.4219999 -1.671 0
41.980999 4.5640001 -1.675 0
42.091999 4.71 -1.6799999 0
42.203999 4.8559999 -1.686 0
42.317001 5.0040002 -1.692 0
42.458 5.1560001 -1.699 0
42.583 5.2389998 -1.705 0
42.716999 5.3920002 -1.711 0
42.824001 5.5419998 -1.717 0
42.945 5.6950002 -1.723 0
43.063999 5.848 -1.729 0
43.172001 6.0009999 -1.735 0
43.303001 6.158 -1.742 0
43.438 6.2459998 -1.748 0
43.588001 6.408 -1.756 0
43.755001 6.573 -1.7640001 0
43.889 6.7340002 -1.771 0
43.987999 6.8899999 -1.777 0
44.116001 7.052 -1.783 0
44.217999 7.211 -1.789 0
44.303001 7.296 -1.793 0
44.428001 7.46 -1.8 0
44.540001 7.6230001 -1.806 0
44.691002 7.7930002 -1.814 0
44.891998 7.974 -1.824 0
45.074001 8.1520004 -1.834 0
45.216999 8.3249998 -1.841 0
45.327 8.4180002 -1.847 0
45.483002 8.5950003 -1.855 0
45.603001 8.7659998 -1.862 0
45.707001 8.9350004 -1.868 0
45.733002 9.0900002 -1.87 0
45.856998 9.2639999 -1.877 0
46.227001 9.4899998 -1.895 0
46.465 9.6140003 -1.9069999 0
46.583 9.7910004 -1.914 0
46.705002 9.9700003 -1.92 0
46.841 10.153 -1.928 0
46.917999 10.324 -1.933 0
46.985001 10.494 -1.938 0
47.053001 10.664 -1.942 0
47.265999 10.791 -1.9529999 0
47.556999 11.014 -1.9680001 0
47.792999 11.227 -1.98 0
47.912998 11.414 -1.987 0
47.952 11.583 -1.9910001 0
48.002998 11.754 -1.995 0
48.09 11.936 -2 0
48.258999 12.058 -2.0090001 0
48.436001 12.264 -2.0190001 0
49.199001 12.622 -2.0550001 0
48.856998 12.698 -2.0420001 0
48.509998 12.77 -2.027 0
48.474998 12.924 -2.0280001 0
48.507999 13.096 -2.0309999 0
48.441002 13.16 -2.029 0
48.404999 13.314 -2.029 0
48.380001 13.47 -2.03 0
48.289001 13.609 -2.0280001 0
48.216 13.752 -2.026 0
48.101002 13.883 -2.023 0
47.983002 14.012 -2.02 0
47.299 14.055 -1.9910001 0
47.118999 14.163 -1.985 0
46.979 14.282 -1.98 0
46.955002 14.436 -1.9809999 0
46.699001 14.518 -1.971 0.1
46.341999 14.567 -1.957 0.090000004
46.081001 14.565 -1.946 0.14
45.763 14.623 -1.933 0.11
45.553001 14.714 -1.926 0.17
45.431 14.832 -1.9220001 0.30000001
45.344002 14.961 -1.92 0.27000001
45.191002 15.068 -1.915 0.25
45.146999 15.212 -1.915 0.11
45.188999 15.305 -1.918 0.15000001
45.182999 15.461 -1.92 0.30000001
45.185001 15.62 -1.923 0.27000001
45.167999 15.774 -1.924 0.25
45.110001 15.913 -1.924 0.19
45.062 16.055 -1.924 0.16
45.148998 16.246 -1.931 0.090000004
45.120998 16.316 -1.9299999 0
45.205002 16.507 -1.937 0
45.202 16.667 -1.939 0
45.210999 16.832001 -1.942 0.07
45.167 16.976999 -1.943 0
45.126999 17.124001 -1.943 0
45.188 17.309999 -1.949 0
45.144001 17.374001 -1.948 0
45.154999 17.541 -1.951 0
45.139999 17.698999 -1.9529999 0
45.125 17.857 -1.955 0.090000004
30.249001 12.09 -1.245 0
45.159 18.198999 -1.962 0
45.157001 18.364 -1.965 0
45.137001 18.438 -1.965 0
45.129002 18.6 -1.967 0
45.106998 18.757 -1.969 0
45.064999 18.906 -1.97 0
44.952999 19.025999 -1.967 0
44.963001 19.197001 -1.971 0.059999999
44.988998 19.375 -1.975 0.090000004
45.012001 19.469 -1.978 0
44.972 19.618999 -1.979 0
44.737 19.684 -1.97 0
44.321999 19.667999 -1.9529999 0.059999999
22.139 10.09 -0.87900001 0.89999998
22.077999 10.104 -0.87599999 0.99000001
22.07 10.184 -0.87699997 0.99000001
22.038 10.253 -0.87699997 0.99000001
22.226 10.426 -0.88800001 0.62
29.695999 14.034 -1.257 0.14
29.652 14.127 -1.257 0.43000001
29.566 14.2 -1.255 0.16
28.944 13.958 -1.226 0.38
28.906 14.052 -1.226 0.19
29.138 14.278 -1.24 0.17
28.993999 14.321 -1.235 0.43000001
28.905001 14.389 -1.232 0.25
28.695 14.398 -1.224 0.23
28.23 14.276 -1.2029999 0.20999999
27.908001 14.169 -1.188 0.27000001
27.768 14.207 -1.184 0.25999999
27.740999 14.304 -1.1849999 0.28
27.545 14.313 -1.177 0.19
27.424 14.359 -1.173 0.27000001
27.396 14.455 -1.174 0.28
27.285 14.451 -1.17 0.31
27.313 14.576 -1.173 0.30000001
27.301001 14.68 -1.175 0.25999999
27.367001 14.826 -1.181 0.36000001
27.343 14.925 -1.182 0.30000001
27.278999 15.001 -1.181 0.31
27.275 15.111 -1.183 0.17
27.250999 15.154 -1.183 0.33000001
27.681999 15.506 -1.2079999 0.16
27.743999 15.656 -1.2130001 0.23
27.858 15.836 -1.222 0.22
27.836 15.939 -1.223 0.20999999
26.461 15.264 -1.155 0.19
26.393999 15.336 -1.154 0.40000001
26.398001 15.393 -1.156 0.38999999
38.405998 22.544001 -1.777 0.27000001
38.387001 22.695 -1.78 0.31999999
38.383999 22.857 -1.783 0.30000001
38.367001 23.01 -1.786 0.31
38.361 23.171 -1.79 0.31
38.356998 23.332001 -1.793 0.31
38.355 23.497 -1.7970001 0.31999999
38.368999 23.587999 -1.8 0.31
38.370998 23.756001 -1.804 0.30000001
38.354 23.912001 -1.807 0.31
38.341 24.072001 -1.8099999 0.30000001
38.341 24.24 -1.814 0.30000001
38.334 24.403999 -1.818 0.30000001
