# .PCD v0.7 - Point Cloud Data file format
VERSION 0.7
FIELDS x y z intensity
SIZE 4 4 4 4
TYPE F F F F
COUNT 1 1 1 1
WIDTH 1438
HEIGHT 1
VIEWPOINT 0 0 0 1 0 0 0
POINTS 1438
DATA ascii
-18.603001 -0.67699999 -2.086 0
-18.603001 -0.736 -2.086 0.07
-18.587 -0.79400003 -2.085 0.18000001
-18.608 -0.85299999 -2.0880001 0.20999999
-18.570999 -0.91000003 -2.0829999 0.18000001
-18.59 -0.97000003 -2.086 0.22
-18.577 -1.027 -2.085 0.19
-18.586 -1.057 -2.086 0.23
-18.556 -1.114 -2.0829999 0.19
-18.58 -1.174 -2.086 0.20999999
-18.563 -1.2309999 -2.085 0.18000001
-18.580999 -1.291 -2.0869999 0.12
-18.561001 -1.349 -2.085 0.17
-18.559999 -1.4069999 -2.086 0.12
-18.548 -1.4349999 -2.085 0.16
-18.552999 -1.495 -2.086 0.12
-18.542999 -1.552 -2.085 0.16
-18.538 -1.6109999 -2.085 0.12
-18.528999 -1.668 -2.085 0.16
-18.528999 -1.727 -2.085 0.12
-18.493999 -1.783 -2.082 0.15000001
-18.503 -1.813 -2.0829999 0.12
-18.489 -1.87 -2.082 0.17
-18.48 -1.928 -2.082 0.28
-18.469 -1.985 -2.0810001 0
-18.431999 -2.04 -2.0769999 0.050000001
-18.433001 -2.099 -2.0780001 0.18000001
-18.434 -2.1570001 -2.079 0.20999999
-18.423 -2.1849999 -2.0780001 0.19
-18.434 -2.2460001 -2.0810001 0.22
-18.409 -2.3010001 -2.0780001 0.18000001
-18.417 -2.3610001 -2.0799999 0.34
-18.42 -2.4200001 -2.082 0.19
-18.424 -2.48 -2.0829999 0.37
-18.424 -2.5090001 -2.0829999 0.19
-18.438999 -2.5699999 -2.086 0.13
-18.438999 -2.6289999 -2.0869999 0.16
-18.445999 -2.6900001 -2.089 0.30000001
-18.441999 -2.7479999 -2.0899999 0.27000001
-18.433001 -2.806 -2.0899999 0.25999999
-18.455 -2.869 -2.0940001 0.23999999
-18.492001 -2.904 -2.099 0.25
-18.495001 -2.964 -2.0999999 0.11
-18.521999 -3.029 -2.105 0
-18.538 -3.0910001 -2.108 0.11
-18.546 -3.152 -2.1099999 0.090000004
-18.554001 -3.214 -2.112 0.090000004
-18.549 -3.273 -2.1129999 0.090000004
-18.533001 -3.3299999 -2.112 0.090000004
-18.535999 -3.3610001 -2.1129999 0.090000004
-18.523001 -3.418 -2.1129999 0.079999998
-18.507999 -3.4760001 -2.1129999 0.090000004
-18.503 -3.5350001 -2.1129999 0.090000004
-18.49 -3.5929999 -2.1129999 0.079999998
-18.455 -3.6459999 -2.1099999 0.079999998
-18.436001 -3.6730001 -2.109 0.090000004
-18.417 -3.7290001 -2.108 0.090000004
-18.400999 -3.786 -2.1070001 0.14
-18.364 -3.8380001 -2.1040001 0.090000004
-18.346001 -3.895 -2.1029999 0.15000001
-18.304001 -3.9460001 -2.0999999 0.090000004
-18.298 -4.0050001 -2.0999999 0.15000001
-18.275999 -4.0300002 -2.098 0.16
-18.263 -4.0879998 -2.098 0.18000001
-18.238001 -4.1420002 -2.0969999 0.18000001
-18.261999 -4.2080002 -2.102 0.40000001
-18.245001 -4.2649999 -2.1010001 0.23999999
-18.247 -4.3260002 -2.1029999 0.20999999
-18.235001 -4.3829999 -2.1029999 0
-18.242001 -4.415 -2.105 0.13
-18.237 -4.4749999 -2.1059999 0.2
-18.239 -4.5359998 -2.108 0.38
-18.216999 -4.5910001 -2.1070001 0.19
-18.221001 -4.6529999 -2.1099999 0.38
-18.202999 -4.71 -2.109 0.2
-18.209 -4.7719998 -2.112 0.23999999
-18.194 -4.7989998 -2.1110001 0.2
-18.205 -4.8629999 -2.1140001 0.22
-18.181999 -4.9180002 -2.1129999 0.18000001
-18.198999 -4.9840002 -2.1170001 0.22
-18.174 -5.039 -2.1159999 0.18000001
-18.184999 -5.1040001 -2.1199999 0.20999999
-18.169001 -5.1609998 -2.1199999 0.17
-18.167999 -5.191 -2.1210001 0.31999999
-18.148001 -5.2470002 -2.1199999 0.2
-18.132 -5.3039999 -2.1199999 0.18000001
-18.111 -5.3600001 -2.1199999 0.23
-18.069 -5.4099998 -2.1159999 0.2
-18.047001 -5.4650002 -2.1159999 0.17
-18.044001 -5.526 -2.118 0.40000001
-18.013 -5.5469999 -2.115 0.22
-17.992001 -5.6030002 -2.1140001 0.25999999
-17.978001 -5.6599998 -2.115 0.23999999
-17.952 -5.7140002 -2.1140001 0.34
-17.959 -5.7789998 -2.1170001 0.23
-17.952 -5.8390002 -2.118 0.25999999
-17.92 -5.8909998 -2.1170001 0.25999999
-17.919001 -5.921 -2.118 0.2
-17.915001 -5.9829998 -2.1199999 0.41
-17.889999 -6.0370002 -2.119 0.23
-17.836 -6.0809999 -2.1140001 0.23
-17.771 -6.1209998 -2.108 0.33000001
-17.777 -6.1859999 -2.112 0.34999999
-17.653999 -6.2049999 -2.098 0.28999999
-17.457001 -6.1669998 -2.0739999 0.28999999
-17.281 -6.165 -2.053 0.27000001
-17.082001 -6.1539998 -2.03 0.28999999
-16.903999 -6.1500001 -2.0090001 0.28
-16.749001 -6.1529999 -1.9910001 0.28
-16.702999 -6.1960001 -1.988 0.23999999
-16.679001 -6.217 -1.9859999 0.18000001
-16.667999 -6.2729998 -1.987 0.34
-16.558001 -6.29 -1.975 0.38999999
-16.481001 -6.3200002 -1.9680001 0.38
-16.448999 -6.3670001 -1.966 0.41
-16.267 -6.355 -1.9450001 0.30000001
-16.132 -6.3610001 -1.9299999 0.36000001
-16.108999 -6.381 -1.928 0.43000001
-16.191999 -6.473 -1.942 0.33000001
-16.243999 -6.553 -1.951 0.43000001
-15.957 -6.4949999 -1.916 0.34999999
-15.949 -6.5510001 -1.918 0.31999999
-15.93 -6.6009998 -1.918 0.31999999
-16.028 -6.7010002 -1.934 0.40000001
-15.974 -6.7080002 -1.928 0.38999999
-15.891 -6.7319999 -1.919 0.28999999
-15.935 -6.8099999 -1.928 0.38999999
-15.912 -6.8590002 -1.928 0.28999999
-15.799 -6.869 -1.916 0.43000001
-15.728 -6.8969998 -1.909 0.43000001
-15.64 -6.9169998 -1.9 0.25999999
-15.687 -6.967 -1.908 0.49000001
-15.525 -6.954 -1.8890001 0.33000001
-15.545 -7.0219998 -1.895 0.46000001
-15.487 -7.0539999 -1.89 0.31
-15.578 -7.1550002 -1.905 0.28999999
-15.46 -7.1589999 -1.892 0.34999999
-15.385 -7.1830001 -1.885 0.46000001
-15.232 -7.1409998 -1.8660001 0.27000001
-15.296 -7.2290001 -1.878 0.40000001
-15.228 -7.256 -1.872 0.38
-15.168 -7.2859998 -1.867 0.28999999
-15.184 -7.3520002 -1.872 0.30000001
-15.223 -7.4310002 -1.88 0.40000001
-15.257 -7.507 -1.888 0.28999999
-15.146 -7.4809999 -1.875 0.36000001
-14.987 -7.461 -1.8559999 0.34
-15.139 -7.5970001 -1.88 0.27000001
-14.933 -7.552 -1.855 0.34999999
-14.845 -7.566 -1.846 0.51999998
-14.889 -7.6469998 -1.8559999 0.33000001
-14.762 -7.6409998 -1.841 0.27000001
-14.808 -7.6939998 -1.85 0.40000001
-14.763 -7.73 -1.847 0.41999999
-14.59 -7.697 -1.826 0.30000001
-14.663 -7.7950001 -1.84 0.41
-14.641 -7.842 -1.84 0.36000001
-14.642 -7.902 -1.8430001 0.43000001
-14.547 -7.9099998 -1.834 0.34
-14.448 -7.8850002 -1.821 0.41
-14.414 -7.9260001 -1.8200001 0.38
-14.445 -8.0019999 -1.8279999 0.33000001
-14.198 -7.9229999 -1.7970001 0.37
-14.235 -8.0030003 -1.806 0
-5.349 -3.1559999 -0.56300002 0
-5.3709998 -3.181 -0.56699997 0
-4.9640002 -3.142 -0.52200001 0
-4.9660001 -3.3329999 -0.53500003 0
-4.9450002 -3.342 -0.53399998 0
-5.053 -3.427 -0.55000001 0
-5.0689998 -3.461 -0.55400002 0
-5.0640001 -3.4809999 -0.55500001 0
-5.053 -3.497 -0.55500001 0
-5.0419998 -3.513 -0.55500001 0
-5.0510001 -3.5420001 -0.55800003 0
-5.0560002 -3.5699999 -0.56099999 0
-5.052 -3.579 -0.56099999 0
-4.3429999 -3.1129999 -0.45699999 0
-3.46 -3.1630001 -0.37599999 0
-8.4619999 -11.567 -1.5599999 0.58999997
-8.9960003 -12.381 -1.6799999 0.28999999
-8.948 -12.397 -1.678 0.28999999
-8.9169998 -12.436 -1.679 0.33000001
-8.717 -12.237 -1.645 0.23999999
-8.8310003 -12.48 -1.678 0.33000001
-8.776 -12.444 -1.67 0.30000001
-8.0059996 -11.425 -1.513 0.25
-8.7189999 -12.53 -1.675 0.28999999
-8.6700001 -12.544 -1.673 0.28999999
-8.6210003 -12.556 -1.671 0.28999999
-8.5860004 -12.59 -1.6720001 0.30000001
-8.5369997 -12.604 -1.67 0.34
-8.5059996 -12.601 -1.6670001 0.22
-8.4610004 -12.619 -1.666 0.28999999
-8.427 -12.654 -1.6670001 0.31999999
-8.3380003 -12.606 -1.656 0.18000001
-7.6550002 -11.649 -1.512 0.19
-7.5749998 -11.606 -1.502 0.56
-7.507 -11.581 -1.495 0.27000001
-8.2209997 -12.73 -1.661 0.30000001
-8.1780005 -12.752 -1.661 0.31999999
-8.1330004 -12.77 -1.659 0.31
-8.0889997 -12.788 -1.658 0.33000001
-8.0500002 -12.817 -1.659 0.30000001
-8.0039997 -12.832 -1.6569999 0.25999999
-7.961 -12.854 -1.6569999 0.30000001
-7.934 -12.855 -1.655 0.31
-7.8899999 -12.874 -1.655 0.31999999
-7.849 -12.897 -1.654 0.34999999
-6.9369998 -11.475 -1.447 0.23999999
-7.7649999 -12.941 -1.654 0.30000001
-7.7150002 -12.95 -1.651 0.30000001
-7.6680002 -12.964 -1.65 0.28
-7.6459999 -12.973 -1.649 0.34
-7.6059999 -12.999 -1.65 0.31
-7.5549998 -13.005 -1.647 0.31999999
-7.5110002 -13.024 -1.647 0.31999999
-7.4640002 -13.037 -1.645 0.31
-7.4229999 -13.06 -1.645 0.31
-7.4000001 -13.067 -1.6440001 0.33000001
-7.3559999 -13.085 -1.6440001 0.31999999
-7.3109999 -13.101 -1.643 0.31999999
-7.2670002 -13.118 -1.642 0.28999999
-7.223 -13.136 -1.641 0.33000001
-7.1830001 -13.162 -1.642 0.31999999
-7.131 -13.164 -1.6390001 0.30000001
-7.1079998 -13.171 -1.638 0.33000001
-7.0580001 -13.178 -1.636 0.30000001
-7.0209999 -13.207 -1.637 0.31999999
-6.98 -13.231 -1.637 0.33000001
-6.9310002 -13.239 -1.635 0.31999999
-6.8850002 -13.251 -1.6339999 0.33000001
-6.8429999 -13.273 -1.6339999 0.31999999
-6.8189998 -13.277 -1.633 0.31
-6.7820001 -13.309 -1.635 0.34
-5.6170001 -11.099 -1.3279999 0.27000001
-6.6830001 -13.319 -1.63 0.28
-6.6350002 -13.327 -1.628 0.28999999
-5.4829998 -11.091 -1.3200001 0.23999999
-5.4660001 -11.146 -1.325 0.54000002
-6.5229998 -13.365 -1.627 0.28
-6.4790001 -13.382 -1.626 0.33000001
-6.4359999 -13.4 -1.626 0.31999999
-6.3850002 -13.402 -1.623 0.23
-5.4879999 -11.605 -1.377 0.2
-5.4499998 -11.618 -1.376 0.51999998
-5.4349999 -11.634 -1.377 0.50999999
-5.3600001 -11.568 -1.3660001 0.27000001
-6.1820002 -13.463 -1.619 0.31
-6.1290002 -13.458 -1.6160001 0.2
-5.316 -11.763 -1.386 0.49000001
-6.0469999 -13.502 -1.617 0.23999999
-6.0029998 -13.517 -1.617 0.31999999
-5.9770002 -13.516 -1.615 0.31999999
-5.9299998 -13.524 -1.614 0.28999999
-5.8860002 -13.54 -1.613 0.33000001
-5.8449998 -13.562 -1.614 0.31
-5.7919998 -13.557 -1.6109999 0.28999999
-5.75 -13.575 -1.6109999 0.33000001
-5.7069998 -13.593 -1.6109999 0.30000001
-5.6830001 -13.595 -1.61 0.31
-5.6360002 -13.603 -1.608 0.31999999
-5.592 -13.617 -1.608 0.30000001
-5.5469999 -13.629 -1.607 0.33000001
-5.5 -13.637 -1.6059999 0.30000001
-5.4549999 -13.649 -1.605 0.36000001
-5.4099998 -13.661 -1.605 0.31999999
-5.3850002 -13.66 -1.603 0.31999999
-5.3439999 -13.68 -1.604 0.31999999
-5.2940001 -13.679 -1.601 0.31
-5.2470002 -13.686 -1.6 0.31999999
-5.1999998 -13.693 -1.599 0.31
-5.158 -13.711 -1.599 0.31999999
-5.112 -13.718 -1.598 0.31
-5.0910001 -13.728 -1.598 0.31999999
-5.0409999 -13.727 -1.596 0.31999999
-4.9970002 -13.739 -1.596 0.33000001
-4.954 -13.757 -1.596 0.34
-4.9089999 -13.766 -1.595 0.28999999
-4.8649998 -13.778 -1.595 0.31
-4.8379998 -13.773 -1.5930001 0.30000001
-4.7909999 -13.776 -1.591 0.30000001
-4.75 -13.799 -1.592 0.33000001
-4.7030001 -13.801 -1.591 0.30000001
-4.6570001 -13.81 -1.59 0.34999999
-4.6059999 -13.8 -1.587 0.28999999
-4.5640001 -13.82 -1.5880001 0.31
-4.5370002 -13.81 -1.585 0.31999999
-4.4949999 -13.828 -1.586 0.31
-4.4499998 -13.836 -1.585 0.34999999
-4.4000001 -13.831 -1.5829999 0.28999999
-4.3520002 -13.83 -1.581 0.27000001
-4.309 -13.845 -1.581 0.36000001
-4.2649999 -13.859 -1.581 0.34
-4.2410002 -13.858 -1.58 0.30000001
-4.197 -13.867 -1.579 0.33000001
-4.1459999 -13.858 -1.577 0.30000001
-4.1030002 -13.873 -1.577 0.31
-4.0599999 -13.885 -1.577 0.33000001
-4.013 -13.889 -1.576 0.28999999
-3.9679999 -13.895 -1.575 0.30000001
-3.9460001 -13.902 -1.575 0.34
-3.8989999 -13.902 -1.573 0.30000001
-3.8529999 -13.905 -1.572 0.31
-3.8099999 -13.921 -1.573 0.30000001
-3.7639999 -13.921 -1.571 0.31999999
-3.717 -13.922 -1.5700001 0.31999999
-3.671 -13.927 -1.569 0.31999999
-3.6489999 -13.929 -1.569 0.30000001
-3.6010001 -13.925 -1.567 0.30000001
-3.559 -13.946 -1.568 0.31
-3.513 -13.946 -1.566 0.31
-3.4660001 -13.943 -1.5650001 0.31
-3.4200001 -13.946 -1.564 0.31999999
-3.3759999 -13.955 -1.563 0.31
-3.352 -13.955 -1.563 0.33000001
-3.303 -13.944 -1.5599999 0.30000001
-3.2590001 -13.95 -1.5599999 0.30000001
-3.2149999 -13.962 -1.5599999 0.31
-3.168 -13.955 -1.558 0.31
-3.1229999 -13.961 -1.557 0.31
-3.0969999 -13.95 -1.5549999 0.31999999
-3.0539999 -13.96 -1.5549999 0.33000001
-3.0090001 -13.966 -1.5549999 0.30000001
-2.9630001 -13.965 -1.553 0.31
-2.9170001 -13.963 -1.552 0.31
-2.8699999 -13.958 -1.55 0.34999999
-2.8199999 -13.938 -1.5470001 0.30000001
-2.7969999 -13.935 -1.546 0.31
-2.75 -13.926 -1.543 0.31
-2.707 -13.942 -1.544 0.34
-2.6600001 -13.929 -1.5420001 0.25
-2.619 -13.957 -1.544 0.37
-2.5769999 -13.971 -1.545 0.31
-2.536 -13.995 -1.5470001 0.34
-2.51 -13.979 -1.544 0.30000001
-2.4660001 -13.987 -1.544 0.31999999
-2.421 -13.991 -1.544 0.30000001
-2.3770001 -13.996 -1.544 0.34
-2.3310001 -13.99 -1.5420001 0.30000001
-2.2839999 -13.982 -1.54 0.31
-2.2650001 -14.001 -1.5420001 0.34
-2.2179999 -13.988 -1.54 0.30000001
-2.1730001 -13.989 -1.539 0.30000001
-2.1270001 -13.982 -1.5369999 0.30000001
-2.082 -13.983 -1.536 0.31999999
-2.036 -13.976 -1.535 0.31999999
-1.9910001 -13.97 -1.533 0.30000001
-1.97 -13.981 -1.534 0.30000001
-1.925 -13.983 -1.534 0.30000001
-1.8789999 -13.972 -1.531 0.31
-1.835 -13.979 -1.5319999 0.31
-1.791 -13.979 -1.531 0.30000001
-1.745 -13.973 -1.53 0.31
-1.7 -13.967 -1.528 0.31
-1.679 -13.973 -1.529 0.31
-1.633 -13.961 -1.526 0.31
-1.589 -13.964 -1.526 0.34
-1.545 -13.971 -1.526 0.30000001
-1.499 -13.952 -1.523 0.30000001
-1.456 -13.968 -1.525 0.38
-1.41 -13.951 -1.522 0.20999999
-1.387 -13.947 -1.521 0.31999999
-1.345 -13.965 -1.523 0.34999999
-1.299 -13.952 -1.521 0.28999999
-0.75099999 -8.2270002 -0.815 0.18000001
-0.72299999 -8.2060003 -0.81199998 0.34
-0.69599998 -8.1879997 -0.81 0.43000001
-0.66900003 -8.1780005 -0.80800003 0.31999999
-0.65399998 -8.1520004 -0.80500001 0.47999999
-0.62800002 -8.1440001 -0.80400002 0.44999999
-0.60100001 -8.1280003 -0.801 0.34
-0.57499999 -8.1260004 -0.801 0.33000001
-0.551 -8.151 -0.80400002 0.41
-0.52700001 -8.1850004 -0.80800003 0.31
-0.51800001 -8.2510004 -0.81599998 0.37
-0.81199998 -13.909 -1.511 0.20999999
-0.76899999 -13.915 -1.512 0.34999999
-0.72399998 -13.906 -1.51 0.30000001
-0.68099999 -13.908 -1.51 0.31999999
-0.63700002 -13.904 -1.51 0.31
-0.59200001 -13.89 -1.508 0.31999999
-0.57099998 -13.905 -1.5089999 0.31999999
-0.52700001 -13.889 -1.507 0.30000001
-0.48300001 -13.899 -1.508 0.31999999
-0.43900001 -13.884 -1.506 0.30000001
-0.39500001 -13.879 -1.505 0.31
-0.352 -13.873 -1.5039999 0.30000001
-0.308 -13.878 -1.505 0.30000001
-0.28600001 -13.878 -1.505 0.34999999
-0.242 -13.863 -1.503 0.27000001
-0.199 -13.854 -1.502 0.34999999
-0.155 -13.858 -1.502 0.31999999
-0.112 -13.849 -1.501 0.31999999
-0.068000004 -13.849 -1.501 0.30000001
-0.025 -13.833 -1.499 0.31999999
-0.003 -13.833 -1.499 0.30000001
0.039999999 -13.829 -1.499 0.31999999
0.083999999 -13.825 -1.498 0.31
0.127 -13.821 -1.498 0.31999999
0.171 -13.838 -1.5 0.34
0.214 -13.816 -1.497 0.30000001
0.25799999 -13.817 -1.497 0.33000001
0.27900001 -13.809 -1.4960001 0.31999999
0.32300001 -13.814 -1.497 0.31999999
0.36500001 -13.795 -1.495 0.31
0.40900001 -13.802 -1.4960001 0.31999999
0.45199999 -13.796 -1.495 0.30000001
0.49599999 -13.797 -1.4960001 0.31999999
0.53899997 -13.793 -1.495 0.31999999
0.56099999 -13.792 -1.495 0.31999999
0.60299999 -13.777 -1.494 0.31999999
0.64700001 -13.777 -1.494 0.33000001
0.69 -13.775 -1.494 0.31
0.73400003 -13.78 -1.495 0.31
0.77600002 -13.766 -1.493 0.31999999
0.79799998 -13.765 -1.493 0.31
0.83999997 -13.752 -1.492 0.31
0.884 -13.755 -1.493 0.33000001
0.92699999 -13.751 -1.493 0.34
0.97100002 -13.752 -1.493 0.31999999
1.013 -13.743 -1.492 0.31
1.056 -13.737 -1.492 0.31
1.0779999 -13.73 -1.492 0.31
1.1210001 -13.73 -1.492 0.33000001
1.163 -13.713 -1.49 0.31999999
1.206 -13.705 -1.49 0.33000001
1.248 -13.695 -1.489 0.34999999
1.291 -13.689 -1.489 0.28999999
1.334 -13.681 -1.488 0.36000001
1.3559999 -13.685 -1.489 0.30000001
1.398 -13.673 -1.488 0.31999999
1.441 -13.666 -1.488 0.37
1.483 -13.662 -1.488 0.31999999
1.526 -13.655 -1.488 0.31999999
1.569 -13.646 -1.487 0.31999999
1.61 -13.631 -1.4859999 0.31999999
1.632 -13.633 -1.4859999 0.34
1.677 -13.641 -1.488 0.31999999
1.719 -13.63 -1.487 0.34
1.761 -13.623 -1.487 0.34
1.804 -13.615 -1.487 0.37
1.846 -13.602 -1.4859999 0.30000001
1.8660001 -13.595 -1.485 0.34999999
1.9119999 -13.609 -1.488 0.37
1.954 -13.597 -1.487 0.31
1.9960001 -13.588 -1.487 0.34
2.0380001 -13.576 -1.4859999 0.38
2.0810001 -13.572 -1.4859999 0.31999999
2.1229999 -13.561 -1.4859999 0.36000001
2.1440001 -13.556 -1.4859999 0.34
2.1849999 -13.541 -1.485 0.30000001
2.23 -13.546 -1.4859999 0.36000001
2.2720001 -13.539 -1.4859999 0.34
2.3139999 -13.53 -1.4859999 0.34
2.355 -13.511 -1.484 0.34
2.4000001 -13.519 -1.4859999 0.31999999
2.4200001 -13.505 -1.485 0.33000001
2.46 -13.49 -1.484 0.34
2.503 -13.484 -1.484 0.31999999
2.5450001 -13.472 -1.484 0.31
2.5869999 -13.464 -1.484 0.31
2.631 -13.464 -1.485 0.31999999
2.671 -13.442 -1.483 0.31999999
2.6930001 -13.443 -1.484 0.31999999
2.7349999 -13.433 -1.484 0.31999999
2.777 -13.426 -1.484 0.31
2.8180001 -13.41 -1.483 0.31
2.8610001 -13.407 -1.484 0.31
2.902 -13.392 -1.483 0.31999999
2.925 -13.395 -1.484 0.30000001
2.967 -13.386 -1.484 0.31
3.007 -13.366 -1.483 0.31
3.05 -13.363 -1.483 0.31999999
3.0929999 -13.357 -1.484 0.31
3.132 -13.336 -1.482 0.31
3.174 -13.328 -1.483 0.34
3.198 -13.332 -1.484 0.31
3.24 -13.326 -1.484 0.31999999
3.279 -13.304 -1.483 0.30000001
3.322 -13.298 -1.483 0.31
3.362 -13.281 -1.483 0.31999999
3.402 -13.263 -1.482 0.31999999
3.4460001 -13.262 -1.483 0.31999999
3.473 -13.28 -1.4859999 0.36000001
3.51 -13.249 -1.483 0.25
3.556 -13.254 -1.485 0.33000001
3.5929999 -13.227 -1.483 0.25999999
3.6359999 -13.222 -1.484 0.34
3.6789999 -13.214 -1.485 0.31
3.72 -13.2 -1.484 0.31999999
3.7379999 -13.187 -1.483 0.31999999
3.7820001 -13.185 -1.485 0.34
3.823 -13.169 -1.484 0.31999999
3.8640001 -13.157 -1.484 0.31999999
3.904 -13.141 -1.484 0.31
3.948 -13.136 -1.485 0.31999999
3.987 -13.118 -1.484 0.31999999
4.0079999 -13.113 -1.484 0.33000001
4.0469999 -13.093 -1.483 0.31999999
4.0869999 -13.075 -1.482 0.34
4.1269999 -13.06 -1.482 0.31999999
4.1690001 -13.049 -1.482 0.31
4.21 -13.038 -1.483 0.31999999
4.2319999 -13.035 -1.483 0.31999999
4.2719998 -13.018 -1.483 0.31999999
4.3140001 -13.008 -1.483 0.41
4.3410001 -12.955 -1.478 0.2
4.3920002 -12.971 -1.482 0.34999999
4.4260001 -12.937 -1.479 0.27000001
4.4720001 -12.938 -1.4809999 0.31
4.4910002 -12.929 -1.4809999 0.31
4.5289998 -12.905 -1.48 0.31999999
4.5700002 -12.895 -1.48 0.36000001
4.605 -12.863 -1.478 0.28
4.6490002 -12.858 -1.479 0.31
4.6919999 -12.851 -1.48 0.34
4.7270002 -12.823 -1.479 0.28999999
4.7470002 -12.814 -1.478 0.30000001
4.7839999 -12.791 -1.477 0.31
4.8330002 -12.799 -1.48 0.37
4.8249998 -12.657 -1.464 0.23999999
4.9029999 -12.742 -1.477 0.31
4.941 -12.721 -1.476 0.31
4.9809999 -12.705 -1.476 0.31
4.6490002 -11.81 -1.359 0.28999999
5.0349998 -12.667 -1.474 0.34999999
5.0749998 -12.651 -1.474 0.25
4.6370001 -11.462 -1.319 0.38999999
4.7030001 -11.521 -1.3279999 0.36000001
5.1960001 -12.608 -1.475 0.28999999
5.2160001 -12.6 -1.475 0.34
5.2470002 -12.565 -1.473 0.33000001
5.276 -12.523 -1.469 0.28999999
5.3169999 -12.51 -1.47 0.27000001
5.369 -12.523 -1.473 0.33000001
5.1079998 -11.714 -1.37 0.58999997
5.402 -12.333 -1.454 0
2.76 -6.2259998 -0.63700002 0.18000001
2.7839999 -6.2280002 -0.63800001 0.16
2.8069999 -6.2270002 -0.639 0.14
5.441 -11.911 -1.408 0.20999999
5.3829999 -11.689 -1.381 0.43000001
5.6339998 -12.18 -1.448 0.20999999
5.3990002 -11.579 -1.369 0.36000001
5.5139999 -11.728 -1.392 0.30000001
5.5190001 -11.643 -1.383 0.36000001
5.6440001 -11.81 -1.408 0.28999999
5.6700001 -11.771 -1.405 0.36000001
5.665 -11.665 -1.393 0.38999999
5.8260002 -11.949 -1.433 0.23
5.96 -12.126 -1.46 0.36000001
5.9060001 -11.923 -1.434 0.28999999
5.8299999 -11.677 -1.403 0.28999999
6.1329999 -12.185 -1.475 0.33000001
6.1459999 -12.116 -1.469 0.25
6.0190001 -11.777 -1.424 0.31999999
6.0050001 -11.704 -1.416 0.37
6.0580001 -11.717 -1.42 0.33000001
6.0710001 -11.652 -1.414 0.37
6.112 -11.641 -1.415 0.43000001
6.1500001 -11.624 -1.415 0.38
6.197 -11.624 -1.418 0.34
6.177 -11.544 -1.408 0.43000001
6.2220001 -11.54 -1.41 0.34
6.2950001 -11.589 -1.42 0.46000001
6.3249998 -11.557 -1.418 0.20999999
6.3699999 -11.552 -1.42 0.56999999
5.9949999 -10.796 -1.317 0.25
6.4180002 -11.469 -1.414 0.43000001
6.4349999 -11.457 -1.414 0.36000001
6.4530001 -11.404 -1.409 0.46000001
6.4959998 -11.397 -1.411 0.31999999
6.493 -11.31 -1.402 0.44
6.52 -11.274 -1.4 0.34999999
6.5630002 -11.267 -1.402 0.47999999
6.618 -11.279 -1.406 0.36000001
6.6469998 -11.287 -1.409 0.34
6.7069998 -11.309 -1.415 0.46000001
6.743 -11.288 -1.415 0.34
6.7719998 -11.257 -1.414 0.34
6.79 -11.206 -1.409 0.46000001
6.849 -11.224 -1.415 0.41
6.8860002 -11.206 -1.415 0.33000001
6.8990002 -11.186 -1.414 0.36000001
6.9299998 -11.158 -1.413 0.43000001
6.9899998 -11.177 -1.419 0.34
7.053 -11.198 -1.425 0.41999999
7.0679998 -11.144 -1.421 0.28999999
7.1259999 -11.159 -1.426 0.51999998
6.3569999 -9.9250002 -1.248 0.34
7.1630001 -11.102 -1.423 0.31
7.1859999 -11.061 -1.42 0.43000001
7.257 -11.093 -1.428 0.41999999
7.2620001 -11.025 -1.4220001 0.25
7.0650001 -10.654 -1.37 0.41
7.2199998 -10.813 -1.397 0.40000001
7.2800002 -10.866 -1.406 0.47999999
7.3260002 -10.861 -1.409 0.40000001
7.4000001 -10.895 -1.418 0.37
7.5079999 -10.98 -1.434 0.34
7.5300002 -10.938 -1.431 0.41999999
7.2859998 -10.515 -1.3710001 0.38999999
7.302 -10.502 -1.3710001 0.49000001
5.6630001 -8.1020002 -1.0140001 0.22
7.6550002 -10.863 -1.432 0.28
7.6989999 -10.852 -1.434 0.38999999
7.6609998 -10.728 -1.419 0.34
7.7579999 -10.79 -1.432 0.44999999
7.7800002 -10.75 -1.4299999 0.19
7.4499998 -10.229 -1.354 0.63999999
7.8200002 -10.699 -1.428 0.34999999
7.6350002 -10.379 -1.383 0.41999999
7.6500001 -10.331 -1.3789999 0.28
7.77 -10.424 -1.397 0.23
7.9180002 -10.552 -1.42 0.50999999
7.927 -10.496 -1.415 0.22
7.9369998 -10.475 -1.414 0.57999998
5.974 -7.8429999 -1.011 0.25
6.0869999 -7.9390001 -1.029 0.37
6.1680002 -7.9920001 -1.04 0.5
8.1479998 -10.476 -1.4299999 0.28
5.7220001 -7.323 -0.94199997 0.36000001
6.5370002 -8.3059998 -1.098 0.28999999
8.0900002 -10.236 -1.403 0.38999999
6.5219998 -8.2069998 -1.0880001 0.47999999
6.474 -8.0950003 -1.073 0.17
6.4400001 -8.0010004 -1.062 0.28999999
6.4679999 -7.9850001 -1.062 0.51999998
8.3439999 -10.223 -1.421 0.31
8.1929998 -9.9750004 -1.386 0.27000001
6.4320002 -7.8150001 -1.043 0.5
6.5409999 -7.895 -1.059 0.16
6.5029998 -7.8000002 -1.0470001 0.52999997
6.6139998 -7.8829999 -1.064 0.31
8.4799995 -10.03 -1.413 0.28999999
8.5039997 -9.9949999 -1.4119999 0.5
8.5159998 -9.9770002 -1.411 0.38999999
8.4829998 -9.8760004 -1.399 0.40000001
8.559 -9.901 -1.4069999 0.20999999
8.6929998 -9.9919996 -1.427 0.46000001
8.6210003 -9.8470001 -1.4069999 0.41
8.7360001 -9.915 -1.423 0.34999999
8.651 -9.757 -1.402 0.40000001
8.7559996 -9.8439999 -1.418 0.41
7.8340001 -8.7559996 -1.243 0.27000001
8.901 -9.8809996 -1.434 0.43000001
8.6719999 -9.5670004 -1.386 0.40000001
8.835 -9.6850004 -1.41 0.30000001
8.9650002 -9.7650003 -1.428 0.22
8.9949999 -9.7370005 -1.428 0.47999999
9.0209999 -9.7340002 -1.4299999 0.44
8.0489998 -8.6350002 -1.25 0.16
9.1120005 -9.7089996 -1.4349999 0.61000001
8.9130001 -9.4379997 -1.395 0.34
8.8540001 -9.3170004 -1.3789999 0.19
9.1940002 -9.6129999 -1.434 0.38
9.184 -9.5419998 -1.427 0.41999999
9.2150002 -9.5450001 -1.4299999 0.40000001
7.789 -8.0229998 -1.173 0.36000001
9.2349997 -9.4460001 -1.423 0.37
9.2980003 -9.4510002 -1.428 0.33000001
9.3839998 -9.4779997 -1.438 0.46000001
9.3570004 -9.3920002 -1.428 0.38
9.4709997 -9.4469995 -1.443 0.41
9.4720001 -9.4180002 -1.441 0.40000001
9.5010004 -9.3879995 -1.441 0.41
9.573 -9.3999996 -1.448 0.27000001
9.5450001 -9.3129997 -1.438 0.51999998
9.4890003 -9.2010002 -1.424 0.34
8.8909998 -8.5699997 -1.317 0.41
9.6029997 -9.224 -1.4349999 0.38
9.6359997 -9.198 -1.436 0.38
9.4989996 -9.0109997 -1.408 0.40000001
9.5909996 -9.0410004 -1.419 0.40000001
9.6630001 -9.0509996 -1.426 0.28
9.6929998 -9.0220003 -1.426 0.43000001
9.7580004 -9.0249996 -1.433 0.34
9.7840004 -9.0209999 -1.434 0.41999999
9.7880001 -8.9680004 -1.431 0.40000001
9.7959995 -8.9189997 -1.427 0.36000001
9.7959995 -8.8629999 -1.423 0.47
9.9139996 -8.9130001 -1.437 0.36000001
9.9020004 -8.8459997 -1.431 0.44
9.9250002 -8.8109999 -1.4299999 0.36000001
9.8870001 -8.7489996 -1.4220001 0.41
9.9309998 -8.7329998 -1.424 0.25
9.9219999 -8.6700001 -1.418 0.58999997
9.8439999 -8.5480003 -1.401 0.31999999
9.934 -8.5710001 -1.4119999 0.30000001
10.02 -8.5900002 -1.421 0.27000001
10.08 -8.5869999 -1.426 0.5
10.036 -8.5229998 -1.4170001 0.31999999
9.9729996 -8.4160004 -1.403 0.37
10.033 -8.4119997 -1.408 0.41
10.027 -8.3540001 -1.403 0.30000001
10.092 -8.3540001 -1.409 0.33000001
10.212 -8.3990002 -1.424 0.38
10.191 -8.3549995 -1.419 0.5
10.055 -8.1920004 -1.393 0.36000001
10.106 -8.1800003 -1.397 0.20999999
9.8310003 -7.908 -1.35 0.56999999
10.194 -8.1459999 -1.403 0.28999999
10.368 -8.2309999 -1.426 0.41
10.328 -8.1470003 -1.416 0.38
10.41 -8.1850004 -1.426 0.36000001
10.405 -8.1289997 -1.4220001 0.34
10.469 -8.125 -1.428 0.41
10.393 -8.0150003 -1.4119999 0.31999999
10.535 -8.0710001 -1.4299999 0.41
10.173 -7.744 -1.37 0.44
10.277 -7.7719998 -1.383 0.28
10.527 -7.9349999 -1.419 0.49000001
10.428 -7.809 -1.4 0.28
10.157 -7.5580001 -1.355 0.47999999
10.529 -7.7820001 -1.408 0.38
10.453 -7.6750002 -1.393 0.36000001
10.451 -7.6240001 -1.3890001 0.36000001
10.44 -7.5650001 -1.3839999 0.36000001
10.559 -7.6269999 -1.4 0.31999999
10.436 -7.4879999 -1.378 0.38
10.434 -7.4369998 -1.374 0.47
10.339 -7.3210001 -1.3559999 0.23999999
10.511 -7.3930001 -1.378 0.30000001
10.49 -7.329 -1.372 0.46000001
10.725 -7.4679999 -1.405 0.34
10.674 -7.382 -1.3940001 0.36000001
10.69 -7.3439999 -1.393 0.36000001
10.787 -7.3610001 -1.404 0.43000001
10.789 -7.3119998 -1.401 0.38
10.787 -7.2620001 -1.397 0.41
10.816 -7.2319999 -1.398 0.27000001
10.697 -7.1290002 -1.3789999 0.38
10.665 -7.059 -1.3710001 0.41999999
10.87 -7.145 -1.398 0.34
10.777 -7.0359998 -1.381 0.44999999
10.822 -7.0170002 -1.3839999 0.34
10.846 -6.9840002 -1.385 0.44999999
10.846 -6.9369998 -1.381 0.40000001
10.889 -6.9400001 -1.386 0.46000001
10.798 -6.835 -1.37 0.25
10.954 -6.8850002 -1.3890001 0.38999999
10.942 -6.829 -1.3839999 0.38
10.955 -6.79 -1.383 0.44
10.942 -6.7350001 -1.378 0.38
10.943 -6.6880002 -1.375 0.36000001
10.95 -6.6690001 -1.375 0.46000001
10.827 -6.5469999 -1.354 0.34
10.828 -6.5019999 -1.351 0.27000001
10.828 -6.4559999 -1.348 0.47
10.927 -6.4679999 -1.36 0.28999999
10.956 -6.4390001 -1.3609999 0.38999999
10.944 -6.408 -1.358 0.30000001
10.904 -6.3390002 -1.349 0.44999999
11.008 -6.3530002 -1.3609999 0.23
10.9 -6.2459998 -1.3430001 0.5
10.977 -6.244 -1.351 0.34
10.955 -6.1859999 -1.345 0.34
11.006 -6.1690001 -1.35 0.38
11.043 -6.1669998 -1.354 0.43000001
11.088 -6.1469998 -1.357 0.36000001
11.104 -6.1100001 -1.357 0.44999999
11.139 -6.0840001 -1.359 0.34
11.251 -6.099 -1.372 0.41999999
11.331 -6.0960002 -1.38 0.33000001
11.397 -6.086 -1.387 0.41
11.375 -6.0510001 -1.383 0.38999999
11.386 -6.0110002 -1.381 0.41
11.397 -5.9710002 -1.38 0.38999999
11.432 -5.9429998 -1.383 0.40000001
11.551 -5.9590001 -1.396 0.38999999
11.561 -5.9180002 -1.395 0.34
11.498 -5.8410001 -1.3839999 0.38
11.566 -5.8520002 -1.392 0.38
11.495 -5.7719998 -1.38 0.40000001
11.536 -5.7470002 -1.383 0.38999999
11.668 -5.7670002 -1.399 0.34999999
11.719 -5.7459998 -1.403 0.40000001
11.721 -5.7010002 -1.401 0.41
11.765 -5.6999998 -1.406 0.34
11.865 -5.7020001 -1.4170001 0.44
11.91 -5.678 -1.421 0.38
12.027 -5.6869998 -1.434 0.44
12.077 -5.664 -1.438 0.50999999
12.125 -5.6399999 -1.443 0.31999999
12.163 -5.6110001 -1.4450001 0.41999999
12.201 -5.605 -1.449 0.30000001
12.236 -5.5749998 -1.452 0.28
12.315 -5.5640001 -1.46 0.30000001
12.416 -5.5630002 -1.471 0.33000001
12.506 -5.5560002 -1.4809999 0.30000001
12.609 -5.5539999 -1.492 0.34
12.708 -5.5500002 -1.503 0.28999999
12.799 -5.5650001 -1.5140001 0.31
12.88 -5.553 -1.523 0.33000001
12.982 -5.5479999 -1.534 0.28999999
13.079 -5.5409999 -1.545 0.38999999
13.185 -5.5370002 -1.556 0.34
13.189 -5.4899998 -1.5549999 0.31
13.208 -5.4489999 -1.5549999 0.30000001
13.206 -5.4239998 -1.553 0.30000001
13.199 -5.3730001 -1.55 0.27000001
13.214 -5.3299999 -1.55 0.31999999
13.225 -5.2870002 -1.549 0.30000001
13.232 -5.2410002 -1.548 0.27000001
13.245 -5.198 -1.548 0.28999999
13.257 -5.1789999 -1.548 0.28999999
13.266 -5.1339998 -1.5470001 0.28999999
13.28 -5.092 -1.5470001 0.30000001
13.285 -5.046 -1.545 0.28999999
13.306 -5.006 -1.546 0.31
13.312 -4.961 -1.545 0.28999999
13.333 -4.921 -1.546 0.31
13.328 -4.8720002 -1.543 0.28999999
13.31 -4.842 -1.54 0.19
13.338 -4.8039999 -1.541 0.43000001
13.342 -4.7589998 -1.54 0.22
13.355 -4.7160001 -1.54 0.17
13.39 -4.6810002 -1.5420001 0.43000001
13.401 -4.638 -1.5420001 0.23
13.416 -4.619 -1.543 0.18000001
13.438 -4.5799999 -1.544 0.38999999
13.452 -4.5370002 -1.544 0.2
13.472 -4.4970002 -1.544 0.38
13.477 -4.4520001 -1.543 0.23
13.49 -4.4089999 -1.543 0.18000001
13.525 -4.3740001 -1.546 0.41
13.505 -4.3439999 -1.5420001 0.25
13.51 -4.2979999 -1.541 0.19
13.54 -4.2610002 -1.543 0.38999999
13.533 -4.2119999 -1.541 0.23
13.538 -4.1669998 -1.54 0.25
13.544 -4.1220002 -1.539 0.2
13.553 -4.079 -1.538 0.41
13.548 -4.0539999 -1.5369999 0.23999999
13.564 -4.013 -1.5369999 0.23999999
13.546 -3.961 -1.533 0.18000001
13.564 -3.9200001 -1.534 0.44
13.559 -3.8729999 -1.5319999 0.25
13.573 -3.8310001 -1.5319999 0.25999999
13.566 -3.806 -1.531 0.27000001
13.578 -3.763 -1.531 0.28999999
13.57 -3.7149999 -1.528 0.28
13.563 -3.6670001 -1.526 0.28
13.578 -3.6259999 -1.526 0.25999999
13.559 -3.575 -1.522 0.30000001
13.547 -3.526 -1.5190001 0.28
13.552 -3.5050001 -1.5190001 0.2
13.556 -3.461 -1.518 0.16
13.582 -3.4219999 -1.52 0.17
13.621 -3.3859999 -1.524 0.20999999
13.636 -3.3440001 -1.524 0.18000001
13.662 -3.3050001 -1.526 0.31
13.687 -3.266 -1.528 0.19
13.698 -3.2460001 -1.529 0.16
13.718 -3.2049999 -1.53 0.13
13.726 -3.161 -1.53 0.17
13.769 -3.1259999 -1.534 0.27000001
13.781 -3.0829999 -1.534 0.27000001
13.796 -3.0409999 -1.535 0.27000001
13.815 -3 -1.536 0.27000001
13.812 -2.9760001 -1.535 0.25999999
13.829 -2.934 -1.536 0.25999999
13.842 -2.892 -1.5369999 0.25
13.861 -2.8499999 -1.538 0.25
13.864 -2.806 -1.5369999 0.25
13.861 -2.76 -1.536 0.25999999
13.869 -2.7390001 -1.536 0.11
13.858 -2.691 -1.534 0.16
13.871 -2.648 -1.534 0.12
13.879 -2.605 -1.534 0.16
13.879 -2.5599999 -1.533 0.28999999
13.874 -2.5139999 -1.5319999 0.2
13.877 -2.4690001 -1.531 0.16
13.872 -2.4460001 -1.53 0.13
13.852 -2.398 -1.527 0.18000001
13.865 -2.355 -1.527 0.28999999
13.853 -2.3080001 -1.525 0.20999999
13.856 -2.2639999 -1.524 0.17
13.857 -2.22 -1.524 0.31999999
13.852 -2.174 -1.522 0.18000001
13.852 -2.152 -1.522 0.38
13.845 -2.1059999 -1.52 0.2
13.813 -2.013 -1.5140001 0.36000001
13.823 -1.97 -1.515 0.40000001
13.807 -1.924 -1.512 0.69
13.818 -1.903 -1.513 0.44999999
13.85 -1.863 -1.516 0.44999999
13.844 -1.818 -1.515 0.25
13.861 -1.776 -1.516 0.25
13.851 -1.73 -1.5140001 0.17
13.88 -1.6900001 -1.517 0.46000001
13.871 -1.645 -1.516 0.23999999
13.878 -1.623 -1.516 0.2
13.891 -1.58 -1.517 0.41
13.892 -1.536 -1.517 0.23
13.883 -1.4910001 -1.515 0.18000001
13.909 -1.45 -1.518 0.41
13.902 -1.405 -1.516 0.23
13.894 -1.36 -1.515 0.18000001
13.91 -1.34 -1.516 0.38999999
13.906 -1.295 -1.515 0.2
13.918 -1.252 -1.516 0.23
13.922 -1.2079999 -1.516 0.2
13.928 -1.165 -1.517 0.20999999
13.917 -1.12 -1.515 0.18000001
13.947 -1.0779999 -1.518 0.22
13.938 -1.056 -1.517 0.18000001
13.965 -1.0140001 -1.52 0.23
13.969 -0.97000003 -1.52 0.18000001
13.979 -0.926 -1.521 0.33000001
13.966 -0.88099998 -1.5190001 0.19
13.975 -0.838 -1.52 0.34999999
13.976 -0.81599998 -1.52 0.20999999
13.977 -0.77200001 -1.5190001 0.23999999
13.959 -0.727 -1.517 0.2
13.968 -0.68300003 -1.518 0.23
13.96 -0.639 -1.516 0.20999999
13.946 -0.59500003 -1.5140001 0.18000001
13.966 -0.551 -1.517 0.38999999
13.953 -0.50700003 -1.515 0.18000001
13.948 -0.48500001 -1.5140001 0.20999999
13.93 -0.44100001 -1.512 0.18000001
13.949 -0.39700001 -1.5140001 0.38999999
13.932 -0.35299999 -1.512 0.23
13.925 -0.30899999 -1.511 0.2
13.938 -0.266 -1.512 0.40000001
13.935 -0.244 -1.512 0.25
13.917 -0.2 -1.51 0.16
13.95 -0.156 -1.513 0.43000001
13.932 -0.112 -1.511 0.23
13.952 -0.068000004 -1.5140001 0.23999999
13.962 -0.025 -1.515 0.34
13.406 0.039000001 -1.515 0.38999999
13.408 0.081 -1.516 0.22
13.408 0.103 -1.516 0.25
13.421 0.145 -1.517 0.20999999
13.405 0.18700001 -1.515 0.22
13.41 0.229 -1.516 0.20999999
13.422 0.271 -1.518 0.20999999
13.421 0.31299999 -1.518 0.2
13.433 0.35600001 -1.5190001 0.20999999
13.453 0.37799999 -1.522 0.18000001
13.443 0.41999999 -1.521 0.33000001
13.448 0.46200001 -1.522 0.2
13.458 0.505 -1.523 0.18000001
13.457 0.54699999 -1.523 0.31999999
13.447 0.58899999 -1.522 0.2
13.449 0.63099998 -1.523 0.18000001
13.446 0.65200001 -1.522 0.33000001
13.444 0.69499999 -1.522 0.19
13.438 0.73699999 -1.522 0.36000001
13.429 0.778 -1.521 0.19
13.427 0.82099998 -1.521 0.36000001
13.424 0.86299998 -1.521 0.23
13.422 0.90499997 -1.521 0.19
13.404 0.92500001 -1.5190001 0.38999999
13.393 0.96700001 -1.518 0.25
13.376 1.008 -1.516 0.25999999
13.375 1.05 -1.517 0.27000001
13.372 1.092 -1.517 0.25999999
13.376 1.135 -1.518 0.25
13.359 1.175 -1.516 0.30000001
13.371 1.198 -1.518 0.25
13.363 1.239 -1.517 0.27000001
13.369 1.2819999 -1.518 0.27000001
13.361 1.324 -1.518 0.28999999
13.345 1.364 -1.516 0.22
13.382 1.432 -1.522 0.49000001
13.385 1.475 -1.523 0.47999999
13.378 1.517 -1.523 0.46000001
13.367 1.558 -1.522 0.41
13.363 1.6 -1.522 0.41
13.357 1.642 -1.522 0.46000001
13.317 1.679 -1.517 0.62
13.34 1.704 -1.521 0.30000001
13.342 1.747 -1.522 0.28999999
13.327 1.7869999 -1.52 0.30000001
13.333 1.831 -1.522 0.28999999
13.327 1.872 -1.522 0.28
13.319 1.914 -1.522 0.28999999
13.305 1.955 -1.521 0.28999999
13.312 1.977 -1.522 0.28999999
13.308 2.0190001 -1.522 0.28999999
13.311 2.062 -1.524 0.28
13.305 2.1040001 -1.524 0.27000001
13.292 2.145 -1.523 0.30000001
13.275 2.1849999 -1.521 0.28999999
13.268 2.227 -1.521 0.28
13.271 2.2490001 -1.522 0.28999999
13.275 2.2920001 -1.524 0.28999999
13.26 2.3329999 -1.523 0.28999999
13.255 2.375 -1.523 0.27000001
13.241 2.415 -1.522 0.27000001
13.244 2.4590001 -1.524 0.27000001
13.246 2.4809999 -1.524 0.27000001
13.23 2.5209999 -1.523 0.27000001
13.222 2.562 -1.523 0.25999999
13.222 2.605 -1.524 0.27000001
13.209 2.6459999 -1.524 0.27000001
13.201 2.688 -1.524 0.27000001
13.196 2.73 -1.524 0.25999999
13.182 2.7490001 -1.523 0.27000001
13.187 2.793 -1.525 0.27000001
13.18 2.835 -1.525 0.28
13.166 2.875 -1.524 0.28
13.17 2.9189999 -1.526 0.27000001
13.163 2.961 -1.526 0.28
13.155 3.003 -1.527 0.28
13.153 3.0239999 -1.527 0.28999999
13.145 3.066 -1.527 0.28999999
13.131 3.1059999 -1.527 0.28999999
13.139 3.151 -1.529 0.30000001
13.119 3.1900001 -1.528 0.28999999
13.113 3.2320001 -1.528 0.30000001
13.114 3.276 -1.53 0.30000001
13.107 3.2969999 -1.529 0.28999999
13.097 3.3380001 -1.529 0.30000001
13.094 3.381 -1.53 0.28999999
13.095 3.425 -1.5319999 0.28
13.074 3.4630001 -1.531 0.28999999
13.073 3.507 -1.5319999 0.28
13.066 3.549 -1.5319999 0.28999999
13.058 3.569 -1.5319999 0.28
13.053 3.612 -1.533 0.28999999
13.032 3.6500001 -1.5319999 0.28999999
13.028 3.6930001 -1.533 0.28999999
13.007 3.7309999 -1.531 0.28
13.008 3.776 -1.533 0.28
13.006 3.7980001 -1.534 0.28999999
12.985 3.836 -1.5319999 0.27000001
12.984 3.8800001 -1.534 0.27000001
12.97 3.9200001 -1.534 0.28
12.963 3.9619999 -1.534 0.27000001
12.964 4.007 -1.536 0.27000001
12.94 4.0440001 -1.535 0.25999999
12.939 4.066 -1.535 0.25999999
12.943 4.112 -1.538 0.25999999
12.923 4.151 -1.5369999 0.27000001
12.919 4.1939998 -1.538 0.27000001
12.917 4.2389998 -1.539 0.27000001
12.898 4.277 -1.539 0.27000001
12.888 4.3189998 -1.539 0.27000001
12.899 4.3449998 -1.5420001 0.25999999
12.877 4.3829999 -1.541 0.28
12.873 4.427 -1.5420001 0.28
12.866 4.4699998 -1.543 0.27000001
12.852 4.5100002 -1.543 0.28999999
12.849 4.5539999 -1.544 0.30000001
12.839 4.5960002 -1.545 0.28999999
12.824 4.6129999 -1.544 0.30000001
12.824 4.6589999 -1.546 0.28999999
12.806 4.698 -1.545 0.28999999
12.799 4.7410002 -1.546 0.28999999
12.791 4.7839999 -1.5470001 0.30000001
12.763 4.8189998 -1.546 0.28
12.759 4.8629999 -1.5470001 0.28999999
12.759 4.8860002 -1.548 0.30000001
12.721 4.9180002 -1.545 0.31
12.718 4.9629998 -1.5470001 0.31999999
12.694 4.9990001 -1.546 0.28999999
12.683 5.0409999 -1.546 0.33000001
12.649 5.0739999 -1.544 0.28999999
12.586 5.0710001 -1.536 0.31999999
12.478 5.0739999 -1.524 0.34
12.401 5.0879998 -1.515 0.41
12.31 5.0960002 -1.505 0.31999999
12.222 5.105 -1.495 0.34999999
12.133 5.1129999 -1.485 0.30000001
12.038 5.118 -1.474 0.31999999
11.987 5.118 -1.4680001 0.30000001
11.97 5.1560001 -1.4680001 0.31999999
11.936 5.1849999 -1.465 0.37
11.903 5.2160001 -1.4630001 0.41
11.843 5.2340002 -1.457 0.47999999
11.792 5.256 -1.452 0.37
11.728 5.2490001 -1.444 0.44999999
11.662 5.2639999 -1.437 0.31999999
11.629 5.2930002 -1.4349999 0.46000001
11.609 5.3280001 -1.434 0.37
11.499 5.322 -1.421 0.46000001
11.426 5.3319998 -1.413 0.36000001
11.377 5.3520002 -1.409 0.44999999
11.291 5.3340001 -1.398 0.33000001
11.181 5.3249998 -1.385 0.40000001
11.181 5.368 -1.387 0.34999999
11.148 5.3959999 -1.385 0.47999999
11.106 5.4180002 -1.381 0.36000001
11.033 5.4260001 -1.373 0.43000001
10.993 5.4489999 -1.37 0.37
10.983 5.4660001 -1.37 0.44
11.134 5.5840001 -1.3940001 0.41
10.86 5.4899998 -1.357 0.43000001
10.858 5.5320001 -1.359 0.34999999
10.751 5.52 -1.346 0.44999999
10.89 5.6350002 -1.369 0.36000001
10.726 5.5929999 -1.348 0.36000001
10.663 5.5819998 -1.34 0.36000001
10.696 5.6420002 -1.347 0.51999998
10.843 5.763 -1.3710001 0.30000001
10.589 5.671 -1.337 0.46000001
10.672 5.7579999 -1.352 0.27000001
10.391 5.6490002 -1.313 0.44
10.727 5.875 -1.365 0.46000001
10.583 5.8179998 -1.345 0.23
10.758 5.9580002 -1.374 0.41
10.689 5.9640002 -1.3660001 0.47
10.486 5.895 -1.339 0.30000001
10.402 5.8899999 -1.33 0.44999999
10.473 5.974 -1.3430001 0.36000001
10.484 6.0240002 -1.347 0.38
10.426 6.0120001 -1.34 0.31999999
10.375 6.026 -1.335 0.47999999
10.325 6.0409999 -1.331 0.41
10.369 6.1100001 -1.34 0.30000001
10.505 6.2350001 -1.363 0.47999999
10.344 6.184 -1.342 0.37
10.704 6.421 -1.397 0.23
10.723 6.4780002 -1.403 0.43000001
10.375 6.3130002 -1.354 0.36000001
9.9399996 6.092 -1.2920001 0.27000001
10.085 6.224 -1.317 0.14
10.14 6.302 -1.3279999 0.19
11.701 7.3189998 -1.566 0.16
11.701 7.3439999 -1.568 0.22
11.685 7.3850002 -1.569 0.18000001
11.663 7.4229999 -1.569 0.14
11.628 7.4520001 -1.567 0.16
11.613 7.494 -1.568 0.30000001
11.591 7.5320001 -1.569 0.2
11.564 7.566 -1.568 0.18000001
11.547 7.5809999 -1.567 0.12
11.52 7.6149998 -1.567 0.17
11.509 7.6599998 -1.569 0.12
11.47 7.6859999 -1.567 0.17
11.456 7.7280002 -1.568 0.20999999
11.417 7.7540002 -1.566 0.18000001
11.401 7.796 -1.567 0.30000001
11.385 7.8109999 -1.567 0.2
11.355 7.8439999 -1.566 0.19
11.328 7.8769999 -1.5650001 0.20999999
11.306 7.915 -1.566 0.18000001
11.279 7.9489999 -1.566 0.31999999
11.256 7.9860001 -1.566 0.19
11.229 8.0200005 -1.566 0.34
11.21 8.033 -1.5650001 0.2
11.178 8.0640001 -1.564 0.34
11.155 8.1000004 -1.564 0.2
11.134 8.1379995 -1.5650001 0.34
11.112 8.1759996 -1.5650001 0.2
11.076 8.2030001 -1.564 0.33000001
11.05 8.2379999 -1.564 0.22
11.033 8.2519999 -1.563 0.2
11.015 8.2930002 -1.564 0.36000001
10.996 8.3330002 -1.5650001 0.2
10.969 8.3660002 -1.5650001 0.25999999
10.928 8.3900003 -1.563 0.20999999
10.91 8.4300003 -1.564 0.20999999
10.892 8.4440002 -1.563 0.36000001
10.857 8.4720001 -1.562 0.22
10.843 8.5159998 -1.564 0.2
10.819 8.552 -1.5650001 0.36000001
10.792 8.5860004 -1.5650001 0.23
10.773 8.6260004 -1.566 0.20999999
10.737 8.6529999 -1.564 0.34999999
10.725 8.6709995 -1.5650001 0.19
10.699 8.7060003 -1.5650001 0.34999999
10.675 8.7419996 -1.5650001 0.20999999
10.642 8.7709999 -1.5650001 0.23
10.613 8.8039999 -1.564 0.2
10.592 8.842 -1.5650001 0.20999999
10.582 8.8620005 -1.566 0
10.547 8.8889999 -1.5650001 0.07
10.516 8.9200001 -1.564 0.079999998
10.489 8.9540005 -1.5650001 0.15000001
10.481 9.0039997 -1.568 0.18000001
10.466 9.0480003 -1.5700001 0
10.449 9.0909996 -1.572 0
10.393 9.0710001 -1.5650001 0.1
10.396 9.1309996 -1.5700001 0.25
10.381 9.1759996 -1.573 0.11
10.355 9.2110004 -1.573 0.16
10.315 9.2340002 -1.571 0.23
10.286 9.2670002 -1.571 0.25999999
10.251 9.2939997 -1.5700001 0.25999999
10.246 9.3179998 -1.572 0.19
10.226 9.3590002 -1.574 0.18000001
10.193 9.3870001 -1.573 0.31999999
10.178 9.4329996 -1.576 0.19
10.144 9.4610004 -1.575 0.34
10.104 9.4829998 -1.573 0.18000001
10.088 9.5279999 -1.576 0.34999999
10.069 9.54 -1.575 0.19
10.043 9.5760002 -1.576 0.33000001
10.01 9.6040001 -1.575 0.18000001
9.9860001 9.6409998 -1.576 0.34999999
9.9510002 9.6680002 -1.575 0.19
9.9209995 9.6999998 -1.575 0.36000001
9.8990002 9.7390003 -1.577 0.20999999
9.882 9.7530003 -1.577 0.31999999
9.8529997 9.7860003 -1.577 0.19
9.8249998 9.8190002 -1.577 0.38
9.7939997 9.8500004 -1.577 0.18000001
9.7659998 9.8839998 -1.5779999 0.37
9.7320004 9.9110003 -1.577 0.18000001
9.6990004 9.941 -1.577 0.38
9.6960001 9.9689999 -1.579 0.22
9.651 9.9849997 -1.577 0.34
9.6370001 10.034 -1.58 0.19
9.6000004 10.058 -1.579 0.22
9.5600004 10.08 -1.5779999 0.31999999
9.5270004 10.108 -1.577 0.30000001
9.4910002 10.134 -1.577 0.34999999
9.467 10.14 -1.575 0.51999998
9.4219999 10.155 -1.572 0.23999999
9.382 10.176 -1.571 0.13
9.3789997 10.237 -1.577 0.17
9.3710003 10.293 -1.581 0.20999999
9.3459997 10.33 -1.582 0.18000001
9.3120003 10.358 -1.582 0.13
9.2919998 10.368 -1.581 0.18000001
9.2679996 10.407 -1.5829999 0.28
9.243 10.445 -1.585 0.11
9.2139997 10.479 -1.585 0.16
9.191 10.518 -1.587 0.27000001
9.1590004 10.549 -1.587 0.11
9.0459995 10.452 -1.569 0.079999998
8.9350004 10.39 -1.553 0.079999998
8.8830004 10.396 -1.55 0.079999998
8.8249998 10.393 -1.545 0
8.7779999 10.404 -1.5420001 0
8.7220001 10.405 -1.5369999 0.07
8.6969995 10.441 -1.539 0.079999998
8.7049999 10.484 -1.544 0.079999998
8.7819996 10.644 -1.566 0.2
8.8970003 10.852 -1.596 0.25999999
8.8719997 10.891 -1.597 0.25999999
8.8479996 10.931 -1.599 0.25999999
8.8100004 10.954 -1.599 0.11
8.7749996 10.982 -1.599 0.15000001
8.7589998 10.997 -1.599 0.11
8.7320004 11.034 -1.6 0.17
8.698 11.063 -1.601 0.28
8.665 11.092 -1.601 0.19
8.6350002 11.125 -1.602 0.18000001
8.6070004 11.162 -1.603 0.16
8.5670004 11.182 -1.602 0.13
8.5469999 11.193 -1.602 0.18000001
8.5159998 11.224 -1.603 0.28999999
8.4949999 11.27 -1.6059999 0.19
8.46 11.298 -1.6059999 0.31999999
8.4239998 11.323 -1.6059999 0.2
8.3879995 11.349 -1.6059999 0.18000001
8.3509998 11.374 -1.605 0.31999999
8.3319998 11.386 -1.605 0.20999999
8.3059998 11.424 -1.607 0.18000001
8.2700005 11.45 -1.607 0.33000001
8.2440004 11.491 -1.61 0.2
8.198 11.502 -1.607 0.33000001
8.151 11.513 -1.605 0
8.0629997 11.466 -1.594 0.13
7.3639998 10.51 -1.442 0.20999999
7.2930002 10.479 -1.434 0.20999999
7.2420001 10.476 -1.4299999 0.28
7.1999998 10.486 -1.428 0.30000001
7.152 10.486 -1.424 0.28999999
7.1149998 10.503 -1.423 0.31999999
7.066 10.501 -1.42 0.30000001
7.0320001 10.487 -1.416 0.28
6.987 10.491 -1.413 0.36000001
6.941 10.493 -1.41 0.27000001
6.8969998 10.498 -1.4069999 0.25
6.848 10.495 -1.404 0.31999999
6.8070002 10.505 -1.402 0.25999999
6.7589998 10.503 -1.398 0.28
6.73 10.493 -1.395 0.27000001
6.6939998 10.51 -1.3940001 0.27000001
6.6490002 10.512 -1.392 0.20999999
6.6069999 10.519 -1.39 0.31999999
6.612 10.601 -1.399 0.17
6.5209999 10.529 -1.385 0.12
6.4549999 10.532 -1.381 0.34
6.4109998 10.536 -1.378 0.61000001
6.3540001 10.515 -1.372 0.28999999
6.3099999 10.518 -1.37 0.28
6.2779999 10.539 -1.37 0.22
6.223 10.522 -1.364 0.63999999
6.1900001 10.541 -1.364 0.23
6.1669998 10.541 -1.363 0.20999999
6.125 10.544 -1.36 0.43000001
6.079 10.541 -1.357 0.63
6.0139999 10.505 -1.349 0.31999999
5.974 10.512 -1.347 0.1
5.9400001 10.529 -1.347 0.14
5.921 10.572 -1.35 0.23
5.8769999 10.533 -1.3430001 0.18000001
5.842 10.548 -1.3430001 0.36000001
5.8049998 10.559 -1.342 0.2
5.7620001 10.56 -1.339 0.23999999
5.73 10.58 -1.34 0.2
5.7059999 10.615 -1.342 0.28999999
5.6830001 10.652 -1.345 0.25999999
5.6869998 10.7 -1.35 0.25
5.6700001 10.749 -1.355 0.25
5.6589999 10.811 -1.3609999 0.25
5.6919999 10.957 -1.38 0.23999999
5.658 10.975 -1.38 0
5.6300001 11.006 -1.382 0
5.6240001 11.079 -1.39 0.13
5.631 11.135 -1.397 0.12
5.6240001 11.21 -1.405 0
5.6199999 11.289 -1.414 0
5.625 11.389 -1.425 0
5.6209998 11.47 -1.434 0
6.316 12.985 -1.648 0.090000004
6.3070002 13.069 -1.6569999 0.22
6.2870002 13.081 -1.6569999 0.18000001
6.2459998 13.101 -1.6569999 0.38999999
6.2059999 13.122 -1.6569999 0.23
6.1630001 13.138 -1.6569999 0.19
6.1259999 13.166 -1.658 0.41
6.0819998 13.18 -1.6569999 0.25
6.066 13.2 -1.659 0.2
6.0310001 13.234 -1.661 0.40000001
5.9920001 13.258 -1.6619999 0.25
5.954 13.284 -1.663 0.27000001
5.9169998 13.313 -1.664 0.27000001
5.8779998 13.339 -1.665 0.27000001
5.842 13.37 -1.6670001 0.27000001
5.7979999 13.385 -1.666 0.27000001
5.79 13.425 -1.671 0.25999999
5.7490001 13.445 -1.671 0.25999999
5.7140002 13.481 -1.673 0.28999999
5.677 13.51 -1.675 0.30000001
5.6300001 13.519 -1.674 0.27000001
5.5830002 13.525 -1.6720001 0.33000001
5.5700002 13.552 -1.675 0.34999999
5.5229998 13.561 -1.673 0.34
5.4749999 13.563 -1.671 0.44999999
5.4390001 13.597 -1.674 0.40000001
5.402 13.629 -1.676 0.28
5.3629999 13.657 -1.677 0.36000001
5.3239999 13.683 -1.679 0.31
5.303 13.693 -1.679 0.34
5.2550001 13.695 -1.677 0.31
5.2080002 13.702 -1.675 0.34
5.1160002 13.59 -1.658 0.18000001
2.1589999 5.8319998 -0.59600002 0.079999998
2.132 5.8150001 -0.59299999 0.15000001
2.1070001 5.8049998 -0.59100002 0.16
2.0929999 5.7950001 -0.58899999 0.16
2.0739999 5.8000002 -0.58899999 0.16
2.053 5.7989998 -0.588 0.17
2.0320001 5.796 -0.58600003 0.17
2.016 5.8099999 -0.58700001 0.17
1.997 5.8140001 -0.58700001 0.17
1.9809999 5.8260002 -0.588 0.18000001
1.975 5.8379998 -0.58899999 0.16
1.962 5.8600001 -0.59100002 0.16
1.9450001 5.8709998 -0.59200001 0.1
1.9400001 5.9169998 -0.597 0.15000001
4.441 13.725 -1.646 0.36000001
4.3940001 13.728 -1.6440001 0.30000001
4.368 13.722 -1.642 0.33000001
4.3210001 13.722 -1.641 0.33000001
4.276 13.728 -1.64 0.31999999
4.2280002 13.726 -1.638 0.33000001
4.1810002 13.728 -1.636 0.31999999
4.1360002 13.735 -1.635 0.36000001
4.086 13.726 -1.632 0.33000001
4.066 13.738 -1.633 0.34
4.0219998 13.747 -1.633 0.31999999
3.9760001 13.748 -1.631 0.34
3.9330001 13.762 -1.631 0.31
3.891 13.78 -1.632 0.30000001
3.8510001 13.804 -1.6339999 0.30000001
3.806 13.808 -1.633 0.28999999
3.7909999 13.841 -1.636 0.27000001
3.7479999 13.855 -1.636 0.38
3.7060001 13.87 -1.637 0.28
3.6700001 13.91 -1.641 0.34999999
3.625 13.918 -1.64 0.38
3.582 13.933 -1.641 0.31
3.5369999 13.939 -1.64 0.41
3.5179999 13.956 -1.641 0.34999999
3.474 13.967 -1.641 0.38
3.431 13.978 -1.641 0.38999999
3.3940001 14.017 -1.645 0.38
3.348 14.022 -1.645 0.36000001
3.3010001 14.019 -1.643 0.46000001
3.2650001 14.066 -1.648 0.31999999
3.2420001 14.065 -1.647 0.46000001
3.191 14.044 -1.643 0.36000001
3.1589999 14.109 -1.65 0.38999999
3.1140001 14.115 -1.649 0.43000001
3.0610001 14.085 -1.6440001 0.30000001
3.0139999 14.085 -1.643 0.46000001
2.967 14.079 -1.641 0.37
2.9430001 14.076 -1.64 0.36000001
2.892 14.05 -1.635 0.38999999
2.8410001 14.028 -1.631 0.30000001
2.793 14.016 -1.6289999 0.43000001
2.7520001 14.04 -1.631 0.37
2.7049999 14.035 -1.6289999 0.36000001
2.6619999 14.049 -1.63 0.27000001
2.631 14.007 -1.623 0.47999999
2.589 14.024 -1.625 0.36000001
2.5439999 14.031 -1.624 0.41
2.4979999 14.025 -1.623 0.31999999
2.448 13.997 -1.618 0.41999999
2.4070001 14.027 -1.6210001 0.40000001
2.3629999 14.032 -1.6210001 0.34
2.342 14.044 -1.622 0.36000001
2.3039999 14.084 -1.626 0.27000001
2.25 14.033 -1.618 0.50999999
2.2090001 14.059 -1.6210001 0.36000001
2.1670001 14.084 -1.623 0.38999999
2.118 14.055 -1.619 0.38999999
2.072 14.05 -1.617 0.43000001
2.049 14.047 -1.6160001 0.34
2.003 14.04 -1.615 0.40000001
1.954 14.017 -1.6109999 0.30000001
1.9069999 14.001 -1.608 0.34
1.862 13.997 -1.607 0.47
1.819 14.011 -1.608 0.38999999
1.775 14.019 -1.608 0.37
1.743 13.939 -1.597 0.36000001
1.702 13.968 -1.6 0.36000001
1.668 14.054 -1.6109999 0.44
1.622 14.041 -1.609 0.33000001
1.564 13.932 -1.594 0.40000001
1.518 13.913 -1.591 0.40000001
1.5140001 14.083 -1.612 0.34
1.469 14.076 -1.6109999 0.41
1.4299999 14.128 -1.617 0.34
1.3839999 14.124 -1.6160001 0.44999999
1.34 14.125 -1.615 0.34999999
1.286 14.026 -1.602 0.44999999
