# .PCD v0.7 - Point Cloud Data file format
VERSION 0.7
FIELDS x y z intensity
SIZE 4 4 4 4
TYPE F F F F
COUNT 1 1 1 1
WIDTH 1385
HEIGHT 1
VIEWPOINT 0 0 0 1 0 0 0
POINTS 1385
DATA ascii
-4.434 -3.7079999 -1.728 0.56999999
-4.421 -3.721 -1.728 0.38
-4.414 -3.7379999 -1.729 0.41999999
-4.415 -3.763 -1.735 0.27000001
-4.3800001 -3.757 -1.725 0.62
-4.3699999 -3.7720001 -1.726 0.34
-4.329 -3.7609999 -1.714 0.33000001
-4.3169999 -3.763 -1.711 0.40000001
-4.2969999 -3.7690001 -1.707 0.38999999
-4.2649999 -3.7650001 -1.699 0.28
-4.2259998 -3.7539999 -1.687 0.41999999
-4.211 -3.7650001 -1.686 0.28999999
-4.1960001 -3.776 -1.6849999 0.38999999
-4.1690001 -3.7750001 -1.678 0.38
-4.1560001 -3.7750001 -1.675 0.31
-4.1240001 -3.77 -1.6670001 0.43000001
-4.1009998 -3.773 -1.6619999 0.34999999
-4.0770001 -3.7739999 -1.656 0.36000001
-4.0510001 -3.7739999 -1.65 0.31999999
-4.0320001 -3.78 -1.647 0.34999999
-4.0089998 -3.783 -1.642 0.33000001
-4.0029998 -3.789 -1.642 0.34999999
-3.987 -3.7969999 -1.64 0.31
-3.961 -3.7969999 -1.6339999 0.34
-3.9449999 -3.8050001 -1.633 0.30000001
-3.9319999 -3.816 -1.632 0.31999999
-3.9070001 -3.8169999 -1.626 0.31
-3.882 -3.816 -1.62 0.30000001
-3.8800001 -3.826 -1.622 0.34
-3.8800001 -3.8499999 -1.628 0.43000001
-3.8559999 -3.8499999 -1.622 0.34
-3.8340001 -3.8529999 -1.618 0.44999999
-3.823 -3.8659999 -1.618 0.41
-3.813 -3.8800001 -1.619 0.34999999
-3.8180001 -3.9089999 -1.627 0.38
-3.8080001 -3.924 -1.628 0.41
-3.7490001 -3.875 -1.604 0.47999999
-3.747 -3.898 -1.609 0.25
-3.757 -3.9330001 -1.619 0.44999999
-3.7290001 -3.928 -1.612 0.5
-3.717 -3.9400001 -1.612 0.38999999
-3.694 -3.941 -1.607 0.46000001
-3.6670001 -3.937 -1.6 0.38
-3.652 -3.9330001 -1.596 0.38
-3.6630001 -3.97 -1.607 0.38999999
-3.6259999 -3.954 -1.595 0.43000001
-3.6170001 -3.97 -1.597 0.41999999
-3.612 -3.99 -1.601 0.31999999
-3.5580001 -3.9549999 -1.581 0.5
-3.5599999 -3.983 -1.5880001 0.25
-3.5680001 -4.0040002 -1.595 0.57999998
-3.543 -4.0009999 -1.589 0.28999999
-3.5090001 -3.9879999 -1.5779999 0.51999998
-3.51 -4.0139999 -1.585 0.34
-3.4849999 -4.0110002 -1.579 0.51999998
-3.477 -4.0279999 -1.581 0.30000001
-3.4679999 -4.0430002 -1.5829999 0.44
-3.4449999 -4.0279999 -1.575 0.40000001
-3.4170001 -4.0219998 -1.567 0.44
-3.4130001 -4.0430002 -1.572 0.38999999
-3.3940001 -4.046 -1.569 0.38999999
-3.3699999 -4.0440001 -1.563 0.36000001
-3.3640001 -4.0609999 -1.566 0.47999999
-3.3429999 -4.0619998 -1.562 0.27000001
-3.319 -4.046 -1.553 0.55000001
-3.322 -4.0760002 -1.561 0.28
-3.29 -4.0630002 -1.551 0.54000002
-3.2820001 -4.079 -1.554 0.36000001
-3.2620001 -4.0799999 -1.55 0.40000001
-3.2290001 -4.0650001 -1.54 0.34999999
-3.2160001 -4.0760002 -1.54 0.44999999
-3.21 -4.0809999 -1.54 0.38999999
-3.187 -4.079 -1.535 0.36000001
-3.1659999 -4.0780001 -1.531 0.43000001
-3.164 -4.1020002 -1.536 0.43000001
-3.148 -4.1069999 -1.534 0.44
-3.142 -4.1259999 -1.538 0.37
-3.135 -4.1430001 -1.541 0.44999999
-3.1210001 -4.1389999 -1.5369999 0.33000001
-3.0869999 -4.1220002 -1.527 0.5
-3.063 -4.1160002 -1.52 0.25999999
-3.017 -4.0809999 -1.503 0.47999999
-3.0120001 -4.1020002 -1.507 0.38
-3.0339999 -4.1589999 -1.526 0.38
-2.9909999 -4.1269999 -1.5089999 0.40000001
-2.99 -4.1389999 -1.513 0.38
-2.9719999 -4.1420002 -1.51 0.44999999
-2.9419999 -4.1269999 -1.5 0.34999999
-2.915 -4.1170001 -1.493 0.47999999
-2.898 -4.1199999 -1.4910001 0.25999999
-2.829 -4.0500002 -1.46 0.55000001
-2.868 -4.132 -1.488 0.38
-2.9330001 -4.2399998 -1.528 0.28
-2.9189999 -4.2470002 -1.528 0.55000001
-2.915 -4.2709999 -1.533 0.31999999
-2.8740001 -4.2389998 -1.517 0.44999999
-2.9000001 -4.3060002 -1.54 0.28999999
-2.8610001 -4.277 -1.525 0.5
-2.8010001 -4.217 -1.499 0.41
-2.7950001 -4.237 -1.503 0.37
-2.7909999 -4.2459998 -1.505 0.40000001
-2.7650001 -4.2360001 -1.497 0.30000001
-2.76 -4.257 -1.502 0.5
-2.7119999 -4.211 -1.4809999 0.27000001
-2.734 -4.2740002 -1.502 0.47
-2.7490001 -4.3280001 -1.5190001 0.34999999
-2.7320001 -4.3309999 -1.517 0.38
-2.7279999 -4.3390002 -1.5190001 0.41
-2.6659999 -4.2719998 -1.49 0.34999999
-2.698 -4.3530002 -1.517 0.38999999
-2.71 -4.402 -1.533 0.43000001
-2.6730001 -4.3730001 -1.5190001 0.47
-2.6489999 -4.3649998 -1.513 0.34
-2.5969999 -4.3099999 -1.489 0.47999999
-2.582 -4.3010001 -1.484 0.38
-2.6129999 -4.382 -1.511 0.38
-2.5999999 -4.3920002 -1.512 0.27000001
-2.6070001 -4.4349999 -1.525 0.49000001
-2.5309999 -4.3379998 -1.4859999 0.31
-2.5599999 -4.4200001 -1.513 0.38999999
-2.572 -4.4549999 -1.525 0.37
-2.523 -4.4039998 -1.503 0.38
-2.5079999 -4.4099998 -1.502 0.38
-2.4619999 -4.3600001 -1.4809999 0.40000001
-2.457 -4.3839998 -1.487 0.41999999
-2.4630001 -4.427 -1.5 0.36000001
-2.4519999 -4.4400001 -1.502 0.44999999
-2.447 -4.447 -1.503 0.38
-2.4319999 -4.4530001 -1.502 0.40000001
-2.3840001 -4.3990002 -1.48 0.36000001
-2.401 -4.4629998 -1.5 0.5
-2.3440001 -4.3899999 -1.471 0.33000001
-2.3210001 -4.381 -1.465 0.44
-2.3299999 -4.4320002 -1.4809999 0.31
-2.296 -4.4000001 -1.467 0.44
-2.244 -4.3179998 -1.436 0.36000001
-2.224 -4.3130002 -1.432 0.41999999
-2.1530001 -4.21 -1.392 0.43000001
-2.174 -4.283 -1.416 0.34
-2.1819999 -4.3319998 -1.431 0.34
-2.145 -4.2909999 -1.414 0.41
-2.174 -4.3829999 -1.444 0.28999999
-2.177 -4.4070001 -1.452 0.38
-2.168 -4.4239998 -1.455 0.5
-2.1110001 -4.342 -1.424 0.33000001
-2.1059999 -4.3670001 -1.4299999 0.43000001
-2.073 -4.3330002 -1.416 0.38999999
-2.0409999 -4.302 -1.402 0.31999999
-2.0420001 -4.3390002 -1.413 0.38
-2.046 -4.3639998 -1.421 0.28
-2.053 -4.414 -1.436 0.5
-2.01 -4.3579998 -1.414 0.34
-2.0239999 -4.4250002 -1.436 0.38
-2.0190001 -4.4499998 -1.442 0.34
-2.033 -4.5190001 -1.464 0.41999999
-2.0120001 -4.5100002 -1.459 0.44999999
-1.9529999 -4.3979998 -1.419 0.38
-1.915 -4.3509998 -1.4 0.34999999
-1.923 -4.4050002 -1.4170001 0.41
-1.909 -4.4109998 -1.4170001 0.22
-1.893 -4.4099998 -1.414 0.47999999
-1.874 -4.4060001 -1.411 0.36000001
-1.834 -4.3499999 -1.3890001 0.49000001
-1.811 -4.3150001 -1.376 0.38999999
-1.796 -4.3169999 -1.375 0.43000001
-1.842 -4.467 -1.425 0.28
-1.84 -4.5 -1.4349999 0.46000001
-1.822 -4.4970002 -1.432 0.38
-1.7460001 -4.3509998 -1.3789999 0.40000001
-1.744 -4.3850002 -1.3890001 0.23999999
-1.777 -4.487 -1.423 0.44
-1.758 -4.48 -1.419 0.37
-1.694 -4.3600001 -1.375 0.34999999
-1.665 -4.3239999 -1.3609999 0.38999999
-1.689 -4.427 -1.395 0.30000001
-1.71 -4.5229998 -1.426 0.38
-1.696 -4.5300002 -1.427 0.41
-1.622 -4.355 -1.3660001 0.31999999
-1.6339999 -4.4289999 -1.3890001 0.43000001
-1.633 -4.4679999 -1.401 0.36000001
-1.59 -4.3969998 -1.375 0.41
-1.595 -4.454 -1.393 0.34
-1.599 -4.507 -1.409 0.44999999
-1.5599999 -4.4419999 -1.385 0.38
-1.521 -4.355 -1.355 0.36000001
-1.539 -4.4510002 -1.386 0.37
-1.525 -4.454 -1.385 0.30000001
-1.406 -4.1560001 -1.283 0.43000001
-1.425 -4.2540002 -1.3150001 0.30000001
-1.439 -4.3400002 -1.342 0.34999999
-1.4220001 -4.3340001 -1.3380001 0.38999999
-1.454 -4.4530001 -1.378 0.28999999
-1.451 -4.4889998 -1.388 0.31999999
-1.415 -4.428 -1.3660001 0.5
-1.378 -4.3600001 -1.342 0.38
-1.375 -4.3969998 -1.353 0.34999999
-1.359 -4.3940001 -1.351 0.44
-1.367 -4.4710002 -1.375 0.30000001
-1.351 -4.4439998 -1.365 0.41999999
-1.3430001 -4.4660001 -1.3710001 0.33000001
-1.314 -4.421 -1.355 0.44999999
-1.293 -4.402 -1.347 0.28999999
-1.276 -4.395 -1.3430001 0.41
-1.221 -4.2579999 -1.296 0.41
-1.256 -4.4050002 -1.344 0.37
-1.227 -4.3540001 -1.326 0.23
-1.243 -4.4619999 -1.3609999 0.5
-1.267 -4.6009998 -1.406 0.31999999
-1.253 -4.6069999 -1.4069999 0.28
-1.205 -4.4899998 -1.3660001 0.47999999
-1.191 -4.4949999 -1.367 0.25
-1.1619999 -4.4400001 -1.347 0.49000001
-1.158 -4.4530001 -1.351 0.34
-1.136 -4.4289999 -1.342 0.47999999
-1.105 -4.3639998 -1.319 0.31999999
-1.115 -4.46 -1.35 0.41
-1.103 -4.4749999 -1.354 0.41
-1.126 -4.6259999 -1.402 0.43000001
-1.105 -4.6020002 -1.393 0.31
-1.107 -4.6409998 -1.405 0.41
-1.079 -4.5879998 -1.387 0.36000001
-1.067 -4.605 -1.391 0.47999999
-1.039 -4.5489998 -1.372 0.34999999
-1.056 -4.6859999 -1.416 0.34
-1.002 -4.5180001 -1.36 0.31
-0.958 -4.3889999 -1.316 0.38
-0.97399998 -4.4910002 -1.349 0.36000001
-0.94700003 -4.4380002 -1.331 0.34999999
-0.93199998 -4.4380002 -1.33 0.41999999
-0.93900001 -4.5370002 -1.3609999 0.41
-0.91000003 -4.4689999 -1.3380001 0.33000001
-0.92400002 -4.6069999 -1.382 0.36000001
-0.90899998 -4.573 -1.3710001 0.38
-0.89600003 -4.5809999 -1.372 0.38
-0.86699998 -4.513 -1.349 0.38
-0.85500002 -4.5229998 -1.352 0.40000001
-0.85100001 -4.5819998 -1.37 0.44
-0.82599998 -4.5279999 -1.352 0.27000001
-0.81800002 -4.5630002 -1.362 0.43000001
-0.824 -4.6350002 -1.385 0.23999999
-0.80299997 -4.5999999 -1.373 0.38999999
-0.79500002 -4.6440001 -1.386 0.30000001
-0.74299997 -4.4310002 -1.316 0.44
-0.77700001 -4.711 -1.4069999 0.31
-0.73000002 -4.5240002 -1.345 0.38
-0.72399998 -4.5770001 -1.3609999 0.41999999
-0.71499997 -4.6129999 -1.372 0.34
-0.70999998 -4.625 -1.376 0.43000001
-0.68900001 -4.5879998 -1.363 0.33000001
-0.70999998 -4.822 -1.438 0.38999999
-0.667 -4.6350002 -1.377 0.34
-0.62400001 -4.4450002 -1.3150001 0.40000001
-0.61000001 -4.447 -1.3150001 0.30000001
-0.64399999 -4.79 -1.425 0.41
-0.63800001 -4.803 -1.429 0.34
-0.625 -4.8179998 -1.433 0.38
-0.611 -4.8309999 -1.437 0.31
-0.58099997 -4.7160001 -1.399 0.44
-0.56800002 -4.737 -1.405 0.38
-0.55599999 -4.757 -1.411 0.31
-0.56800002 -4.9250002 -1.465 0.44999999
-0.54299998 -4.8429999 -1.438 0.30000001
-0.53500003 -4.9070001 -1.4579999 0.46000001
-0.52700001 -4.9749999 -1.48 0.38
-0.51899999 -5.0489998 -1.503 0.37
-0.49599999 -4.9780002 -1.48 0.28
-0.48500001 -5.0240002 -1.494 0.34999999
-0.46900001 -4.9450002 -1.4680001 0.46000001
-0.463 -5.0489998 -1.501 0.38999999
-0.44999999 -5.0749998 -1.5089999 0.30000001
-0.43700001 -5.118 -1.522 0.38999999
-0.41800001 -5.0830002 -1.511 0.44999999
-0.38 -4.8260002 -1.428 0.38999999
-0.37200001 -4.915 -1.456 0.28
-0.37200001 -5.006 -1.485 0.50999999
-0.35100001 -4.9450002 -1.465 0.28999999
-0.345 -5.0749998 -1.506 0.38
-0.331 -5.105 -1.516 0.41
-0.30899999 -5.0180001 -1.488 0.37
-0.28600001 -4.8920002 -1.447 0.34
-0.278 -5.02 -1.488 0.38
-0.27200001 -5.0619998 -1.501 0.38
-0.25299999 -5.0040002 -1.482 0.37
-0.237 -4.9990001 -1.48 0.38
-0.22400001 -5.0419998 -1.494 0.41999999
-0.208 -5.052 -1.497 0.34999999
-0.191 -5.0190001 -1.4859999 0.36000001
-0.175 -5.0229998 -1.487 0.38
-0.167 -5.0190001 -1.4859999 0.36000001
-0.15000001 -4.9720001 -1.47 0.41
-0.133 -4.9499998 -1.4630001 0.34
-0.118 -4.9710002 -1.47 0.31999999
-0.102 -4.954 -1.464 0.43000001
-0.086999997 -4.941 -1.46 0.36000001
-0.071000002 -4.9400001 -1.46 0.34
-0.063000001 -4.9320002 -1.457 0.46000001
-0.048 -4.927 -1.455 0.34999999
-0.032000002 -4.9120002 -1.45 0.44999999
-0.016000001 -4.8979998 -1.446 0.38999999
-0.001 -4.9000001 -1.447 0.40000001
0.014 -4.9359999 -1.4579999 0.27000001
0.029999999 -4.8720002 -1.438 0.50999999
0.037999999 -4.9250002 -1.455 0.41999999
0.052999999 -4.8899999 -1.444 0.41
0.068000004 -4.875 -1.439 0.36000001
0.083999999 -4.8979998 -1.446 0.41999999
0.098999999 -4.8649998 -1.436 0.40000001
0.114 -4.8530002 -1.432 0.28999999
0.12899999 -4.8600001 -1.4349999 0.47
0.13600001 -4.8280001 -1.424 0.28999999
0.15099999 -4.8049998 -1.4170001 0.38999999
0.16599999 -4.8189998 -1.4220001 0.47999999
0.18099999 -4.809 -1.419 0.37
0.19599999 -4.8119998 -1.42 0.37
0.20900001 -4.7620001 -1.404 0.52999997
0.21699999 -4.7729998 -1.408 0.41999999
0.23199999 -4.7729998 -1.408 0.41
0.24699999 -4.7659998 -1.406 0.36000001
0.26100001 -4.743 -1.399 0.36000001
0.27599999 -4.7420001 -1.399 0.34
0.29100001 -4.7470002 -1.4 0.36000001
0.30500001 -4.7249999 -1.3940001 0.36000001
0.31999999 -4.7350001 -1.397 0.30000001
0.32800001 -4.7329998 -1.397 0.46000001
0.34299999 -4.737 -1.399 0.38999999
0.35800001 -4.7379999 -1.399 0.23999999
0.373 -4.7449999 -1.402 0.49000001
0.366 -4.4580002 -1.3099999 0.27000001
0.37599999 -4.408 -1.294 0.34
0.38999999 -4.3969998 -1.291 0.36000001
0.396 -4.3930001 -1.29 0.38999999
0.41100001 -4.401 -1.293 0.34999999
0.42500001 -4.4050002 -1.295 0.49000001
0.44600001 -4.48 -1.319 0.33000001
0.47799999 -4.6659999 -1.38 0.36000001
0.49900001 -4.723 -1.399 0.36000001
0.51899999 -4.7729998 -1.415 0.36000001
0.52700001 -4.776 -1.416 0.34999999
0.53500003 -4.7119999 -1.396 0.38
0.55699998 -4.7729998 -1.416 0.37
0.56400001 -4.7010002 -1.3940001 0.33000001
0.56900001 -4.6139998 -1.3660001 0.41
0.59600002 -4.7179999 -1.4 0.44999999
0.59100002 -4.6170001 -1.368 0.34999999
0.61199999 -4.6700001 -1.386 0.34
0.63999999 -4.7659998 -1.418 0.31999999
0.64700001 -4.7069998 -1.399 0.22
0.66000003 -4.6919999 -1.395 0.14
0.66299999 -4.6030002 -1.367 0.18000001
0.69099998 -4.6989999 -1.399 0.28
0.69199997 -4.6529999 -1.3839999 0
0.71499997 -4.7049999 -1.402 0
0.72500002 -4.6729999 -1.392 0
0.73400003 -4.6329999 -1.38 0
0.75400001 -4.664 -1.391 0
2.105 -4.0349998 -1.335 0
2.1059999 -4.0050001 -1.327 0
2.1630001 -4.085 -1.358 0
2.207 -4.1370001 -1.3789999 0
2.2160001 -4.1209998 -1.376 0
2.237 -4.145 -1.386 0.02
2.2550001 -4.1479998 -1.3890001 0.12
2.24 -4.0890002 -1.3710001 0.20999999
2.296 -4.1620002 -1.4 0.18000001
2.3010001 -4.1399999 -1.3940001 0.30000001
2.3469999 -4.1929998 -1.416 0.25
2.326 -4.1240001 -1.3940001 0.28999999
2.306 -4.072 -1.376 0.36000001
2.306 -4.0430002 -1.368 0.34
2.323 -4.0419998 -1.3710001 0.34999999
2.332 -4.0279999 -1.368 0.44999999
2.3429999 -4.0180001 -1.367 0.31999999
2.3559999 -4.0120001 -1.368 0.5
2.4159999 -4.085 -1.397 0.30000001
2.4300001 -4.0939999 -1.402 0.41999999
2.4749999 -4.1409998 -1.4220001 0.41999999
2.5220001 -4.1900001 -1.444 0.34999999
2.4920001 -4.1110001 -1.4170001 0.44999999
2.493 -4.0830002 -1.41 0.37
2.5669999 -4.1760001 -1.447 0.33000001
2.5450001 -4.125 -1.4299999 0.43000001
2.612 -4.2049999 -1.4630001 0.30000001
2.6129999 -4.177 -1.455 0.44999999
2.6289999 -4.1739998 -1.457 0.44999999
2.5880001 -4.0799999 -1.425 0.40000001
2.6029999 -4.0749998 -1.426 0.36000001
2.628 -4.086 -1.433 0.41
2.6210001 -4.046 -1.421 0.40000001
2.605 -4.0079999 -1.408 0.36000001
2.6340001 -4.0250001 -1.418 0.33000001
2.6989999 -4.0970001 -1.449 0.40000001
2.724 -4.1069999 -1.456 0.38999999
2.721 -4.073 -1.446 0.36000001
2.6489999 -3.938 -1.397 0.44
2.7119999 -4.0050001 -1.427 0.30000001
2.7780001 -4.0900002 -1.461 0.41
2.799 -4.0939999 -1.466 0.25
2.8740001 -4.1760001 -1.501 0.55000001
2.8329999 -4.0869999 -1.47 0.25
2.8789999 -4.1269999 -1.489 0.55000001
2.8199999 -4.0139999 -1.449 0.38
2.927 -4.1399999 -1.501 0.27000001
2.8940001 -4.079 -1.479 0.51999998
2.881 -4.0339999 -1.465 0.31
2.938 -4.0869999 -1.489 0.44
2.9779999 -4.1149998 -1.5039999 0.34999999
2.9920001 -4.1069999 -1.505 0.5
2.984 -4.0700002 -1.494 0.36000001
2.9679999 -4.0349998 -1.4809999 0.41
2.9749999 -4.0180001 -1.478 0.43000001
2.9549999 -3.964 -1.461 0.38999999
2.9690001 -3.9560001 -1.461 0.28999999
2.9619999 -3.921 -1.451 0.46000001
2.9719999 -3.908 -1.45 0.31999999
3.0120001 -3.9349999 -1.464 0.38
3.0450001 -3.9530001 -1.475 0.44999999
3.046 -3.9419999 -1.473 0.30000001
3.062 -3.937 -1.475 0.43000001
3.0769999 -3.931 -1.476 0.43000001
3.0650001 -3.8889999 -1.4630001 0.36000001
3.1159999 -3.9289999 -1.483 0.38
3.1270001 -3.918 -1.483 0.44
3.049 -3.7950001 -1.436 0.38
3.102 -3.849 -1.461 0.38
3.1670001 -3.905 -1.488 0.34999999
3.1849999 -3.9030001 -1.4910001 0.34999999
3.207 -3.904 -1.495 0.41
3.227 -3.9030001 -1.499 0.36000001
3.2550001 -3.9119999 -1.507 0.41
3.247 -3.878 -1.497 0.33000001
3.266 -3.888 -1.503 0.31999999
3.2249999 -3.8150001 -1.477 0.47
3.1559999 -3.7079999 -1.437 0.28999999
3.3110001 -3.8670001 -1.508 0.31999999
3.026 -3.5090001 -1.3609999 0.44999999
3.3299999 -3.8399999 -1.505 0.38999999
3.3889999 -3.885 -1.528 0.28999999
3.3829999 -3.865 -1.522 0.46000001
3.3729999 -3.829 -1.511 0.34
3.4070001 -3.8440001 -1.522 0.44999999
3.444 -3.862 -1.534 0.22
3.493 -3.892 -1.552 0.51999998
3.5120001 -3.888 -1.5549999 0.36000001
3.523 -3.888 -1.558 0.38
3.543 -3.8859999 -1.561 0.34999999
3.5580001 -3.8770001 -1.562 0.5
3.575 -3.872 -1.5650001 0.25999999
3.585 -3.858 -1.564 0.47999999
3.608 -3.859 -1.569 0.36000001
3.6110001 -3.8380001 -1.5650001 0.50999999
3.645 -3.8499999 -1.575 0.28
3.641 -3.8329999 -1.5700001 0.55000001
3.6570001 -3.826 -1.572 0.27000001
3.677 -3.823 -1.576 0.55000001
3.7149999 -3.839 -1.5880001 0.27000001
3.711 -3.8110001 -1.581 0.47999999
3.727 -3.803 -1.5829999 0.43000001
3.7579999 -3.8099999 -1.591 0.31
3.7490001 -3.789 -1.584 0.43000001
3.78 -3.7969999 -1.5930001 0.28999999
3.789 -3.7820001 -1.592 0.55000001
3.8050001 -3.7739999 -1.594 0.34
3.8139999 -3.76 -1.592 0.57999998
3.8310001 -3.753 -1.595 0.38
3.8570001 -3.7539999 -1.601 0.36000001
3.8559999 -3.7409999 -1.598 0.43000001
3.872 -3.733 -1.6 0.44999999
3.8889999 -3.7260001 -1.602 0.34999999
3.891 -3.7049999 -1.598 0.52999997
3.911 -3.701 -1.601 0.28999999
3.9089999 -3.675 -1.595 0.44999999
3.934 -3.6760001 -1.601 0.43000001
3.9579999 -3.687 -1.609 0.28999999
3.973 -3.678 -1.6109999 0.22
3.993 -3.6730001 -1.615 0.5
4.0219998 -3.6760001 -1.622 0.31999999
4.026 -3.6570001 -1.619 0.30000001
4.0619998 -3.6659999 -1.6289999 0.23
4.079 -3.6700001 -1.6339999 0.57999998
4.1059999 -3.6719999 -1.641 0.30000001
4.1360002 -3.675 -1.649 0.27000001
4.1539998 -3.668 -1.652 0.37
4.1739998 -3.6630001 -1.656 0.34999999
4.1919999 -3.655 -1.658 0.30000001
4.2319999 -3.6670001 -1.67 0.38
4.2459998 -3.668 -1.674 0.30000001
4.2690001 -3.664 -1.679 0.23
4.2779999 -3.648 -1.678 0.43000001
4.309 -3.652 -1.686 0.31999999
4.3299999 -3.6459999 -1.6900001 0.38999999
4.3340001 -3.6259999 -1.687 0.41999999
4.348 -3.615 -1.688 0.38
4.3569999 -3.6110001 -1.689 0.43000001
4.3779998 -3.6059999 -1.693 0.41999999
4.3779998 -3.582 -1.689 0.30000001
4.3990002 -3.5769999 -1.693 0.34999999
4.4130001 -3.5650001 -1.694 0.31999999
4.4190001 -3.5469999 -1.692 0.31
4.4299998 -3.533 -1.692 0.31
4.4400001 -3.529 -1.693 0.34
4.4349999 -3.5020001 -1.687 0.28999999
4.4569998 -3.4979999 -1.692 0.33000001
4.4710002 -3.4860001 -1.693 0.31999999
4.4749999 -3.4660001 -1.6900001 0.30000001
4.493 -3.4579999 -1.693 0.34
4.5089998 -3.447 -1.6950001 0.31999999
4.4990001 -3.4289999 -1.689 0.28999999
4.513 -3.4170001 -1.6900001 0.30000001
4.5359998 -3.4119999 -1.6950001 0.33000001
4.54 -3.3929999 -1.692 0.31999999
4.552 -3.3800001 -1.693 0.30000001
4.5599999 -3.3629999 -1.692 0.28999999
4.573 -3.3510001 -1.693 0.34
4.5739999 -3.3410001 -1.691 0.30000001
4.5999999 -3.3369999 -1.697 0.34
4.5949998 -3.312 -1.691 0.31999999
4.6100001 -3.3010001 -1.693 0.31
4.631 -3.2939999 -1.697 0.34
4.6230001 -3.266 -1.6900001 0.27000001
4.6269999 -3.247 -1.687 0.30000001
4.6539998 -3.2550001 -1.696 0.33000001
4.6589999 -3.237 -1.694 0.31
4.6589999 -3.2149999 -1.6900001 0.25999999
4.6830001 -3.21 -1.6950001 0.30000001
4.677 -3.1849999 -1.689 0.31999999
4.6810002 -3.1659999 -1.687 0.28
4.7080002 -3.1630001 -1.693 0.33000001
4.6989999 -3.1459999 -1.688 0.30000001
4.7119999 -3.1329999 -1.689 0.27000001
4.7309999 -3.125 -1.693 0.34
4.7189999 -3.095 -1.684 0.30000001
4.7410002 -3.089 -1.689 0.34
4.756 -3.0769999 -1.691 0.31
4.757 -3.0569999 -1.688 0.28999999
4.7639999 -3.05 -1.689 0.33000001
4.7839999 -3.0420001 -1.693 0.31999999
4.7810001 -3.0190001 -1.688 0.31999999
4.7950001 -3.007 -1.6900001 0.25999999
4.803 -2.9909999 -1.689 0.30000001
4.816 -2.9779999 -1.6900001 0.36000001
4.8119998 -2.9549999 -1.6849999 0.22
4.8270001 -2.9530001 -1.689 0.33000001
4.8330002 -2.9360001 -1.688 0.33000001
4.8319998 -2.915 -1.684 0.28
4.8559999 -2.9089999 -1.6900001 0.30000001
4.8600001 -2.8900001 -1.688 0.34
4.869 -2.875 -1.688 0.27000001
4.8800001 -2.8610001 -1.689 0.28999999
4.881 -2.8510001 -1.687 0.31999999
4.8829999 -2.832 -1.6849999 0.27000001
4.895 -2.819 -1.686 0.28999999
4.908 -2.8050001 -1.687 0.31
4.9200001 -2.7920001 -1.689 0.31
4.915 -2.7690001 -1.684 0.25
4.921 -2.7509999 -1.682 0.34999999
4.9250002 -2.743 -1.682 0.28999999
4.947 -2.7349999 -1.687 0.34999999
4.9489999 -2.7160001 -1.6849999 0.30000001
4.961 -2.7019999 -1.686 0.28999999
4.954 -2.6789999 -1.681 0.28999999
4.9590001 -2.661 -1.679 0.20999999
4.9710002 -2.6470001 -1.681 0.17
4.9460001 -2.6240001 -1.67 0.58999997
4.9759998 -2.6199999 -1.678 0.20999999
4.9559999 -2.5899999 -1.668 0.58999997
4.9879999 -2.586 -1.676 0.44999999
5.0089998 -2.5780001 -1.681 0.31
5.0219998 -2.5650001 -1.683 0.30000001
5.027 -2.5469999 -1.682 0.30000001
5.0339999 -2.5409999 -1.683 0.31999999
5.0359998 -2.5220001 -1.681 0.28
5.04 -2.5039999 -1.679 0.28999999
5.0450001 -2.487 -1.678 0.31999999
5.0609999 -2.4749999 -1.681 0.30000001
5.0739999 -2.4619999 -1.683 0.31999999
5.0679998 -2.4389999 -1.678 0.27000001
5.0700002 -2.4300001 -1.678 0.31999999
5.0809999 -2.4159999 -1.679 0.31
5.0749998 -2.3929999 -1.674 0.28999999
5.0840001 -2.378 -1.675 0.30000001
5.0910001 -2.362 -1.675 0.27000001
5.1040001 -2.349 -1.676 0.34
5.1040001 -2.329 -1.674 0.25999999
5.1079998 -2.3210001 -1.674 0.33000001
5.1139998 -2.3039999 -1.673 0.33000001
5.1170001 -2.2869999 -1.6720001 0.31
5.1230001 -2.27 -1.671 0.31
5.1350002 -2.256 -1.673 0.31
5.1350002 -2.237 -1.671 0.28
5.1459999 -2.2219999 -1.6720001 0.34
5.1469998 -2.214 -1.671 0.30000001
5.1389999 -2.191 -1.666 0.27000001
5.152 -2.177 -1.668 0.2
5.1700001 -2.1659999 -1.6720001 0.25999999
5.184 -2.152 -1.675 0.69999999
5.1869998 -2.135 -1.673 0.74000001
5.197 -2.1199999 -1.675 0.70999998
5.1999998 -2.112 -1.675 0.69
5.2069998 -2.095 -1.675 0.69
5.21 -2.0769999 -1.673 0.73000002
5.2160001 -2.0610001 -1.673 0.74000001
5.2160001 -2.0420001 -1.671 0.76999998
5.2290001 -2.0280001 -1.673 0.73000002
5.237 -2.0120001 -1.674 0.63
5.2410002 -2.0039999 -1.674 0.67000002
5.2420001 -1.9859999 -1.6720001 0.68000001
5.244 -1.9680001 -1.671 0.74000001
5.2490001 -1.951 -1.67 0.74000001
5.2649999 -1.938 -1.674 0.70999998
5.2589998 -1.9170001 -1.67 0.70999998
5.2649999 -1.901 -1.67 0.44
5.2659998 -1.892 -1.669 0.31999999
5.263 -1.872 -1.666 0.25999999
5.2779999 -1.858 -1.669 0.33000001
5.2839999 -1.842 -1.669 0.30000001
5.289 -1.825 -1.669 0.33000001
5.3010001 -1.811 -1.671 0.30000001
5.303 -1.802 -1.671 0.28999999
5.3109999 -1.786 -1.671 0.31999999
5.3039999 -1.765 -1.6670001 0.27000001
5.3239999 -1.753 -1.6720001 0.31999999
5.3179998 -1.733 -1.668 0.28
5.336 -1.72 -1.673 0.34
5.336 -1.702 -1.671 0.28999999
5.3319998 -1.691 -1.668 0.30000001
5.3520002 -1.679 -1.673 0.31
5.3410001 -1.6569999 -1.668 0.33000001
5.3569999 -1.6440001 -1.671 0.25999999
5.3579998 -1.626 -1.67 0.27000001
5.3579998 -1.607 -1.668 0.31999999
5.3720002 -1.5930001 -1.671 0.30000001
5.3779998 -1.586 -1.673 0.30000001
5.3829999 -1.569 -1.673 0.27000001
5.3899999 -1.553 -1.673 0.28
5.3979998 -1.5369999 -1.675 0.28
5.3979998 -1.518 -1.673 0.30000001
5.402 -1.501 -1.673 0.31
5.4120002 -1.4859999 -1.675 0.27000001
5.4000001 -1.473 -1.67 0.27000001
5.4180002 -1.46 -1.674 0.25999999
5.4369998 -1.447 -1.679 0.28
5.4250002 -1.425 -1.673 0.31
5.427 -1.408 -1.673 0.28
5.467 -1.4 -1.684 0.23999999
5.4450002 -1.376 -1.676 0.23999999
5.4460001 -1.367 -1.675 0.2
5.474 -1.3559999 -1.683 0.31999999
5.454 -1.3329999 -1.675 0.25
5.4770002 -1.3200001 -1.681 0.27000001
5.4920001 -1.3049999 -1.6849999 0.28
5.4850001 -1.286 -1.681 0.28
5.48 -1.266 -1.678 0.18000001
5.4980001 -1.261 -1.684 0.28999999
5.4910002 -1.242 -1.6799999 0.25
5.4910002 -1.223 -1.679 0.16
5.5159998 -1.211 -1.6849999 0.28999999
5.5029998 -1.1900001 -1.6799999 0.25
5.5139999 -1.174 -1.682 0.25
5.5310001 -1.16 -1.687 0.27000001
5.5079999 -1.137 -1.678 0.18000001
5.5320001 -1.133 -1.6849999 0.28999999
5.539 -1.1160001 -1.687 0.23999999
5.5240002 -1.095 -1.681 0.19
5.5370002 -1.079 -1.684 0.27000001
5.54 -1.062 -1.684 0.23999999
5.5419998 -1.044 -1.683 0.25
5.5430002 -1.035 -1.683 0.2
5.5580001 -1.02 -1.687 0.25999999
5.5409999 -0.99900001 -1.6799999 0.22
5.5570002 -0.98400003 -1.684 0.27000001
5.5650001 -0.96700001 -1.686 0.22
5.5679998 -0.94999999 -1.686 0.13
5.5679998 -0.93199998 -1.6849999 0.20999999
5.5650001 -0.92199999 -1.684 0.16
5.5739999 -0.90600002 -1.6849999 0.28
5.5580001 -0.88499999 -1.679 0.25
5.5939999 -0.87300003 -1.6900001 0.23999999
5.5609999 -0.85000002 -1.679 0.17
5.5830002 -0.83499998 -1.6849999 0.28999999
5.5840001 -0.81800002 -1.684 0.22
5.5739999 -0.80699998 -1.681 0.2
5.5910001 -0.792 -1.6849999 0.13
5.586 -0.773 -1.683 0.2
5.592 -0.75599998 -1.684 0.11
5.5929999 -0.73799998 -1.684 0.079999998
5.5929999 -0.72100002 -1.683 0.079999998
5.5900002 -0.70200002 -1.681 0.079999998
5.586 -0.68400002 -1.679 0.039999999
5.5970001 -0.676 -1.682 0.079999998
5.5890002 -0.65799999 -1.679 0.039999999
5.599 -0.64099997 -1.682 0
5.6009998 -0.62300003 -1.682 0
5.5970001 -0.60500002 -1.6799999 0
5.625 -0.56400001 -1.687 0.14
5.6259999 -0.546 -1.687 0.19
5.6300001 -0.528 -1.688 0.25
5.6139998 -0.509 -1.682 0.23
5.6269999 -0.49200001 -1.686 0.23
5.6360002 -0.47499999 -1.689 0.25
5.632 -0.46599999 -1.687 0.20999999
5.6290002 -0.44800001 -1.6849999 0.11
5.619 -0.42899999 -1.682 0.2
5.6300001 -0.41299999 -1.6849999 0.18000001
5.6329999 -0.39500001 -1.6849999 0.25999999
5.625 -0.377 -1.682 0.22
5.6170001 -0.35800001 -1.679 0.17
5.6339998 -0.35100001 -1.6849999 0.25999999
5.6279998 -0.33199999 -1.682 0.25
5.6290002 -0.315 -1.682 0.18000001
5.6469998 -0.29800001 -1.688 0.25999999
5.632 -0.27900001 -1.683 0.25
5.6389999 -0.26199999 -1.6849999 0.2
5.6440001 -0.245 -1.686 0.23999999
5.652 -0.236 -1.689 0.20999999
5.6370001 -0.21799999 -1.684 0.12
5.6430001 -0.2 -1.6849999 0.20999999
5.6479998 -0.183 -1.687 0.27000001
5.6389999 -0.164 -1.684 0.17
5.6490002 -0.147 -1.687 0.27000001
5.6440001 -0.12899999 -1.6849999 0.23
5.6440001 -0.12 -1.6849999 0.19
5.652 -0.103 -1.687 0.28
5.6690001 -0.085000001 -1.693 0.20999999
5.645 -0.067000002 -1.6849999 0.12
5.6409998 -0.048999999 -1.684 0.20999999
5.6529999 -0.032000002 -1.687 0.27000001
5.6389999 -0.014 -1.683 0.2
5.6560001 -0.0049999999 -1.689 0.28
5.4520001 0.0020000001 -1.686 0.31999999
5.441 0.018999999 -1.682 0.28999999
5.454 0.035999998 -1.687 0.31999999
5.4460001 0.052999999 -1.684 0.31999999
5.4429998 0.07 -1.683 0.27000001
5.4460001 0.079000004 -1.684 0.28999999
5.4349999 0.094999999 -1.6799999 0.27000001
5.4549999 0.113 -1.687 0.36000001
5.4580002 0.13 -1.689 0.25
5.441 0.147 -1.683 0.31
5.4390001 0.164 -1.682 0.33000001
5.4489999 0.18099999 -1.686 0.25
5.4400001 0.19 -1.683 0.28999999
5.4369998 0.207 -1.682 0.31
5.4460001 0.22400001 -1.6849999 0.31999999
5.441 0.241 -1.684 0.28999999
5.4349999 0.25799999 -1.682 0.30000001
5.4400001 0.27500001 -1.684 0.34
5.4310002 0.292 -1.682 0.33000001
5.4289999 0.30000001 -1.681 0.23
5.4359999 0.31799999 -1.684 0.28999999
5.427 0.33399999 -1.681 0.30000001
5.4299998 0.352 -1.682 0.28999999
5.4299998 0.36899999 -1.683 0.33000001
5.427 0.38600001 -1.682 0.28999999
5.4190001 0.40200001 -1.6799999 0.27000001
5.4289999 0.412 -1.684 0.31
5.4109998 0.42699999 -1.678 0.30000001
5.428 0.44600001 -1.684 0.31999999
5.4190001 0.46200001 -1.682 0.28999999
5.4099998 0.479 -1.679 0.31999999
5.4130001 0.49599999 -1.6799999 0.27000001
5.4239998 0.514 -1.6849999 0.31
5.4120002 0.52200001 -1.681 0.30000001
5.4089999 0.53899997 -1.6799999 0.25
5.4130001 0.55599999 -1.682 0.30000001
5.4050002 0.57300001 -1.6799999 0.28999999
5.4000001 0.58899999 -1.679 0.28999999
5.401 0.60600001 -1.6799999 0.31999999
5.401 0.62400001 -1.681 0.31
5.3969998 0.63200003 -1.6799999 0.25999999
5.3930001 0.648 -1.679 0.33000001
5.4000001 0.667 -1.682 0.28999999
5.3940001 0.68300003 -1.681 0.27000001
5.3860002 0.699 -1.679 0.30000001
5.388 0.71700001 -1.6799999 0.31999999
5.3860002 0.73400003 -1.6799999 0.27000001
5.388 0.74299997 -1.682 0.30000001
5.3839998 0.759 -1.681 0.31999999
5.3850002 0.77700001 -1.682 0.28
5.381 0.79299998 -1.682 0.28999999
5.3730001 0.80900002 -1.6799999 0.30000001
5.3800001 0.82800001 -1.683 0.30000001
5.3790002 0.84500003 -1.684 0.28999999
5.3740001 0.85299999 -1.682 0.28999999
5.3670001 0.86900002 -1.681 0.30000001
5.3660002 0.88599998 -1.682 0.31
5.369 0.90399998 -1.684 0.30000001
5.3629999 0.92000002 -1.682 0.28
5.3670001 0.93800002 -1.6849999 0.28999999
5.3530002 0.95300001 -1.681 0.27000001
5.348 0.96100003 -1.6799999 0.34
5.3390002 0.977 -1.678 0.28
5.336 0.99299997 -1.678 0.23
5.3530002 1.0140001 -1.6849999 0.31999999
5.3390002 1.029 -1.681 0.27000001
5.3299999 1.044 -1.679 0.28999999
5.342 1.0549999 -1.684 0.31
5.3460002 1.074 -1.686 0.30000001
5.3330002 1.089 -1.683 0.30000001
5.3200002 1.103 -1.6799999 0.31999999
5.335 1.124 -1.686 0.25999999
5.3280001 1.14 -1.6849999 0.30000001
5.323 1.156 -1.684 0.28
5.3260002 1.175 -1.687 0.28999999
5.3119998 1.1799999 -1.682 0.31999999
5.323 1.2 -1.687 0.23999999
5.3130002 1.216 -1.6849999 0.30000001
5.302 1.2309999 -1.683 0.31
5.2870002 1.245 -1.679 0.25
5.3109999 1.268 -1.689 0.34999999
5.3010001 1.283 -1.687 0.30000001
5.2919998 1.29 -1.684 0.31
5.2969999 1.309 -1.687 0.27000001
5.2909999 1.325 -1.687 0.30000001
5.2810001 1.34 -1.6849999 0.28
5.29 1.36 -1.689 0.28
5.2600002 1.37 -1.6799999 0.31
5.2740002 1.391 -1.687 0.25999999
5.2750001 1.4 -1.688 0.25999999
5.2649999 1.416 -1.686 0.33000001
5.263 1.433 -1.687 0.27000001
5.2620001 1.45 -1.688 0.31
5.2449999 1.4630001 -1.684 0.31999999
5.2379999 1.479 -1.683 0.28999999
5.2480001 1.5 -1.688 0.31
5.2399998 1.506 -1.686 0.34
5.2410002 1.524 -1.688 0.30000001
5.2270002 1.538 -1.6849999 0.28
5.2329998 1.558 -1.689 0.34999999
5.2210002 1.572 -1.686 0.27000001
5.2160001 1.5880001 -1.686 0.30000001
5.21 1.596 -1.6849999 0.28
5.2010002 1.6109999 -1.684 0.31
5.2160001 1.633 -1.6900001 0.33000001
5.1960001 1.645 -1.6849999 0.31
5.2069998 1.6670001 -1.691 0.33000001
5.1880002 1.678 -1.686 0.25
5.184 1.6950001 -1.687 0.34
5.1890001 1.706 -1.689 0.34999999
5.1830001 1.722 -1.689 0.31999999
5.1599998 1.732 -1.683 0.30000001
5.171 1.7539999 -1.689 0.33000001
5.165 1.77 -1.689 0.28
5.145 1.781 -1.684 0.31999999
5.1500001 1.801 -1.687 0.31
5.152 1.8200001 -1.6900001 0.34999999
5.1329999 1.822 -1.684 0.30000001
5.1399999 1.8430001 -1.689 0.34
5.1370001 1.86 -1.6900001 0.31
5.1230001 1.873 -1.687 0.25999999
5.1149998 1.8890001 -1.686 0.31
5.1230001 1.91 -1.691 0.34999999
5.099 1.919 -1.6849999 0.36000001
5.105 1.931 -1.688 0.31999999
5.1009998 1.948 -1.689 0.28
5.0879998 1.961 -1.686 0.33000001
5.0689998 1.972 -1.682 0.28999999
5.0840001 1.9960001 -1.689 0.36000001
5.0669999 2.0079999 -1.6849999 0.31
5.0679998 2.027 -1.688 0.36000001
5.079 2.04 -1.693 0.34
5.0419998 2.0439999 -1.682 0.30000001
5.0500002 2.066 -1.687 0.36000001
5.0370002 2.079 -1.6849999 0.31999999
5.0229998 2.092 -1.682 0.31999999
5.0300002 2.1129999 -1.687 0.36000001
5.027 2.1210001 -1.687 0.31999999
5.0190001 2.1359999 -1.687 0.38999999
5.0149999 2.1530001 -1.688 0.28999999
5.0219998 2.175 -1.693 0.34999999
5.0029998 2.1860001 -1.689 0.34
5.0139999 2.2090001 -1.6950001 0.36000001
5.0019999 2.223 -1.693 0.25
4.9829998 2.223 -1.687 0.23
4.9959998 2.2479999 -1.6950001 0.31999999
4.9860001 2.263 -1.694 0.63
4.9549999 2.267 -1.6849999 0.40000001
4.9720001 2.2939999 -1.694 0.23
4.9710002 2.332 -1.699 0.28
4.9699998 2.3499999 -1.701 0.44
4.9629998 2.3570001 -1.7 0.37
4.9299998 2.3599999 -1.6900001 0.54000002
4.9310002 2.3789999 -1.694 0.47999999
4.9369998 2.402 -1.699 0.30000001
4.9250002 2.415 -1.697 0.36000001
4.9200001 2.4319999 -1.698 0.28999999
4.914 2.448 -1.699 0.33000001
4.9109998 2.4560001 -1.699 0.37
4.9029999 2.471 -1.699 0.30000001
4.9050002 2.4920001 -1.702 0.34999999
4.8940001 2.5050001 -1.701 0.28999999
4.8909998 2.523 -1.7029999 0.28999999
4.8870001 2.5409999 -1.704 0.40000001
4.8720002 2.552 -1.702 0.34
4.868 2.5599999 -1.702 0.28999999
4.8759999 2.5840001 -1.7079999 0.38
4.855 2.592 -1.7029999 0.25999999
4.848 2.608 -1.704 0.33000001
4.8499999 2.6289999 -1.707 0.36000001
4.8400002 2.6429999 -1.707 0.34999999
4.835 2.661 -1.7079999 0.34
4.8330002 2.6689999 -1.709 0.31999999
4.8239999 2.684 -1.709 0.34
4.8210001 2.7019999 -1.711 0.30000001
4.816 2.7190001 -1.712 0.27000001
4.809 2.7349999 -1.712 0.36000001
4.8000002 2.75 -1.712 0.28
4.8010001 2.7609999 -1.714 0.36000001
4.8130002 2.7880001 -1.723 0.37
4.7849998 2.7920001 -1.715 0.25
4.776 2.8069999 -1.715 0.31
4.7690001 2.823 -1.716 0.31999999
4.7620001 2.839 -1.716 0.31999999
4.7589998 2.858 -1.719 0.31
4.7529998 2.8640001 -1.7180001 0.34999999
4.7540002 2.885 -1.722 0.30000001
4.7579999 2.908 -1.727 0.31999999
4.7389998 2.9170001 -1.723 0.30000001
4.7280002 2.931 -1.723 0.34
4.7199998 2.9460001 -1.723 0.30000001
4.7010002 2.9549999 -1.719 0.28
4.6999998 2.9749999 -1.723 0.38
4.6950002 2.9820001 -1.723 0.30000001
4.7020001 3.007 -1.729 0.37
4.6890001 3.02 -1.728 0.25
4.6849999 3.0380001 -1.729 0.33000001
4.6659999 3.046 -1.726 0.28999999
4.6589999 3.063 -1.727 0.34
4.6620002 3.086 -1.732 0.31
4.6620002 3.0969999 -1.734 0.31
4.6620002 3.118 -1.738 0.31999999
4.6409998 3.125 -1.733 0.27000001
4.6360002 3.1429999 -1.735 0.31999999
4.6290002 3.1589999 -1.7359999 0.31
4.6079998 3.1659999 -1.732 0.31
4.618 3.1949999 -1.74 0.34
4.6160002 3.204 -1.7410001 0.27000001
4.5879998 3.2060001 -1.734 0.28
4.5949998 3.2320001 -1.7410001 0.34
4.5780001 3.2420001 -1.738 0.30000001
4.5599999 3.2509999 -1.735 0.27000001
4.5560002 3.27 -1.738 0.30000001
4.5570002 3.2920001 -1.742 0.34
4.5469999 3.296 -1.74 0.31999999
4.546 3.3169999 -1.744 0.31
4.5229998 3.322 -1.739 0.27000001
4.5159998 3.3380001 -1.74 0.31
4.5079999 3.355 -1.7410001 0.31
4.507 3.3759999 -1.745 0.33000001
4.487 3.3829999 -1.7410001 0.25
4.4920001 3.398 -1.7460001 0.38
4.4819999 3.4119999 -1.7460001 0.31999999
4.4720001 3.428 -1.7460001 0.28999999
4.4660001 3.4449999 -1.748 0.31
4.46 3.4630001 -1.75 0.30000001
4.4429998 3.4719999 -1.748 0.31
4.4359999 3.4890001 -1.75 0.31999999
4.4169998 3.4860001 -1.744 0.27000001
4.4229999 3.513 -1.751 0.34999999
4.4130001 3.5280001 -1.751 0.37
4.408 3.546 -1.7539999 0.28999999
4.3850002 3.5510001 -1.749 0.34
4.3779998 3.5680001 -1.751 0.34
4.3709998 3.585 -1.753 0.31999999
4.3720002 3.5969999 -1.755 0.33000001
4.3629999 3.6129999 -1.756 0.31999999
4.3499999 3.6259999 -1.756 0.34
4.3390002 3.6389999 -1.756 0.31
4.3299999 3.655 -1.757 0.36000001
4.3119998 3.6630001 -1.7539999 0.34
4.323 3.6960001 -1.7640001 0.33000001
4.3049998 3.6919999 -1.758 0.33000001
4.289 3.7019999 -1.756 0.31
4.2859998 3.7219999 -1.76 0.28
4.2750001 3.737 -1.761 0.36000001
4.2610002 3.7479999 -1.76 0.27000001
4.2740002 3.7839999 -1.771 0.41
4.2509999 3.7869999 -1.766 0.23
4.2399998 3.789 -1.763 0.31999999
4.2329998 3.8069999 -1.766 0.31999999
4.2179999 3.8180001 -1.765 0.34999999
4.2020001 3.8280001 -1.763 0.31
4.1960001 3.846 -1.765 0.34999999
4.1789999 3.855 -1.763 0.31
4.165 3.8659999 -1.762 0.37
4.171 3.8840001 -1.768 0.28
4.1500001 3.8889999 -1.7640001 0.38999999
4.1459999 3.9100001 -1.768 0.34
4.1259999 3.915 -1.7640001 0.28999999
4.125 3.9389999 -1.7690001 0.34999999
4.1110001 3.95 -1.768 0.28999999
4.1110001 3.9749999 -1.774 0.34
4.092 3.97 -1.768 0.34
4.0809999 3.984 -1.7690001 0.37
4.079 4.007 -1.774 0.30000001
4.0560002 4.0089998 -1.7690001 0.38999999
4.0450001 4.0229998 -1.77 0.28
4.0450001 4.0500002 -1.776 0.28999999
4.0409999 4.0700002 -1.78 0.43000001
4.0170002 4.059 -1.772 0.25999999
4.02 4.0879998 -1.779 0.28999999
4.007 4.1009998 -1.779 0.40000001
3.99 4.1090002 -1.777 0.34
3.983 4.1269999 -1.78 0.28999999
3.9679999 4.138 -1.779 0.38
3.9549999 4.151 -1.779 0.33000001
3.9530001 4.1609998 -1.781 0.34
3.9449999 4.1789999 -1.784 0.33000001
3.928 4.1869998 -1.7819999 0.28999999
3.9200001 4.2049999 -1.784 0.38999999
3.9130001 4.224 -1.7869999 0.30000001
3.892 4.2280002 -1.784 0.31999999
3.8900001 4.2529998 -1.789 0.34999999
3.8829999 4.2589998 -1.789 0.34
3.8729999 4.2740002 -1.79 0.36000001
3.8599999 4.2880001 -1.791 0.30000001
3.842 4.2940001 -1.789 0.31999999
3.832 4.3099999 -1.79 0.31999999
3.8299999 4.335 -1.796 0.36000001
3.809 4.3390002 -1.7920001 0.31999999
3.803 4.3460002 -1.793 0.28999999
3.7939999 4.3639998 -1.795 0.34
3.779 4.3740001 -1.795 0.28
3.7639999 4.3850002 -1.794 0.34
3.7639999 4.4120002 -1.801 0.34999999
3.7449999 4.4180002 -1.799 0.23999999
3.7279999 4.4260001 -1.7970001 0.31999999
3.733 4.4460001 -1.803 0.34
3.7179999 4.4569998 -1.802 0.30000001
3.7 4.4640002 -1.8 0.34
3.6919999 4.4829998 -1.804 0.34
3.6819999 4.4990001 -1.806 0.31999999
3.6600001 4.5009999 -1.802 0.27000001
3.6500001 4.5170002 -1.804 0.34
3.638 4.5320001 -1.8049999 0.25999999
3.645 4.5549998 -1.812 0.37
3.6210001 4.5549998 -1.807 0.28
3.609 4.5689998 -1.809 0.31
3.5880001 4.5710001 -1.8049999 0.25999999
3.586 4.599 -1.812 0.34
3.5669999 4.6040001 -1.809 0.27000001
3.556 4.6199999 -1.811 0.34
3.549 4.6259999 -1.811 0.31999999
3.533 4.6350002 -1.811 0.28999999
3.5250001 4.6560001 -1.814 0.36000001
3.5209999 4.6799998 -1.8200001 0.31
3.4949999 4.6760001 -1.814 0.22
3.4760001 4.6810002 -1.811 0.30000001
3.4679999 4.7010002 -1.8150001 0.31
3.4560001 4.6999998 -1.812 0.30000001
3.447 4.7189999 -1.816 0.30000001
3.437 4.737 -1.819 0.34999999
3.421 4.7470002 -1.818 0.31999999
3.4059999 4.757 -1.818 0.30000001
3.395 4.7729998 -1.8200001 0.34
3.3740001 4.776 -1.817 0.28999999
3.3699999 4.7859998 -1.819 0.28
3.358 4.8010001 -1.821 0.36000001
3.339 4.8049998 -1.818 0.30000001
3.329 4.823 -1.821 0.30000001
3.3110001 4.829 -1.819 0.33000001
3.2939999 4.8379998 -1.819 0.31999999
3.2820001 4.8530002 -1.821 0.33000001
3.279 4.8639998 -1.823 0.31
3.2609999 4.8699999 -1.821 0.31999999
3.2479999 4.8850002 -1.823 0.34999999
3.2320001 4.8930001 -1.823 0.31999999
3.2149999 4.9000001 -1.821 0.30000001
3.207 4.9229999 -1.826 0.31
3.1919999 4.9330001 -1.826 0.31999999
3.184 4.9380002 -1.826 0.34
3.171 4.9520001 -1.8279999 0.37
3.152 4.9569998 -1.826 0.28999999
3.138 4.9699998 -1.827 0.34
3.128 4.9879999 -1.83 0.36000001
3.1140001 5.0009999 -1.831 0.28999999
3.098 5.0100002 -1.831 0.33000001
3.0880001 5.0100002 -1.829 0.28999999
3.072 5.02 -1.829 0.30000001
3.052 5.0229998 -1.827 0.30000001
3.0409999 5.0409999 -1.83 0.28999999
3.0309999 5.0599999 -1.834 0.38
3.0090001 5.0599999 -1.83 0.28999999
3.0009999 5.0819998 -1.835 0.34999999
2.99 5.0819998 -1.8329999 0.25
2.9790001 5.0999999 -1.836 0.38
2.9619999 5.1079998 -1.836 0.20999999
2.9460001 5.1170001 -1.836 0.31999999
2.925 5.118 -1.8329999 0.25
2.911 5.1300001 -1.834 0.11
2.902 5.1529999 -1.839 0.090000004
2.8889999 5.1469998 -1.835 0
2.8729999 5.158 -1.836 0
2.8610001 5.1739998 -1.8380001 0
2.8410001 5.1760001 -1.836 0
2.8239999 5.1830001 -1.835 0
2.8110001 5.1989999 -1.8380001 0.029999999
2.802 5.2210002 -1.8430001 0.029999999
2.793 5.243 -1.848 0.16
2.79 5.2589998 -1.852 0.20999999
2.7720001 5.2649999 -1.851 0.31999999
2.7490001 5.2600002 -1.846 0.22
2.7290001 5.2620001 -1.8430001 0.33000001
2.714 5.2740002 -1.845 0.31999999
2.6960001 5.2800002 -1.844 0.34
2.6860001 5.3010001 -1.848 0.34
2.6789999 5.3080001 -1.85 0.31
2.658 5.3080001 -1.846 0.31
2.642 5.3179998 -1.847 0.31
2.6259999 5.3270001 -1.847 0.31
2.6129999 5.3429999 -1.85 0.31999999
2.596 5.3509998 -1.85 0.31999999
2.582 5.3649998 -1.852 0.34
2.573 5.369 -1.852 0.31999999
2.556 5.375 -1.851 0.27000001
2.539 5.3829999 -1.851 0.28
2.523 5.395 -1.853 0.36000001
2.5079999 5.4060001 -1.854 0.28999999
2.493 5.4169998 -1.855 0.36000001
2.4760001 5.427 -1.8559999 0.31
2.473 5.4429998 -1.86 0.37
2.457 5.4520001 -1.8609999 0.27000001
2.438 5.4549999 -1.859 0.31999999
2.425 5.473 -1.863 0.31999999
2.4059999 5.4770002 -1.8609999 0.31999999
2.388 5.4829998 -1.8609999 0.33000001
2.3729999 5.4949999 -1.863 0.34
2.3629999 5.4959998 -1.8609999 0.25
2.349 5.5100002 -1.864 0.34999999
2.3369999 5.5310001 -1.869 0.34999999
2.319 5.5349998 -1.868 0.31
2.3050001 5.553 -1.872 0.33000001
2.2809999 5.5430002 -1.865 0.28
2.2650001 5.553 -1.867 0.34
2.26 5.566 -1.87 0.31
2.243 5.5739999 -1.87 0.34
2.224 5.5780001 -1.869 0.31
2.21 5.5939999 -1.872 0.31
2.198 5.6149998 -1.877 0.34
2.1719999 5.5999999 -1.87 0.27000001
2.158 5.618 -1.873 0.33000001
2.1530001 5.6300001 -1.877 0.31
2.1340001 5.6329999 -1.875 0.34
2.1159999 5.638 -1.875 0.30000001
2.1040001 5.6630001 -1.881 0.34
2.0840001 5.6620002 -1.878 0.31
2.0680001 5.6739998 -1.88 0.31999999
2.0480001 5.6750002 -1.878 0.28999999
2.039 5.678 -1.878 0.34999999
2.0239999 5.6919999 -1.881 0.25999999
2.0090001 5.7069998 -1.8839999 0.33000001
1.99 5.7080002 -1.882 0.31
1.975 5.723 -1.885 0.31999999
1.957 5.7309999 -1.886 0.31999999
1.937 5.7319999 -1.8839999 0.31999999
1.929 5.737 -1.885 0.31
1.9119999 5.7459998 -1.886 0.30000001
1.898 5.7649999 -1.89 0.37
1.876 5.7579999 -1.886 0.25
1.8609999 5.7750001 -1.89 0.34
1.835 5.7540002 -1.88 0.25999999
1.823 5.7789998 -1.887 0.34
1.809 5.8000002 -1.892 0.30000001
1.801 5.8039999 -1.893 0.28999999
1.781 5.8039999 -1.891 0.31999999
1.766 5.8210001 -1.895 0.25999999
1.743 5.8119998 -1.89 0.31999999
1.723 5.8119998 -1.888 0.30000001
1.714 5.8499999 -1.899 0.31999999
1.691 5.8390002 -1.8940001 0.27000001
1.681 5.836 -1.892 0.31999999
1.669 5.8670001 -1.9 0.33000001
1.6440001 5.848 -1.892 0.27000001
1.627 5.8569999 -1.8940001 0.31999999
1.612 5.8730001 -1.897 0.27000001
1.589 5.8639998 -1.892 0.34
1.573 5.8759999 -1.895 0.27000001
1.563 5.875 -1.8940001 0.28999999
1.549 5.8979998 -1.9 0.25999999
1.528 5.8940001 -1.897 0.27000001
1.513 5.9130001 -1.902 0.34
1.4910001 5.9050002 -1.897 0.28999999
1.475 5.9190001 -1.9 0.28999999
1.456 5.9200001 -1.899 0.30000001
1.4450001 5.9169998 -1.897 0.20999999
1.426 5.921 -1.897 0.30000001
1.413 5.948 -1.905 0.34
1.3940001 5.9499998 -1.904 0.31
1.373 5.9450002 -1.901 0.30000001
1.353 5.9439998 -1.899 0.30000001
1.339 5.9699998 -1.9069999 0.23
1.324 5.947 -1.898 0.28999999
1.312 5.98 -1.908 0.33000001
1.294 5.9899998 -1.91 0.28999999
1.272 5.9770002 -1.904 0.28
1.257 5.9980001 -1.91 0.30000001
1.235 5.987 -1.905 0.28
1.215 5.987 -1.904 0.30000001
1.207 5.9949999 -1.906 0.31999999
1.191 6.013 -1.911 0.31999999
1.1720001 6.0149999 -1.91 0.28
1.152 6.0149999 -1.909 0.31
1.133 6.0170002 -1.908 0.30000001
1.1160001 6.0320001 -1.9119999 0.30000001
1.097 6.033 -1.911 0.25999999
1.087 6.0310001 -1.91 0.31999999
1.066 6.027 -1.9069999 0.31999999
1.05 6.0450001 -1.9119999 0.27000001
1.029 6.0359998 -1.908 0.28999999
1.011 6.046 -1.911 0.28
0.995 6.066 -1.916 0.31999999
0.97299999 6.0539999 -1.911 0.28999999
0.96399999 6.0580001 -1.9119999 0.30000001
0.94599998 6.0650001 -1.913 0.30000001
0.92500001 6.0580001 -1.91 0.27000001
0.90700001 6.0669999 -1.9119999 0.28999999
0.889 6.0749998 -1.914 0.27000001
0.86900002 6.0739999 -1.9119999 0.38
0.85100001 6.0879998 -1.916 0.27000001
0.833 6.098 -1.919 0.28
0.82300001 6.0900002 -1.916 0.30000001
0.80400002 6.0949998 -1.916 0.30000001
0.78500003 6.105 -1.919 0.28999999
0.76599997 6.1009998 -1.9170001 0.28999999
0.74599999 6.0999999 -1.916 0.28999999
0.72799999 6.1100001 -1.918 0.25
0.70700002 6.1009998 -1.914 0.28999999
0.699 6.1149998 -1.919 0.28999999
0.68000001 6.119 -1.919 0.31
0.66000003 6.112 -1.916 0.28999999
0.64099997 6.1199999 -1.918 0.34
0.62300003 6.1269999 -1.92 0.25999999
0.60299999 6.1290002 -1.92 0.31
0.58399999 6.1290002 -1.919 0.28999999
0.57499999 6.1389999 -1.9220001 0.28999999
0.55500001 6.1279998 -1.918 0.23999999
0.53600001 6.1389999 -1.921 0.31999999
0.51599997 6.1290002 -1.9170001 0.28
0.498 6.1459999 -1.9220001 0.31999999
0.47799999 6.1440001 -1.921 0.25
0.46000001 6.1550002 -1.924 0.33000001
0.449 6.1440001 -1.921 0.25999999
0.43000001 6.1459999 -1.921 0.34
0.41100001 6.1560001 -1.924 0.23999999
0.39199999 6.1609998 -1.925 0.31999999
0.37200001 6.1550002 -1.9220001 0.28
0.35299999 6.1539998 -1.9220001 0.31
0.333 6.1539998 -1.921 0.37
0.324 6.1599998 -1.923 0.23
0.30399999 6.1570001 -1.9220001 0.30000001
0.28600001 6.1669998 -1.925 0.31999999
0.266 6.1760001 -1.928 0.33000001
0.24699999 6.1729999 -1.926 0.28
0.228 6.1739998 -1.926 0.25999999
0.208 6.178 -1.928 0.28999999
0.198 6.1729999 -1.926 0.31
0.17900001 6.1789999 -1.928 0.34
0.16 6.1760001 -1.926 0.25
0.14 6.1820002 -1.928 0.28999999
0.121 6.171 -1.924 0.28999999
0.101 6.1750002 -1.926 0.30000001
0.082000002 6.1750002 -1.926 0.30000001
0.071999997 6.1789999 -1.927 0.31999999
0.052999999 6.191 -1.931 0.31999999
0.033 6.1950002 -1.932 0.28
0.014 6.1890001 -1.9299999 0.28999999
-0.0049999999 6.1830001 -1.928 0.34
-0.025 6.1849999 -1.929 0.28
-0.044 6.1830001 -1.928 0.31999999
-0.054000001 6.1950002 -1.932 0.34
-0.074000001 6.2020001 -1.934 0.28999999
-0.093000002 6.1880002 -1.9299999 0.27000001
-0.112 6.1919999 -1.931 0.28999999
-0.132 6.1880002 -1.9299999 0.28999999
-0.15099999 6.1799998 -1.928 0.25999999
-0.171 6.1939998 -1.933 0.34
-0.19 6.1960001 -1.933 0.28999999
-0.2 6.1919999 -1.932 0.31
-0.22 6.197 -1.934 0.28
-0.23999999 6.2069998 -1.938 0.31999999
-0.25799999 6.184 -1.9299999 0.28999999
-0.278 6.1849999 -1.931 0.27000001
-0.29800001 6.1989999 -1.936 0.34
-0.317 6.1900001 -1.933 0.31999999
-0.32699999 6.1900001 -1.933 0.30000001
-0.34599999 6.1869998 -1.933 0.28999999
-0.36500001 6.1880002 -1.933 0.31
-0.38600001 6.204 -1.939 0.34
-0.40599999 6.204 -1.939 0.27000001
-0.42399999 6.1939998 -1.936 0.27000001
-0.44400001 6.1919999 -1.936 0.31
-0.454 6.1929998 -1.937 0.30000001
-0.47299999 6.1859999 -1.9349999 0.30000001
-0.491 6.1750002 -1.932 0.27000001
-0.51200002 6.1849999 -1.936 0.34
-0.53200001 6.1890001 -1.938 0.33000001
-0.55199999 6.1929998 -1.939 0.30000001
-0.57099998 6.1890001 -1.939 0.31999999
-0.579 6.1700001 -1.933 0.23
-0.60100001 6.1939998 -1.941 0.34
-0.62 6.1849999 -1.939 0.25
-0.63999999 6.1919999 -1.942 0.31999999
-0.65799999 6.1789999 -1.938 0.28
-0.67799997 6.1810002 -1.939 0.36000001
-0.69800001 6.1820002 -1.941 0.25999999
-0.70599997 6.1680002 -1.936 0.31999999
-0.727 6.1810002 -1.941 0.25999999
-0.745 6.165 -1.937 0.31
-0.76599997 6.1760001 -1.941 0.23999999
-0.78600001 6.1789999 -1.943 0.30000001
-0.80599999 6.1789999 -1.944 0.30000001
-0.824 6.165 -1.9400001 0.31
-0.83399999 6.1669998 -1.941 0.23
-0.85399997 6.1719999 -1.944 0.28999999
-0.87300003 6.1620002 -1.941 0.34
-0.89300001 6.1680002 -1.944 0.23999999
-0.91299999 6.164 -1.944 0.33000001
-0.93199998 6.1609998 -1.944 0.30000001
-0.94999999 6.1500001 -1.941 0.33000001
-0.95899999 6.1469998 -1.941 0.25999999
-0.98100001 6.1589999 -1.946 0.25
-1.001 6.158 -1.946 0.28
-1.0190001 6.145 -1.943 0.28
-1.039 6.1479998 -1.9450001 0.28
-1.058 6.1440001 -1.9450001 0.28
-1.075 6.1279998 -1.941 0.28
-1.089 6.1490002 -1.948 0.31
-1.109 6.1490002 -1.95 0.30000001
-1.125 6.1300001 -1.944 0.30000001
-1.142 6.1160002 -1.941 0.25
-1.166 6.1360002 -1.949 0.28999999
-1.183 6.118 -1.944 0.31999999
-1.2029999 6.119 -1.946 0.31
-1.224 6.125 -1.949 0.27000001
-1.2309999 6.1079998 -1.944 0.31
-1.25 6.1059999 -1.944 0.30000001
-1.273 6.119 -1.95 0.33000001
-1.2920001 6.1149998 -1.95 0.31
-1.311 6.1110001 -1.95 0.31
-1.331 6.1079998 -1.951 0.28999999
-1.347 6.0910001 -1.946 0.25
-1.357 6.0910001 -1.947 0.33000001
-1.3789999 6.098 -1.951 0.28999999
-1.392 6.0679998 -1.942 0.25
-1.418 6.0929999 -1.952 0.31999999
-1.437 6.0879998 -1.952 0.31
-1.454 6.0739999 -1.949 0.28999999
-1.472 6.0640001 -1.947 0.28
-1.485 6.0770001 -1.952 0.31
-1.501 6.0609999 -1.948 0.28999999
-1.52 6.0539999 -1.948 0.25
-1.5420001 6.0619998 -1.952 0.31999999
-1.559 6.0479999 -1.949 0.27000001
-1.577 6.04 -1.948 0.30000001
-1.598 6.0440001 -1.951 0.28999999
-1.603 6.0250001 -1.9450001 0.28
-1.626 6.0349998 -1.95 0.31999999
-1.643 6.0219998 -1.948 0.31999999
-1.661 6.0110002 -1.946 0.28999999
-1.684 6.0229998 -1.951 0.27000001
-1.705 6.0229998 -1.9529999 0.27000001
-1.722 6.0139999 -1.952 0.30000001
-1.729 6 -1.948 0.30000001
-1.748 5.9959998 -1.949 0.28999999
-1.766 5.9889998 -1.948 0.31
-1.786 5.9850001 -1.949 0.31999999
-1.806 5.9829998 -1.95 0.30000001
-1.819 5.96 -1.944 0.31999999
-1.844 5.974 -1.951 0.25
-1.8609999 5.9640002 -1.95 0.28
-1.8710001 5.961 -1.95 0.30000001
-1.888 5.9499998 -1.948 0.30000001
-1.913 5.9640002 -1.955 0.25
-1.926 5.9419999 -1.949 0.30000001
-1.948 5.9460001 -1.9529999 0.31
-1.962 5.9260001 -1.948 0.28
-1.975 5.9320002 -1.951 0.31999999
-1.988 5.9089999 -1.9450001 0.28
-2.0090001 5.9120002 -1.948 0.27000001
-2.03 5.9130001 -1.951 0.36000001
-2.049 5.9060001 -1.951 0.28999999
-2.069 5.9050002 -1.9529999 0.27000001
-2.0840001 5.888 -1.949 0.27000001
-2.1029999 5.882 -1.949 0.30000001
-2.118 5.8959999 -1.955 0.33000001
-2.1300001 5.8720002 -1.949 0.25999999
