# .PCD v0.7 - Point Cloud Data file format
VERSION 0.7
FIELDS x y z intensity
SIZE 4 4 4 4
TYPE F F F F
COUNT 1 1 1 1
WIDTH 1450
HEIGHT 1
VIEWPOINT 0 0 0 1 0 0 0
POINTS 1450
DATA ascii
8.2299995 -14.724 -0.75099999 0.47999999
8.3310003 -14.796 -0.75700003 0.34
8.3929996 -14.796 -0.759 0.5
8.4449997 -14.78 -0.75999999 0.36000001
8.4799995 -14.734 -0.75800002 0.47
8.5179996 -14.692 -0.75700003 0.44999999
8.5340004 -14.613 -0.75400001 0.41
8.5790005 -14.638 -0.75599998 0.36000001
8.7069998 -14.75 -0.76599997 0.41
8.7539997 -14.725 -0.76599997 0.41
8.842 -14.767 -0.76999998 0.38999999
8.8979998 -14.755 -0.77100003 0.62
9.033 -14.874 -0.78100002 0.28999999
9.9449997 -16.322001 -0.87800002 0.34
10.039 -16.361 -0.88200003 0.40000001
10.098 -16.343 -0.88300002 0.23
10.177 -16.355 -0.88599998 0.31999999
10.224 -16.316 -0.88599998 0.33000001
10.358 -16.416 -0.89499998 0.55000001
15.651 -24.657 -1.448 0.23
15.578 -24.455 -1.436 0.30000001
15.607 -24.332001 -1.432 0.25999999
15.805 -24.471001 -1.444 0.25999999
15.851 -24.374001 -1.441 0.28999999
15.833 -24.181 -1.431 0.28999999
15.925 -24.153999 -1.433 0.28999999
15.952 -24.031 -1.428 0.30000001
15.854 -23.801001 -1.414 0.31999999
16.014999 -23.881001 -1.423 0.25999999
16.077999 -23.812 -1.4220001 0.28999999
16.287001 -23.959999 -1.4349999 0.27000001
16.367001 -23.915001 -1.436 0.27000001
16.402 -23.806 -1.432 0.28999999
16.400999 -23.724001 -1.428 0.2
16.523001 -23.740999 -1.433 0.41
16.517 -23.573 -1.425 0.22
16.694 -23.667999 -1.4349999 0.28999999
16.705 -23.525999 -1.428 0.30000001
16.702 -23.365999 -1.421 0.30000001
16.788 -23.330999 -1.4220001 0.28999999
16.806 -23.278999 -1.42 0.30000001
16.844999 -23.179001 -1.4170001 0.28
16.886 -23.083 -1.414 0.28999999
16.906 -22.959 -1.409 0.31
16.969999 -22.893999 -1.408 0.30000001
17.044001 -22.844 -1.409 0.28999999
17.097 -22.764999 -1.4069999 0.28
17.049999 -22.628 -1.399 0.31
17.038 -22.464001 -1.391 0.31
17.031 -22.309 -1.3839999 0.28999999
17.107 -22.263 -1.385 0.30000001
17.143999 -22.167 -1.381 0.31999999
17.139999 -22.018 -1.375 0.28
17.162001 -21.976 -1.374 0.28999999
17.204 -21.886999 -1.3710001 0.31999999
17.237 -21.787001 -1.368 0.28
17.264999 -21.683001 -1.364 0.30000001
17.301001 -21.587999 -1.3609999 0.31999999
17.349001 -21.509001 -1.359 0.28999999
17.393 -21.426001 -1.357 0.28
17.378 -21.337999 -1.353 0.31
17.336 -21.150999 -1.3430001 0.31
17.357 -21.041 -1.339 0.28999999
17.507999 -21.089001 -1.347 0.28999999
17.521 -20.969999 -1.342 0.28999999
17.563 -20.886999 -1.34 0.33000001
17.624001 -20.826 -1.34 0.28
17.733 -20.888 -1.346 0.2
17.806 -20.841 -1.347 0.47
17.877001 -20.791 -1.347 0.23
17.452 -20.167999 -1.3049999 0.27000001
18.023001 -20.695999 -1.349 0.22
18.115 -20.671 -1.351 0.28999999
18.069 -20.552999 -1.344 0.30000001
18.191 -20.562 -1.349 0.31
18.256001 -20.504999 -1.349 0.30000001
18.306999 -20.431999 -1.348 0.31
18.320999 -20.32 -1.344 0.31999999
18.346001 -20.219 -1.341 0.31999999
18.438999 -20.194 -1.3430001 0.27000001
18.408001 -20.096001 -1.3380001 0.34
18.438 -20.002001 -1.335 0.34999999
18.462999 -19.903 -1.332 0.30000001
18.368 -19.676001 -1.319 0.28
18.559999 -19.757999 -1.33 0.28999999
18.594 -19.669001 -1.327 0.30000001
18.666 -19.622 -1.3279999 0.31
18.599001 -19.49 -1.3200001 0.31
18.641001 -19.410999 -1.319 0.31
18.598 -19.245001 -1.3099999 0.30000001
18.601 -19.128 -1.306 0.31999999
18.573 -18.979 -1.299 0.31
18.601999 -18.889 -1.296 0.33000001
18.625999 -18.854 -1.296 0.31999999
18.688 -18.799 -1.296 0.31999999
18.775 -18.768 -1.298 0.31999999
18.802999 -18.677999 -1.296 0.34999999
18.856001 -18.613001 -1.295 0.31
18.879 -18.518999 -1.2920001 0.31999999
18.875 -18.399 -1.2869999 0.31999999
18.864 -18.330999 -1.284 0.28999999
18.833 -18.184999 -1.277 0.27000001
18.783001 -18.024 -1.2690001 0.33000001
18.833 -17.958 -1.268 0.30000001
18.934999 -17.941999 -1.272 0.34
19.018999 -17.909 -1.274 0.34
19.106001 -17.878 -1.276 0.31
18.973 -17.698 -1.2640001 0.20999999
18.774 -17.402 -1.244 0.30000001
18.870001 -17.379999 -1.248 0.34
18.964001 -17.357 -1.251 0.37
19.02 -17.299 -1.251 0.28999999
19.131001 -17.290001 -1.255 0.31999999
19.163 -17.209999 -1.253 0.36000001
19.166 -17.159 -1.252 0.30000001
19.278 -17.15 -1.256 0.30000001
19.347 -17.103001 -1.257 0.31999999
19.388 -17.031 -1.256 0.30000001
19.457001 -16.983 -1.257 0.31
19.558001 -16.964001 -1.261 0.31999999
19.601999 -16.895 -1.26 0.31
19.632 -16.867001 -1.26 0.36000001
19.67 -16.792 -1.2589999 0.28
19.718 -16.726 -1.2589999 0.31
19.746 -16.643 -1.257 0.34999999
19.705 -16.503 -1.25 0.33000001
19.871 -16.537001 -1.2589999 0.18000001
19.962999 -16.561001 -1.2640001 0.34
19.915001 -16.415001 -1.256 0.33000001
20.118 -16.476999 -1.267 0.31
20.125 -16.377001 -1.2640001 0.25999999
20.101999 -16.253 -1.2589999 0.34999999
20.142 -16.181 -1.258 0.31999999
20.243999 -16.159 -1.262 0.22
20.282 -16.136999 -1.262 0.47
20.436001 -16.155001 -1.27 0.2
20.665001 -16.232 -1.283 0.25
19.222 -14.998 -1.176 0.2
20.863001 -16.176001 -1.29 0.20999999
20.768 -15.998 -1.279 0.27000001
20.801001 -15.972 -1.28 0.16
19.653 -14.991 -1.1950001 0.28
19.827999 -15.026 -1.204 0.33000001
19.511 -14.689 -1.178 0.20999999
19.283001 -14.328 -1.155 0.57999998
19.363001 -14.293 -1.158 0.19
19.598 -14.419 -1.173 0.28999999
19.815001 -14.484 -1.1849999 0.25
19.667 -14.28 -1.171 0.31
19.565001 -14.112 -1.161 0.23999999
19.482 -13.96 -1.152 0.28999999
19.606001 -13.955 -1.158 0.23999999
19.908001 -14.077 -1.176 0.30000001
19.886 -14.015 -1.173 0.28999999
19.666 -13.766 -1.154 0.23999999
19.686001 -13.689 -1.153 0.23999999
19.524 -13.485 -1.1390001 0.33000001
19.612 -13.455 -1.142 0.50999999
20.063 -13.672 -1.17 0.30000001
20.235001 -13.697 -1.179 0.43000001
20.719 -13.978 -1.21 0.16
21.063 -14.114 -1.2309999 0.28
21.167 -14.088 -1.235 0.20999999
21.360001 -14.12 -1.245 0.23999999
21.325001 -14.001 -1.239 0.28999999
21.388 -13.946 -1.2410001 0.31
21.440001 -13.932 -1.243 0.34
21.614 -13.949 -1.252 0.27000001
21.681 -13.896 -1.253 0.28999999
21.774 -13.859 -1.256 0.38
21.898001 -13.842 -1.262 0.25999999
21.948 -13.777 -1.262 0.20999999
22.157 -13.812 -1.273 0.38999999
22.007999 -13.671 -1.262 0.2
22.598 -13.94 -1.298 0.28999999
22.195 -13.595 -1.2690001 0.23999999
22.368999 -13.605 -1.277 0.31999999
22.521 -13.601 -1.285 0.20999999
22.764 -13.65 -1.298 0.44
23.138 -13.776 -1.3200001 0.2
23.459999 -13.918 -1.339 0.31999999
23.541 -13.867 -1.342 0.31
23.716999 -13.871 -1.351 0.25
23.896999 -13.876 -1.359 0.37
23.896999 -13.775 -1.357 0
12.7 -7.1739998 -0.62199998 0
12.579 -6.7189999 -0.60299999 0
12.681 -6.27 -0.597 0
13.22 -5.9530001 -0.61699998 0
13.319 -5.947 -0.62199998 0
13.403 -5.96 -0.62599999 0
13.478 -5.9429998 -0.63 0
13.566 -5.9310002 -0.634 0
29.577 -10.647 -1.574 0.23
29.591999 -10.547 -1.573 0.14
28.547001 -10.124 -1.51 0.16
29.325001 -10.296 -1.554 0.30000001
29.436001 -10.232 -1.559 0.23999999
29.702 -10.22 -1.573 0
29.579 -10.074 -1.564 0.07
28.568001 -9.6280003 -1.502 0.13
28.947001 -9.6549997 -1.522 0.34
29.339001 -9.7349997 -1.545 0.19
29.396 -9.6520004 -1.546 0.28
29.333 -9.5290003 -1.541 0.28999999
29.337999 -9.4289999 -1.539 0.30000001
29.365999 -9.3360004 -1.539 0.25
29.375999 -9.2379999 -1.538 0.40000001
29.110001 -9.0530005 -1.521 0.25
29.280001 -9.0559998 -1.53 0.23
29.364 -8.9809999 -1.533 0.31999999
29.468 -8.9119997 -1.538 0.25999999
29.611 -8.8540001 -1.545 0.28
29.900999 -8.8380003 -1.5599999 0.25
30.125999 -8.802 -1.572 0.15000001
29.530001 -8.4770002 -1.534 0.41
29.892 -8.4799995 -1.554 0.19
29.768999 -8.3430004 -1.545 0
29.577999 -8.1890001 -1.5319999 0
29.530001 -8.0760002 -1.528 0
29.497999 -7.9679999 -1.525 0
29.455999 -7.9070001 -1.521 0
29.413 -7.7969999 -1.518 0
29.391001 -7.6919999 -1.515 0
29.365 -7.5869999 -1.512 0
29.320999 -7.4770002 -1.508 0
29.299999 -7.3730001 -1.505 0
29.249001 -7.3119998 -1.502 0
29.214001 -7.2059999 -1.498 0
29.200001 -7.105 -1.4960001 0
29.132 -6.9910002 -1.4910001 0.029999999
28.903999 -6.7449999 -1.475 0.23999999
28.981001 -6.6669998 -1.478 0.38
28.993 -6.6220002 -1.479 0.50999999
29.121 -6.5549998 -1.485 0
28.948999 -6.4200001 -1.474 0
28.906 -6.316 -1.47 0
28.872999 -6.2129998 -1.467 0
28.837999 -6.1110001 -1.464 0
28.816 -6.0120001 -1.461 0
28.767 -5.954 -1.4579999 0
28.752001 -5.8569999 -1.456 0
28.729 -5.7579999 -1.454 0
28.695999 -5.658 -1.451 0
28.671 -5.559 -1.448 0
28.625 -5.4569998 -1.4450001 0
28.613001 -5.362 -1.443 0
28.563999 -5.3060002 -1.4400001 0
28.540001 -5.2090001 -1.437 0
28.363001 -4.901 -1.425 0.36000001
28.465 -4.8260002 -1.429 0.55000001
28.59 -4.7550001 -1.436 0
28.405001 -4.6789999 -1.425 0
28.374001 -4.5819998 -1.4220001 0
28.349001 -4.4860001 -1.42 0
28.343 -4.3940001 -1.419 0
28.320999 -4.3000002 -1.4170001 0
28.285 -4.2030001 -1.414 0
28.257999 -4.1539998 -1.4119999 0
28.240999 -4.0609999 -1.41 0
28.224001 -3.9679999 -1.409 0
28.188999 -3.8729999 -1.406 0
28.18 -3.7809999 -1.405 0
28.148001 -3.687 -1.402 0
28.131001 -3.595 -1.401 0
28.093 -3.5450001 -1.398 0
28.061001 -3.4519999 -1.396 0
28.042 -3.3599999 -1.3940001 0
28.023001 -3.2679999 -1.392 0
28.017 -3.178 -1.391 0
28.017 -3.089 -1.391 0
27.982 -3.0409999 -1.388 0
27.924 -2.9460001 -1.385 0
27.881001 -2.8529999 -1.382 0
27.865999 -2.763 -1.38 0
27.837 -2.671 -1.378 0
27.823 -2.582 -1.377 0
27.830999 -2.494 -1.377 0
27.805 -2.448 -1.375 0
27.791 -2.359 -1.374 0
27.792 -2.2709999 -1.374 0
27.768999 -2.181 -1.372 0
27.754 -2.092 -1.3710001 0
27.745001 -2.0039999 -1.37 0
27.721001 -1.915 -1.368 0
27.708 -1.87 -1.367 0
27.676001 -1.781 -1.365 0
27.666 -1.693 -1.364 0
27.679001 -1.6059999 -1.365 0
27.632 -1.516 -1.362 0.090000004
27.569 -1.339 -1.358 0.25999999
27.565001 -1.296 -1.357 0.43000001
27.551001 -1.2079999 -1.3559999 0.66000003
27.784 -1.131 -1.369 0
27.559999 -1.035 -1.3559999 0
27.547001 -0.94800001 -1.3559999 0
27.538 -0.861 -1.355 0
27.531 -0.81699997 -1.354 0
27.507999 -0.73000002 -1.353 0
27.507999 -0.64399999 -1.353 0
27.482 -0.55699998 -1.351 0
27.454 -0.47 -1.35 0
27.462999 -0.384 -1.35 0
27.440001 -0.29699999 -1.349 0
27.434999 -0.25400001 -1.348 0
27.410999 -0.168 -1.347 0
27.4 -0.082000002 -1.346 0
25.368 0.029999999 -1.367 0
25.351999 0.109 -1.3660001 0
25.351 0.189 -1.3660001 0
25.337 0.229 -1.365 0
25.323999 0.308 -1.364 0
25.315001 0.38699999 -1.363 0
25.299999 0.46700001 -1.363 0
25.280001 0.546 -1.3609999 0
25.261 0.625 -1.36 0
25.259001 0.66399997 -1.36 0
25.250999 0.74400002 -1.36 0
25.239 0.82300001 -1.359 0
25.228001 0.90200001 -1.359 0
25.231001 0.98100001 -1.359 0
25.216 1.0599999 -1.359 0
25.198999 1.138 -1.358 0
25.179001 1.177 -1.357 0
25.169001 1.256 -1.3559999 0
25.163 1.335 -1.3559999 0
25.174999 1.415 -1.357 0
25.156 1.493 -1.3559999 0
25.136999 1.571 -1.355 0
25.108999 1.609 -1.354 0
25.09 1.687 -1.353 0
25.062 1.7640001 -1.351 0.13
25.003 1.839 -1.348 0.28
24.639 1.8890001 -1.326 0.11
24.157 1.928 -1.296 0.18000001
23.802999 1.975 -1.275 0.23
23.702 2.0039999 -1.2690001 0.28999999
23.583 2.0680001 -1.262 0.36000001
23.413 2.128 -1.252 0.34
23.299 2.191 -1.245 0.27000001
23.028 2.2379999 -1.229 0.25999999
22.938999 2.302 -1.223 0.37
22.914 2.372 -1.222 0.20999999
22.98 2.4159999 -1.227 0.23999999
22.903 2.48 -1.222 0.41
22.867001 2.549 -1.221 0.36000001
22.849001 2.6199999 -1.22 0.31999999
22.716 2.677 -1.212 0.28
22.872 2.7679999 -1.222 0.31
22.972 2.8540001 -1.229 0.28999999
22.93 2.885 -1.227 0.25999999
23.211 2.9949999 -1.245 0.18000001
23.271 3.0769999 -1.249 0.16
21.629999 2.927 -1.148 0.38999999
21.885 3.0320001 -1.164 0.2
23.511999 3.335 -1.266 0.19
22.610001 3.2420001 -1.21 0
20.848 3.0539999 -1.101 0
25.591 3.8369999 -1.398 0
19.254 3.0050001 -1.003 0
25.629 4.0900002 -1.403 0
25.625 4.1729999 -1.403 0
25.652 4.2179999 -1.405 0
25.646999 4.3000002 -1.406 0
25.663 4.3860002 -1.408 0
25.677999 4.4720001 -1.41 0
25.684 4.5560002 -1.411 0
25.701 4.6420002 -1.413 0
25.725 4.73 -1.415 0
25.719999 4.7709999 -1.415 0
25.74 4.8579998 -1.418 0
25.725 4.9390001 -1.418 0
25.736 5.0250001 -1.419 0
25.767 5.1160002 -1.4220001 0
25.771 5.1999998 -1.424 0
25.774 5.2849998 -1.425 0
25.792999 5.3319998 -1.427 0
25.815001 5.421 -1.429 0
25.823 5.507 -1.431 0
25.827 5.5929999 -1.432 0
25.851 5.6830001 -1.4349999 0
25.856001 5.77 -1.436 0
25.871 5.8579998 -1.438 0
25.875 5.902 -1.439 0
25.893 5.9920001 -1.441 0
25.902 6.0799999 -1.443 0
25.917 6.1690001 -1.4450001 0
25.934999 6.2600002 -1.448 0
25.945999 6.349 -1.45 0
25.969 6.3979998 -1.452 0
25.972 6.4850001 -1.4529999 0
25.992001 6.5770001 -1.456 0
25.993999 6.665 -1.457 0
26.004 6.7540002 -1.459 0
26.01 6.8429999 -1.461 0
26.014999 6.9320002 -1.4630001 0
26.058001 6.987 -1.466 0
26.063 7.0770001 -1.4680001 0
26.077 7.1680002 -1.47 0
26.087999 7.2600002 -1.472 0
26.093 7.3499999 -1.474 0
26.115999 7.4450002 -1.477 0
26.145 7.5419998 -1.4809999 0
26.163 7.592 -1.482 0
26.18 7.6859999 -1.485 0
26.205 7.783 -1.488 0
26.233999 7.881 -1.492 0
26.238001 7.9720001 -1.494 0
26.253 8.0670004 -1.4960001 0
26.275999 8.1190004 -1.499 0
26.296 8.2159996 -1.501 0
26.32 8.3149996 -1.505 0
26.343 8.4130001 -1.508 0.050000001
26.395 8.7049999 -1.517 0.58999997
26.523001 8.7930002 -1.526 0
26.388 8.8409996 -1.5190001 0
26.426001 8.9460001 -1.523 0.13
26.434 9.0410004 -1.525 0.2
26.396 9.1210003 -1.525 0.25
26.087999 9.1059999 -1.507 0.22
25.76 9.0819998 -1.487 0.28999999
25.302 8.9650002 -1.4579999 0.34999999
25.121 8.9899998 -1.448 0.18000001
24.927999 9.0089998 -1.437 0.37
24.889999 9.0839996 -1.436 0.18000001
25.114 9.2550001 -1.4529999 0.28999999
25.136999 9.3540001 -1.456 0.27000001
25.169001 9.4110003 -1.46 0.31999999
24.989 9.4320002 -1.45 0.34
24.768999 9.4379997 -1.437 0.30000001
24.778 9.5310001 -1.4400001 0.27000001
24.941 9.684 -1.452 0.22
24.938999 9.7729998 -1.454 0.5
24.913 9.8540001 -1.455 0.23
25.087 9.9680004 -1.467 0.23999999
24.957001 10.008 -1.461 0.28999999
25.002001 10.117 -1.466 0.33000001
25.000999 10.208 -1.4680001 0.31999999
25.268 10.41 -1.488 0.17
25.506001 10.602 -1.506 0.47999999
25.472 10.682 -1.506 0.22
24.087 10.233 -1.416 0.19
25.562 10.957 -1.518 0.14
24.59 10.631 -1.454 0.14
24.427999 10.652 -1.446 0.36000001
24.429001 10.744 -1.448 0.25999999
24.302 10.779 -1.442 0.22
24.357 10.849 -1.447 0.22
22.926001 10.297 -1.352 0.19
22.870001 10.358 -1.35 0.17
23.988001 10.957 -1.429 0.28
23.18 10.675 -1.376 0.22
23.669001 10.991 -1.4119999 0.25
23.687 11.09 -1.415 0.25
21.357 10.119 -1.2589999 0.28999999
21.32 10.184 -1.2589999 0.46000001
21.735001 10.467 -1.29 0.34
21.764999 10.566 -1.294 0.28999999
21.49 10.515 -1.277 0.19
21.584999 10.604 -1.285 0.43000001
21.344999 10.57 -1.271 0.30000001
21.301001 10.631 -1.27 0.22
21.146999 10.637 -1.262 0.51999998
21.160999 10.728 -1.265 0.34
21.243 10.853 -1.273 0.31999999
21.431999 11.035 -1.289 0.27000001
21.362 11.041 -1.285 0.34
18.030001 9.3870001 -1.0549999 0.28
21.309999 11.185 -1.286 0
19.302 10.284 -1.15 0.31999999
22.919001 12.309 -1.4069999 0.23999999
16.531 8.9709997 -0.96100003 0.64999998
16.431 8.9829998 -0.95599997 0.56
20.9 11.52 -1.274 0.19
20.878 11.593 -1.275 0.27000001
22.445 12.651 -1.391 0.41999999
25.377001 14.36 -1.601 0.27000001
27.105 15.453 -1.727 0.2
26.931999 15.466 -1.7180001 0.30000001
26.864 15.54 -1.717 0.12
26.570999 15.481 -1.7 0
22.752001 13.348 -1.429 0.12
26.257999 15.521 -1.684 0.16
23.246 13.786 -1.469 0.12
26.768999 15.994 -1.726 0.34999999
26.200001 15.766 -1.689 0.11
25.252001 15.302 -1.624 0.090000004
23.167999 14.137 -1.476 0.14
29.533001 18.157 -1.942 0.13
29.909 18.518 -1.973 0.14
29.677999 18.438999 -1.959 0.20999999
30.158001 18.868999 -1.998 0.13
26.15 16.472 -1.709 0
26.764999 16.978001 -1.758 0.050000001
22.530001 14.386 -1.451 0
22.426001 14.419 -1.447 0
29.333 18.934999 -1.957 0
29.302 19.046 -1.959 0
30.309999 19.837999 -2.0380001 0
30.218 19.913 -2.036 0.07
26.055 17.284 -1.7309999 0.14
30.278 20.226999 -2.05 0
26.804001 18.025 -1.795 0.059999999
27.128 18.305 -1.822 0.090000004
29.955 20.353001 -2.0369999 0.090000004
28.537001 19.52 -1.936 0
30.358999 20.908001 -2.0769999 0
30.398001 21.076 -2.085 0.07
30.257999 21.120001 -2.0799999 0
30.364 21.264999 -2.0899999 0.12
29.318001 20.67 -2.016 0.1
29.205999 20.865999 -2.0179999 0
29.007 20.862 -2.007 0
31.110001 22.525999 -2.1730001 0.13
30.973 22.575001 -2.168 0.14
30.768999 22.5 -2.155 0
30.594999 22.521 -2.1470001 0
29.517 21.870001 -2.0699999 0
19.856001 14.798 -1.329 0
30.479 22.881001 -2.155 0
30.68 23.184 -2.1760001 0
25.254 19.202999 -1.76 0.039999999
30.999001 23.656 -2.2090001 0.16
31.062 23.858999 -2.22 0
30.872 23.867001 -2.211 0.050000001
26.486 20.604 -1.873 0
26.584 20.816 -1.886 0
30.643999 24.156 -2.211 0.07
31.134001 24.701 -2.256 0.16
31.108999 24.761 -2.257 0.23
31 24.834 -2.2539999 0.1
31.041 25.028 -2.2639999 0.15000001
31.025 25.176001 -2.2690001 0
30.891001 25.229 -2.2639999 0.11
31.120001 25.579 -2.289 0.16
31.358 25.941 -2.3150001 0
30.958 25.691 -2.286 0
30.767 25.695999 -2.277 0
31.343 26.344999 -2.3299999 0
31.357 26.525999 -2.3380001 0
31.544001 26.855 -2.3599999 0
31.316 26.830999 -2.348 0
31.528999 27.1 -2.369 0
29.108 25.176001 -2.178 0
30.448999 26.504999 -2.2939999 0
31.652 27.729 -2.4000001 0
31.767 28.007 -2.4170001 0
31.729 28.150999 -2.421 0
29.556 26.386999 -2.2479999 0.07
31.855 28.532 -2.4430001 0
9.8240004 8.9429998 -0.61900002 0.38
9.8529997 9.0270004 -0.62400001 0.68000001
9.8979998 9.1260004 -0.63 0
9.7390003 9.0360003 -0.61900002 0
31.636 29.523001 -2.474 0
31.972 30.025999 -2.51 0
31.749001 30.004 -2.4990001 0
31.656 30.105 -2.4990001 0
31.552 30.195999 -2.4990001 0.14
9.8830004 9.5229998 -0.64600003 0.44999999
9.7530003 9.4560003 -0.63800001 0
28.443001 27.823 -2.2579999 0
31.223 30.738001 -2.5079999 0
31.131001 30.84 -2.5079999 0.059999999
27.167 27.077999 -2.1700001 0.090000004
31.135 31.235001 -2.5250001 0
31.232 31.431 -2.5380001 0.12
24.886 25.195 -1.988 0
30.815001 31.403 -2.5190001 0
31.013 31.804001 -2.5450001 0.11
23.617001 24.364 -1.896 0
30.971001 32.164001 -2.559 0
30.735001 32.119999 -2.5469999 0.14
30.742001 32.229 -2.552 0.11
30.542999 32.222 -2.5439999 0.079999998
30.48 32.359001 -2.5469999 0
30.320999 32.393002 -2.5420001 0
30.318001 32.595001 -2.5510001 0.079999998
30.129 32.596001 -2.543 0
30.089001 32.757999 -2.549 0.07
30.045 32.813999 -2.549 0.15000001
30.004 32.976002 -2.5550001 0.1
29.955999 33.132999 -2.5599999 0.15000001
20.076 22.332001 -1.655 0.20999999
19.999001 22.388 -1.654 0.11
19.929001 22.452 -1.654 0
19.945999 22.541 -1.659 0
29.191 33.217999 -2.533 0.12
29.351 33.612 -2.5580001 0.28
29.424 33.910999 -2.5739999 0.11
29.108999 33.761002 -2.5550001 0.079999998
29.209 34.094002 -2.5739999 0
28.988001 34.050999 -2.563 0
28.591999 33.693001 -2.5309999 0
28.660999 33.991001 -2.5480001 0
28.399 33.895 -2.533 0
28.561001 34.306999 -2.559 0
28.478001 34.426998 -2.5610001 0
28.285999 34.414001 -2.553 0
27.218 33.326 -2.4590001 0
28.968 35.584999 -2.6359999 0
27.74 34.294998 -2.526 0
28.916 35.980999 -2.6530001 0
28.731001 35.980999 -2.645 0
27.232 34.546001 -2.5179999 0
21.264 27.141001 -1.9299999 0.07
26.995001 34.578999 -2.5109999 0.14
26.598 34.291 -2.4820001 0
26.395 34.250999 -2.4719999 0
23.511999 30.704 -2.1889999 0
23.414 30.777 -2.1889999 0
23.375 30.926001 -2.1949999 0
26.708 35.574001 -2.549 0
23.423 31.295 -2.2149999 0
23.319 31.362 -2.2149999 0
23.118999 31.297001 -2.204 0
29.256001 39.879002 -2.8570001 0
29.124001 39.960999 -2.8559999 0
29.018 40.080002 -2.858 0
28.985001 40.167999 -2.8610001 0
28.936001 40.366001 -2.869 0
28.893 40.575001 -2.878 0
23.493 33.203999 -2.313 0.029999999
8.4239998 12.037 -0.70599997 0.25999999
8.3730001 12.044 -0.70499998 0.18000001
8.2279997 11.875 -0.69099998 0.61000001
8.1999998 11.914 -0.69199997 0.17
8.1370001 11.903 -0.68900001 0.31
8.0469999 11.851 -0.68400002 0.49000001
7.9980001 11.858 -0.68199998 0.37
7.954 11.873 -0.68099999 0.38
7.914 11.895 -0.68099999 0.43000001
7.928 11.956 -0.685 0.34
7.7480001 11.763 -0.66900003 0.40000001
7.723 11.806 -0.67000002 0.38
7.7420001 11.917 -0.676 0.44
7.7249999 11.974 -0.67900002 0.31
7.6620002 11.957 -0.676 0.40000001
7.5009999 11.788 -0.662 0.55000001
7.4499998 11.747 -0.65799999 0.31999999
7.3860002 11.728 -0.65499997 0.15000001
7.2849998 11.648 -0.64700001 0.51999998
7.3779998 11.881 -0.66299999 0.19
7.322 11.874 -0.66000003 0.55000001
7.2259998 11.799 -0.653 0.27000001
7.3249998 12.047 -0.67000002 0.18000001
7.263 11.987 -0.66399997 0.55000001
7.1079998 11.815 -0.64999998 0.20999999
7.0819998 11.856 -0.65200001 0.5
7.0289998 11.851 -0.64999998 0.20999999
6.869 11.664 -0.63499999 0.38
6.8200002 11.663 -0.63300002 0.43000001
6.698 11.496 -0.62 0.25999999
6.6409998 11.481 -0.61799997 0.62
6.605 11.502 -0.61799997 0.20999999
6.8779998 12.067 -0.65700001 0.47999999
7.1339998 12.611 -0.69400001 0.38999999
6.7610002 12.037 -0.65100002 0.23
6.6960001 12.01 -0.648 0.18000001
6.6960001 12.053 -0.64999998 0.5
6.743 12.23 -0.66100001 0.27000001
6.5149999 11.902 -0.63700002 0.47999999
6.4780002 11.924 -0.63700002 0.34999999
6.507 12.068 -0.64499998 0.30000001
6.4559999 12.064 -0.64399999 0.63
6.4400001 12.126 -0.64700001 0.30000001
6.3909998 12.08 -0.64300001 0.44999999
6.414 12.215 -0.65100002 0.34
6.4260001 12.332 -0.65799999 0.61000001
6.3509998 12.283 -0.653 0.25
6.9889998 13.628 -0.745 0.14
6.2160001 12.209 -0.64499998 0.51999998
6.1139998 12.102 -0.63599998 0.41999999
6.158 12.236 -0.64499998 0.16
6.0100002 12.036 -0.63 0.55000001
5.9889998 12.089 -0.63200003 0.28
5.9200001 12.045 -0.62800002 0.41
5.9029999 12.106 -0.63099998 0.46000001
5.895 12.186 -0.63499999 0.18000001
5.7340002 11.948 -0.61699998 0.55000001
5.7290001 11.986 -0.61900002 0.30000001
5.7550001 12.14 -0.62800002 0.44
5.7199998 12.163 -0.62900001 0.41999999
5.671 12.157 -0.62699997 0.36000001
5.6110001 12.128 -0.62400001 0.44999999
5.585 12.173 -0.62599999 0.25999999
5.5879998 12.281 -0.63200003 0.47999999
5.5809999 12.317 -0.634 0.44
5.6570001 12.592 -0.65100002 0.19
6.02 13.518 -0.713 0.62
5.4130001 12.252 -0.62599999 0.25999999
5.4419999 12.425 -0.63599998 0.25999999
5.3800001 12.389 -0.63300002 0.28999999
5.2930002 12.294 -0.625 0.51999998
5.348 12.475 -0.63700002 0.34999999
5.0320001 11.837 -0.59299999 0.31
4.9629998 11.777 -0.588 0.41
4.9920001 11.951 -0.59899998 0.31999999
5.493 13.276 -0.68599999 0.31999999
5.4289999 13.239 -0.68300003 0.46000001
5.4450002 13.397 -0.69199997 0.38999999
5.612 13.874 -0.72299999 0.18000001
5.323 13.276 -0.68199998 0.40000001
5.3109999 13.369 -0.68699998 0.41
5.1599998 13.106 -0.66900003 0.34
5.2140002 13.368 -0.685 0.46000001
5.0749998 13.131 -0.66799998 0.28999999
5.1440001 13.374 -0.68400002 0.44999999
4.9489999 12.987 -0.65700001 0.34999999
5.013 13.281 -0.67500001 0.52999997
4.9699998 13.295 -0.67500001 0.25
4.677 12.626 -0.63 0.23
4.7600002 12.979 -0.653 0.33000001
4.704 12.95 -0.64999998 0.31
4.6919999 12.982 -0.65100002 0.38999999
4.6989999 13.13 -0.66000003 0.25
4.4569998 12.575 -0.62300003 0.47999999
4.4400001 12.654 -0.62699997 0.23
4.388 12.631 -0.625 0.38999999
4.4790001 13.03 -0.64999998 0.57999998
10.24 30.198999 -1.77 0.16
4.3889999 12.966 -0.64399999 0.38
10.11 30.284 -1.772 0.16
4.257 12.839 -0.634 0.34999999
4.2550001 12.97 -0.64200002 0.15000001
4.237 13.054 -0.64600003 0.19
4.1960001 13.065 -0.64600003 0.13
6.2909999 19.85 -1.085 0.20999999
4.9380002 15.648 -0.81199998 0.23999999
4.908 15.723 -0.81599998 0.55000001
4.8400002 15.679 -0.81199998 0.2
4.7909999 15.694 -0.81199998 0.23999999
6.4250002 21.320999 -1.175 0.28
5.3559999 17.961 -0.95700002 0.41
5.3119998 18.021999 -0.95999998 0.40000001
5.2659998 17.966999 -0.95599997 0.31999999
5.2379999 18.083 -0.96200001 0.36000001
4.5089998 15.74 -0.81 0.20999999
4.461 15.76 -0.81099999 0.44
4.4299998 15.841 -0.815 0.41
4.3709998 15.82 -0.81300002 0.28
4.2069998 15.319 -0.77999997 0.55000001
4.1199999 15.38 -0.78200001 0.57999998
4.1859999 15.827 -0.81 0.36000001
3.9760001 15.222 -0.77100003 0.43000001
4.2940001 16.663 -0.86199999 0.31
4.2779999 16.818001 -0.87099999 0.23
3.957 15.651 -0.796 0.47999999
3.9289999 15.751 -0.80199999 0.17
3.997 16.242001 -0.83200002 0.57999998
3.7850001 15.589 -0.79000002 0.34
3.789 15.824 -0.80400002 0.36000001
4.447 18.851999 -0.99599999 0.2
4.3909998 18.884001 -0.99699998 0.16
3.5910001 15.645 -0.79000002 0.62
3.8239999 16.792 -0.86299998 0.22
3.5450001 15.786 -0.79799998 0.20999999
2.9319999 13.232 -0.63599998 0.58999997
4.3049998 19.783001 -1.05 0.25
2.8299999 13.162 -0.63 0.36000001
4.145 19.639 -1.039 0.38999999
3.5999999 17.176001 -0.88300002 0.18000001
3.4879999 16.900999 -0.86500001 0.40000001
3.9949999 19.693001 -1.04 0.37
3.3789999 16.909 -0.86400002 0.40000001
3.3239999 16.908001 -0.86299998 0.27000001
4.21 21.82 -1.1720001 0.44999999
3.9119999 20.615 -1.095 0.27000001
3.905 20.754 -1.104 0.54000002
3.6199999 19.570999 -1.028 0.22
3.5639999 19.611 -1.03 0.34999999
3.527 19.766001 -1.039 0.22
3.5739999 20.4 -1.0779999 0.20999999
3.3380001 19.406 -1.015 0.23
3.28 19.431999 -1.016 0.55000001
3.2920001 19.693001 -1.0319999 0.17
3.2090001 19.575001 -1.024 0.41
3.1619999 19.677999 -1.03 0.5
3.198 20.311001 -1.069 0.20999999
3.119 20.222 -1.063 0.33000001
2.984 19.757999 -1.033 0.34
2.9690001 20.089001 -1.054 0.28
2.9319999 20.052999 -1.051 0.18000001
2.892 20.228001 -1.061 0.57999998
2.7720001 19.827 -1.036 0.19
2.6400001 19.323999 -1.0039999 0.27000001
2.5880001 19.391001 -1.008 0.30000001
2.5450001 19.542 -1.016 0.31999999
2.4949999 19.636999 -1.022 0.44
2.457 19.583 -1.018 0.28999999
2.405 19.676001 -1.024 0.31
2.3440001 19.684 -1.024 0.56
2.3410001 20.212 -1.056 0.2
2.2679999 20.129999 -1.05 0.43000001
2.2320001 20.393 -1.066 0.25999999
2.1259999 20.000999 -1.0420001 0.31
2.096 20.018999 -1.0420001 0.28999999
2.0320001 20.007 -1.041 0.55000001
2.0139999 20.482 -1.0700001 0.28
1.97 20.705 -1.084 0.28999999
1.826 19.839001 -1.03 0.20999999
1.6289999 18.301001 -0.93400002 0.38
1.598 18.284 -0.93300003 0.52999997
1.768 21.035999 -1.103 0.17
1.722 21.294001 -1.119 0.27000001
1.5599999 20.056999 -1.0420001 0.46000001
1.489 19.947001 -1.035 0.19
1.521 21.299 -1.118 0.2
1.4529999 21.290001 -1.117 0.47
1.104 16.469999 -0.81800002 0.28
1.061 16.607 -0.82700002 0.33000001
0.995 16.382999 -0.81300002 0.40000001
0.94800001 16.468 -0.81800002 0.20999999
1.168 21.614 -1.136 0.47999999
0.86199999 16.83 -0.83999997 0.28999999
1.025 21.465 -1.127 0.15000001
0.77999997 16.77 -0.83600003 0.43000001
0.72000003 16.594999 -0.82499999 0.23
0.67400002 16.750999 -0.83399999 0.55000001
0.62 16.723 -0.833 0.15000001
0.57200003 16.872999 -0.84200001 0.38
0.58600003 19.171 -0.98400003 0.2
0.456 16.483 -0.81699997 0.56999999
0.44800001 17.23 -0.86400002 0.14
0.39500001 17.283001 -0.86699998 0.47999999
0.33899999 17.17 -0.86000001 0.27000001
0.28299999 17.035999 -0.85100001 0.44
0.221 16.358 -0.80900002 0.46000001
0.17 16.323999 -0.80699998 0.25
0.117 16.093 -0.79299998 0.47999999
0.089000002 15.519 -0.75700003 0.43000001
0.041000001 15.455 -0.75300002 0.34
-0.0080000004 15.621 -0.764 0.40000001
-0.066 17.177999 -0.86000001 0.41
-0.12 17.202999 -0.86199999 0.14
-0.155 15.556 -0.75999999 0.2
-0.204 15.571 -0.76099998 0.58999997
-0.222 15.19 -0.73699999 0.18000001
-0.26300001 14.862 -0.71700001 0.2
-0.31400001 15.054 -0.72899997 0.54000002
-0.37400001 13.827 -0.653 0.63
-0.47299999 15.56 -0.75999999 0.23999999
-0.465 13.958 -0.66100001 0.31
-0.48699999 13.963 -0.662 0.51999998
-0.58499998 15.3 -0.745 0.30000001
-0.62599999 15.145 -0.73500001 0.41999999
-0.69999999 15.719 -0.77100003 0.34
-0.72500002 15.226 -0.74000001 0.31999999
-0.87 17.059999 -0.85399997 0.23999999
-0.76300001 14.175 -0.67500001 0.28999999
-0.77700001 14.034 -0.667 0.19
-0.82200003 14.048 -0.66799998 0.58999997
-0.898 14.543 -0.699 0.33000001
-0.96499997 14.865 -0.71899998 0.18000001
-0.95700002 14.073 -0.67000002 0.55000001
-1.026 14.412 -0.69099998 0.31
-1.09 14.65 -0.70599997 0.23
-1.124 14.788 -0.71499997 0.52999997
-1.133 14.324 -0.68599999 0.28999999
-1.21 14.699 -0.70999998 0.28999999
-1.235 14.456 -0.69499999 0.44999999
-1.289 14.548 -0.70099998 0.27000001
-1.334 14.534 -0.69999999 0.41999999
-1.378 14.513 -0.699 0.33000001
-1.402 14.523 -0.69999999 0.46000001
-1.408 14.129 -0.676 0.37
-1.455 14.149 -0.67699999 0.40000001
-1.543 14.551 -0.70300001 0.34
-1.5470001 14.165 -0.67900002 0.41
-1.579 14.053 -0.67199999 0.28999999
-1.624 14.056 -0.67299998 0.38
-1.646 14.053 -0.67299998 0.47999999
-1.6950001 14.086 -0.67500001 0.28999999
-1.715 13.888 -0.66299999 0.34
-1.779 14.041 -0.67299998 0.43000001
-1.8200001 14.014 -0.67199999 0.34999999
-1.895 14.236 -0.68599999 0.31999999
-2.0769999 15.399 -0.759 0.44999999
-2.1110001 15.29 -0.75199997 0.33000001
-2.141 15.163 -0.745 0.33000001
-2.0250001 14.032 -0.67400002 0.37
-2.075 14.065 -0.67699999 0.25
-2.223 14.739 -0.71899998 0.54000002
-2.3 14.934 -0.73199999 0.36000001
-2.3989999 15.407 -0.76200002 0.27000001
-2.1689999 13.665 -0.653 0.31999999
-2.355 14.535 -0.708 0.31999999
-2.3789999 14.397 -0.69999999 0.49000001
-2.3150001 13.75 -0.66000003 0.20999999
-2.2909999 13.355 -0.63599998 0.38
-2.4579999 14.056 -0.68000001 0.31
-2.487 14.089 -0.68199998 0.44999999
-2.4619999 13.696 -0.65799999 0.41
-2.582 14.105 -0.68400002 0.34999999
-2.569 13.795 -0.66500002 0.28999999
-2.5769999 13.602 -0.65399998 0.18000001
-2.6730001 13.868 -0.671 0.56
-2.6900001 13.727 -0.66299999 0.25
-2.55 12.91 -0.611 0.28999999
-2.609 12.992 -0.61699998 0.36000001
-2.618 12.831 -0.60699999 0.40000001
-2.651 12.788 -0.60500002 0.41999999
-2.5150001 11.953 -0.55299997 0.30000001
-2.756 12.884 -0.61199999 0.38999999
-2.8329999 13.045 -0.62300003 0.30000001
-2.7820001 12.715 -0.60299999 0.20999999
-2.7939999 12.583 -0.59500003 0.34999999
-2.8710001 12.736 -0.60500002 0.47
-2.902 12.688 -0.60299999 0.20999999
-2.98 12.844 -0.61299998 0.30000001
-3.3340001 14.153 -0.69700003 0.33000001
-3.352 14.034 -0.69 0.52999997
-3.4849999 14.487 -0.71899998 0.31999999
-3.5539999 14.573 -0.72500002 0.27000001
-3.5840001 14.498 -0.72100002 0.34
-3.4189999 13.652 -0.66799998 0.36000001
-3.6659999 14.44 -0.71899998 0.30000001
-3.7509999 14.583 -0.72899997 0.46000001
-3.79 14.544 -0.727 0.30000001
-3.809 14.525 -0.72600001 0.50999999
-3.7690001 14.19 -0.70599997 0.18000001
-3.6800001 13.687 -0.67400002 0.56
-3.95 14.501 -0.727 0.16
-3.7880001 13.741 -0.67900002 0.46000001
-3.845 13.781 -0.68199998 0.38999999
-3.8870001 13.763 -0.68199998 0.34
-3.868 13.615 -0.67299998 0.33000001
-3.855 13.409 -0.66000003 0.46000001
-3.8329999 13.18 -0.64600003 0.41
-3.8399999 13.049 -0.639 0.30000001
-3.826 12.856 -0.62699997 0.44
-3.9170001 13.01 -0.63800001 0.19
-4.3540001 14.289 -0.72100002 0.55000001
-4.309 14.065 -0.70700002 0.25999999
-4.0019999 12.923 -0.634 0.28999999
-4.052 12.941 -0.63599998 0.51999998
-4.099 12.949 -0.63800001 0.27000001
-4.098 12.807 -0.62900001 0.31
-4.0749998 12.599 -0.616 0.44
-4.2020001 12.92 -0.63800001 0.27000001
-4.2160001 12.826 -0.63300002 0.38
-4.3790002 13.182 -0.65700001 0.31
-4.3790002 13.043 -0.648 0.49000001
-4.507 13.286 -0.66500002 0.25
-4.4699998 13.042 -0.64999998 0.38999999
-4.572 13.205 -0.662 0.37
-4.625 13.288 -0.66799998 0.18000001
-4.6900001 13.341 -0.67199999 0.63
-4.73 13.321 -0.67199999 0.2
-4.757 13.264 -0.66900003 0.63
-4.9190001 13.579 -0.69099998 0.22
-4.8600001 13.287 -0.67299998 0.20999999
-4.9330001 13.357 -0.67799997 0.58999997
-4.9809999 13.357 -0.67900002 0.33000001
-4.9770002 13.284 -0.67500001 0.28999999
-4.9809999 13.167 -0.66799998 0.38
-5.0760002 13.291 -0.67699999 0.44
-5.1820002 13.443 -0.68900001 0.25
-5.1849999 13.326 -0.68199998 0.47999999
-5.2069998 13.259 -0.67900002 0.34999999
-5.335 13.458 -0.69300002 0.46000001
-5.2509999 13.188 -0.67500001 0.22
-5.4349999 13.525 -0.699 0.38999999
-5.5240002 13.621 -0.70700002 0.28
-5.4970002 13.436 -0.69499999 0.31
-5.4650002 13.238 -0.68300003 0.31999999
-5.6430001 13.548 -0.70499998 0.44999999
-5.5840001 13.348 -0.69199997 0.27000001
-5.4359999 12.882 -0.662 0.36000001
-5.447 12.797 -0.65799999 0.31999999
-5.4229999 12.629 -0.648 0.44
-5.7280002 13.222 -0.68900001 0.27000001
-5.6149998 12.853 -0.66500002 0.31999999
-5.8330002 13.237 -0.69199997 0.27000001
-5.869 13.26 -0.69400001 0.54000002
-6.3179998 14.151 -0.75599998 0.30000001
-6.0279999 13.392 -0.70599997 0.31999999
-6.0879998 13.411 -0.708 0.33000001
-6.3099999 13.784 -0.73500001 0.20999999
-5.6040001 12.149 -0.625 0.44
-6.04 12.981 -0.68300003 0.31999999
-6.0409999 12.93 -0.68000001 0.38
-6.0910001 12.931 -0.68199998 0.31999999
-6.131 12.911 -0.68199998 0.51999998
-6.2049999 12.96 -0.68599999 0.41
-6.3709998 13.2 -0.704 0.47
-6.5040002 13.368 -0.71700001 0.16
-6.4860001 13.226 -0.70899999 0.47999999
-6.0289998 12.249 -0.64200002 0.31999999
-6.3969998 12.891 -0.68800002 0.2
-6.48 12.955 -0.69300002 0.62
-6.5349998 12.963 -0.69499999 0.23
-6.506 12.807 -0.68599999 0.41
-6.5669999 12.826 -0.68900001 0.34999999
-6.691 12.968 -0.69999999 0.17
-6.638 12.816 -0.69 0.63
-6.3429999 12.155 -0.64499998 0.28999999
-6.4439998 12.255 -0.65399998 0.41
-6.0320001 11.387 -0.59500003 0.18000001
-6.27 11.746 -0.62099999 0.34
-6.3130002 11.737 -0.62199998 0.31999999
-9.724 17.915001 -1.058 0.36000001
-7.0630002 12.979 -0.71100003 0.28
-8.2480001 15.036 -0.85799998 0.25999999
-8.323 15.059 -0.86199999 0.63
-8.3330002 14.966 -0.85699999 0.27000001
-7.4530001 13.293 -0.74000001 0.20999999
-7.4580002 13.205 -0.736 0.41
-7.4780002 13.143 -0.73299998 0.23
-7.5380001 13.201 -0.73799998 0.58999997
-8.5780001 14.906 -0.861 0.16
-8.5459995 14.744 -0.852 0.28
-8.5880003 14.71 -0.85100001 0.54000002
-8.6339998 14.682 -0.85100001 0.25999999
-7.8309999 13.227 -0.74800003 0.23
-7.8439999 13.154 -0.745 0.63999999
-7.8759999 13.161 -0.74599999 0.28999999
-7.9369998 13.168 -0.74800003 0.44999999
-7.987 13.157 -0.74900001 0.30000001
-8.0819998 13.22 -0.75599998 0.64999998
-8.4750004 13.764 -0.79699999 0.30000001
-8.5979996 13.866 -0.80699998 0.22
-8.5649996 13.715 -0.79799998 0.5
-8.1899996 13.071 -0.75199997 0.2
-8.1190004 12.868 -0.73900002 0.44999999
-8.2110004 12.924 -0.745 0.41
-8.1800003 12.787 -0.736 0.25999999
-8.2200003 12.761 -0.736 0.56999999
-8.6280003 13.301 -0.778 0.23999999
-8.8599997 13.564 -0.80000001 0.52999997
-8.9460001 13.649 -0.80699998 0.23
-8.934 13.537 -0.801 0.47
-8.2040005 12.35 -0.71499997 0.2
-8.2419996 12.324 -0.71499997 0.41999999
-8.2819996 12.3 -0.71499997 0.43000001
-8.3430004 12.307 -0.71700001 0.46000001
-8.3800001 12.277 -0.71700001 0.33000001
-8.3800001 12.236 -0.71499997 0.63999999
-8.4910002 12.314 -0.72299999 0.2
-8.8059998 12.684 -0.75300002 0.56
-9.4379997 13.501 -0.81599998 0.25999999
-9.5679998 13.596 -0.82599998 0.38999999
-9.6540003 13.627 -0.82999998 0.44999999
-9.5979996 13.459 -0.81999999 0.31
-9.5810003 13.39 -0.81599998 0.38999999
-9.5869999 13.31 -0.81199998 0.31999999
-10.142 13.985 -0.866 0.25
-10.402 14.248 -0.889 0.25999999
-9.6350002 13.115 -0.80400002 0.25
-9.625 13.015 -0.79900002 0.49000001
-9.5970001 12.892 -0.792 0.43000001
-9.4840002 12.7 -0.778 0.18000001
-9.2629995 12.324 -0.75099999 0.43000001
-9.3219995 12.322 -0.75300002 0.27000001
-9.3030005 12.216 -0.74699998 0.51999998
-9.3319998 12.176 -0.74599999 0.28999999
-9.3769999 12.155 -0.74699998 0.54000002
-9.4589996 12.182 -0.75099999 0.31
-9.4720001 12.159 -0.75099999 0.43000001
-9.6789999 12.344 -0.76800001 0.23999999
-9.5880003 12.149 -0.755 0.25999999
-9.566 12.044 -0.74900001 0.62
-9.71 12.147 -0.759 0.31
-9.6610003 12.007 -0.75099999 0.47999999
-9.8649998 12.222 -0.76899999 0.36000001
-9.6739998 11.909 -0.74599999 0.23
-9.8669996 12.068 -0.76200002 0.41
-10.042 12.204 -0.77499998 0.23
-10.009 12.086 -0.76800001 0.38999999
-10.025 12.028 -0.76599997 0.46000001
-10.28 12.255 -0.787 0.28
-10.282 12.217 -0.78500003 0.5
-10.237 12.088 -0.77700001 0.31999999
-10.372 12.169 -0.78600001 0.41
-10.407 12.132 -0.78600001 0.49000001
-10.322 11.958 -0.77499998 0.36000001
-10.329 11.89 -0.77200001 0.44
-10.361 11.852 -0.77100003 0.31
-10.458 11.924 -0.778 0.50999999
-10.528 11.928 -0.78200001 0.15000001
-10.532 11.858 -0.778 0.47999999
-10.604 11.864 -0.78200001 0.28999999
-10.576 11.758 -0.77600002 0.50999999
-10.624 11.736 -0.77700001 0.38999999
-10.748 11.798 -0.78500003 0.41999999
-12.52 13.694 -0.94499999 0.31
-12.493 13.579 -0.93900001 0.38
-12.497 13.498 -0.935 0.41
-12.506 13.423 -0.93199998 0.43000001
-12.583 13.421 -0.935 0.34
-12.566 13.319 -0.93000001 0.33000001
-12.622 13.294 -0.93099999 0.56
-12.709 13.343 -0.93699998 0.22
-12.712 13.263 -0.93400002 0.36000001
-12.731 13.2 -0.93199998 0.41999999
-12.628 13.011 -0.91900003 0.36000001
-12.852 13.158 -0.935 0.40000001
-12.895 13.119 -0.935 0.41
-12.784 12.926 -0.92199999 0.41
-12.92 13.022 -0.93199998 0.16
-12.815 12.836 -0.91900003 0.31
-12.83 12.77 -0.917 0.33000001
-12.708 12.57 -0.903 0.37
-13.219 12.993 -0.94400001 0.31999999
-13.18 12.873 -0.93699998 0.36000001
-13.078 12.694 -0.92500001 0.28
-13.003 12.582 -0.917 0.38
-13.106 12.602 -0.92199999 0.30000001
-13.224 12.635 -0.92900002 0.25
-12.791 12.146 -0.88800001 0.44999999
-13.163 12.42 -0.917 0.27000001
-13.376 12.541 -0.93199998 0.34
-13.438 12.521 -0.93400002 0.30000001
-13.867 12.878 -0.96799999 0.44
-13.939 12.864 -0.97100002 0.33000001
-14.519 13.313 -1.016 0.17
-14.53 13.24 -1.013 0.36000001
-13.998 12.676 -0.96600002 0.36000001
-14.07 12.661 -0.96799999 0.40000001
-14.147 12.65 -0.97100002 0.41
-14.207 12.664 -0.97500002 0.40000001
-14.263 12.634 -0.97600001 0.43000001
-14.126 12.433 -0.96100003 0.38999999
-14.1 12.333 -0.95599997 0.36000001
-14.736 12.806 -1.005 0.44
-14.013 12.102 -0.94300002 0.34
-13.996 12.011 -0.93800002 0.25999999
-14.059 12.027 -0.94199997 0.38999999
-14.727 12.517 -0.99299997 0.25
-13.423 11.339 -0.884 0.56999999
-13.51 11.34 -0.88800001 0.2
-14.898 12.422 -0.99699998 0.38999999
-15.028 12.45 -1.005 0.28999999
-15.159 12.479 -1.012 0.38
-15.111 12.399 -1.007 0.36000001
-15.111 12.32 -1.003 0.44999999
-14.715 11.922 -0.96899998 0.25999999
-14.745 11.869 -0.96799999 0.31
-14.918 11.931 -0.97899997 0.31999999
-14.941 11.873 -0.97799999 0.31
-14.828 11.746 -0.96700001 0.54000002
-15.298 12.039 -1.002 0.25
-15.106 11.812 -0.98400003 0.34
-15.299 11.885 -0.99599999 0.30000001
-15.277 11.791 -0.991 0.36000001
-15.334 11.759 -0.99299997 0.31999999
-15.3 11.656 -0.98699999 0.44999999
-15.498 11.768 -1.001 0.28
-15.665 11.818 -1.011 0.31999999
-15.442 11.574 -0.991 0.33000001
-15.517 11.554 -0.99400002 0.41
-15.543 11.498 -0.99299997 0.25999999
-15.536 11.417 -0.99000001 0.31
-15.541 11.346 -0.98799998 0.50999999
-15.694 11.382 -0.99699998 0.19
-15.67 11.327 -0.99299997 0.44
-15.811 11.354 -1.001 0.25999999
-15.806 11.275 -0.99800003 0.2
-15.807 11.201 -0.99599999 0.50999999
-16.847 11.857 -1.072 0.31
-17.385 12.153 -1.109 0.31999999
-17.034 11.868 -1.082 0.20999999
-17.386999 12.032 -1.105 0.28999999
-17.632999 12.121 -1.1210001 0.16
-15.951 10.894 -0.99199998 0.57999998
-17.83 12.092 -1.13 0.25
-16.605 11.187 -1.036 0.27000001
-17.615 11.785 -1.108 0.34
-18.976999 12.651 -1.2079999 0.13
-19.108 12.652 -1.215 0.28999999
-19.291 12.686 -1.226 0.38999999
-19.041 12.437 -1.204 0.14
-21.532 13.963 -1.385 0.16
-20.712999 13.341 -1.321 0.23999999
-18.820999 12.042 -1.179 0.31999999
-18.892 12.045 -1.183 0.18000001
-18.847 11.934 -1.177 0.30000001
-18.809999 11.828 -1.1720001 0.36000001
-18.919001 11.813 -1.177 0.38999999
-19.150999 11.874 -1.191 0.25
-19.414 11.953 -1.2079999 0.38999999
-19.361 11.837 -1.201 0.23
-19.334 11.778 -1.198 0.18000001
-23.658001 14.304 -1.507 0.57999998
-19.337 11.615 -1.193 0.12
-19.357 11.544 -1.191 0.25
-19.351999 11.458 -1.189 0.46000001
-19.35 11.375 -1.186 0.18000001
-19.358 11.298 -1.184 0.47
-19.443001 11.307 -1.189 0.19
-20.464001 11.814 -1.2589999 0.30000001
-20.438999 11.714 -1.255 0.38999999
-20.542999 11.688 -1.2589999 0.34999999
-20.663 11.67 -1.265 0.25999999
-20.597 11.548 -1.258 0.34
-20.500999 11.409 -1.249 0.33000001
-20.594999 11.42 -1.2539999 0.41
-20.423 11.241 -1.239 0.37
-22.193001 12.122 -1.362 0.25
-21.000999 11.302 -1.273 0.38
-21.052 11.244 -1.274 0.20999999
-21.855 11.584 -1.327 0.20999999
-22.165001 11.703 -1.348 0.27000001
-21.582001 11.31 -1.3049999 0.23999999
-21.452999 11.156 -1.293 0.47
-21.601 11.147 -1.301 0.23
-21.733999 11.129 -1.308 0.34999999
-21.705 11.028 -1.303 0.28999999
-22.016001 11.143 -1.324 0.41
-21.971001 11.033 -1.318 0.23
-22.415001 11.168 -1.346 0.28999999
-21.945 10.848 -1.312 0.38
-22.059 10.819 -1.317 0.36000001
-22.785 11.085 -1.365 0.25999999
-22.941999 11.072 -1.373 0.31999999
-22.882 10.999 -1.368 0.31999999
-24.555 11.706 -1.48 0.34
-24.691 11.676 -1.487 0.31999999
-24.792 11.629 -1.4910001 0.2
-24.889999 11.579 -1.495 0.36000001
-24.726999 11.409 -1.482 0.17
-24.641001 11.276 -1.474 0.27000001
-24.563999 11.194 -1.467 0.36000001
-25.073 11.331 -1.499 0.23
-24.58 11.015 -1.4630001 0.28
-24.816999 11.028 -1.477 0.14
-24.968 11.001 -1.485 0.57999998
-26.070999 11.389 -1.557 0.19
-26.849001 11.627 -1.607 0.25
-26.732 11.527 -1.598 0.33000001
-26.804001 11.458 -1.601 0.30000001
-26.813 11.362 -1.599 0.28
-26.815001 11.264 -1.596 0.36000001
-27.066 11.269 -1.6109999 0.37
-27.284 11.26 -1.623 0.28999999
-27.466 11.284 -1.6339999 0.28999999
-27.851 11.34 -1.6569999 0.28
-27.768 11.204 -1.65 0.18000001
-28.218 11.283 -1.677 0.31999999
-30.296 12.001 -1.813 0.18000001
-30.486 11.966 -1.823 0.23
-30.497 11.86 -1.821 0.46000001
-30.646 11.862 -1.83 0.18000001
-30.67 11.761 -1.829 0.36000001
-30.701 11.662 -1.829 0.22
-30.806999 11.592 -1.8329999 0.2
-30.636 11.418 -1.8200001 0.36000001
-30.594 11.293 -1.8150001 0.25999999
-30.671 11.212 -1.817 0.27000001
-31.389999 11.418 -1.864 0.27000001
-31.235001 11.251 -1.851 0.31999999
-31.591 11.267 -1.872 0.23
-31.965 11.287 -1.8940001 0.23
-31.993 11.184 -1.8940001 0.36000001
-32.056999 11.093 -1.896 0.23
-34.332001 11.758 -2.0420001 0.22
-32.070999 10.929 -1.893 0.23
-34.68 11.695 -2.0610001 0.22
-34.662998 11.568 -2.0580001 0.28
-34.702999 11.46 -2.0580001 0.27000001
-34.830002 11.381 -2.0639999 0.20999999
-34.972 11.306 -2.0710001 0.14
-35.013 11.198 -2.0710001 0.15000001
-34.875 11.033 -2.0599999 0
-35.256001 11.092 -2.0840001 0
-37.883999 11.786 -2.2509999 0
-38.186001 11.749 -2.2690001 0
-38.514999 11.717 -2.2869999 0
-38.463001 11.57 -2.2820001 0.13
-38.664001 11.498 -2.2920001 0.17
-38.710999 11.446 -2.2939999 0.40000001
-38.618 11.286 -2.286 0.23
-38.654999 11.166 -2.286 0
-41.369999 11.807 -2.4579999 0
-41.452999 11.69 -2.461 0
-41.574001 11.584 -2.467 0
-46.894001 12.983 -2.8069999 0
-46.556999 12.732 -2.783 0
-38.529999 10.412 -2.266 0.090000004
-38.351002 10.234 -2.253 0.090000004
-38.271 10.084 -2.2449999 0
-38.806 10.095 -2.2780001 0
-39.59 10.166 -2.326 0
-39.111 9.9770002 -2.2939999 0
-39.605 9.9709997 -2.3239999 0
-40 9.9359999 -2.3469999 0
-40.595001 9.9490004 -2.3829999 0
-42.549999 10.285 -2.5050001 0
-42.881001 10.222 -2.5239999 0
-45.403999 10.671 -2.6819999 0
-46.306999 10.807 -2.7390001 0
-38.688999 8.9049997 -2.253 0
-44.765999 10.152 -2.6370001 0
-46.805 10.458 -2.7639999 0
-38.707001 8.526 -2.2490001 0
-39.251999 8.5159998 -2.2820001 0
-39.990002 8.5439997 -2.3269999 0
-40.613998 8.6110001 -2.365 0
-40.979 8.5539999 -2.3870001 0
-41.474998 8.5209999 -2.4159999 0
-42.159 8.5229998 -2.4579999 0
-47.564999 9.4569998 -2.7969999 0
-47.382999 9.2659998 -2.7839999 0
-46.162998 8.8780003 -2.7049999 0
-46.498001 8.8669996 -2.7249999 0
-46.682999 8.75 -2.7349999 0
-46.979 8.6520004 -2.7520001 0
-47.362 8.5690002 -2.7739999 0
-46.835999 8.3219995 -2.74 0
-46.937 8.1879997 -2.744 0
-51.826 8.8710003 -3.05 0
-51.819 8.7860003 -3.0480001 0
-52.530998 8.7360001 -3.0910001 0
-52.648998 8.5860004 -3.0969999 0
-52.721001 8.4280005 -3.0999999 0
-52.890999 8.2849998 -3.109 0
-52.835999 7.9359999 -3.102 0
-53.889 8.007 -3.1670001 0
-54.877998 7.9780002 -3.227 0
-55.890999 7.9450002 -3.289 0
-56.825001 7.8959999 -3.346 0
-56.993999 7.737 -3.355 0
-57.673 7.6440001 -3.3959999 0
-48.181 3.1789999 -2.7839999 0.029999999
-48.337002 3.0369999 -2.793 0.090000004
-48.391998 2.888 -2.796 0.15000001
-48.498001 2.7409999 -2.802 0
-49.042999 2.6170001 -2.835 0.1
-48.917 2.457 -2.8269999 0.18000001
-48.734001 2.3710001 -2.8150001 0.17
-48.589001 2.211 -2.806 0.18000001
-48.591999 2.0580001 -2.806 0.18000001
-48.683998 1.909 -2.8110001 0.17
-48.632 1.7539999 -2.8069999 0
-48.998001 1.612 -2.8299999 0
-50.893002 1.5140001 -2.947 0
-52.377998 1.475 -3.0380001 0
-53.730999 1.3430001 -3.122 0
-54.113998 1.183 -3.145 0
-56.407001 -8.8529997 -3.329 0
-55.577 -8.901 -3.279 0
-54.994999 -8.9849997 -3.244 0
-54.819 -9.1330004 -3.2349999 0
-54.103001 -9.1879997 -3.1919999 0
-52.978001 -9.1680002 -3.1229999 0
-51.973 -9.0780001 -3.0610001 0
-51.638 -9.1859999 -3.0420001 0
-51.066002 -9.25 -3.007 0
-50.023998 -9.2229996 -2.944 0.07
-49.805 -9.3439999 -2.9319999 0
-49.826 -9.5100002 -2.9349999 0
-49.696999 -9.5670004 -2.928 0.059999999
-49.908001 -9.7700005 -2.9430001 0
-49.391998 -9.8299999 -2.9119999 0.079999998
-48.077 -9.7250004 -2.8310001 0.1
-47.868 -9.8389997 -2.8199999 0
-46.146999 -9.6359997 -2.7130001 0
-47.595001 -10.095 -2.8069999 0
-44.383999 -9.4849997 -2.605 0
-41.464001 -9.132 -2.424 0
-42.341999 -9.4659996 -2.4809999 0
-41.786999 -9.4790001 -2.448 0
-41.469002 -9.5439997 -2.4289999 0
-39.548 -9.2309999 -2.309 0
-38.876999 -9.1389999 -2.2679999 0.13
-38.727001 -9.2320004 -2.26 0.17
-38.751999 -9.3669996 -2.263 0.25
-38.280998 -9.3800001 -2.2349999 0.17
-37.98 -9.4329996 -2.2179999 0.14
-38.148998 -9.6020002 -2.2309999 0.16
-37.919998 -9.6709995 -2.2179999 0.19
-37.924 -9.7349997 -2.2190001 0.12
-35.206001 -9.2720003 -2.049 0.38999999
-35.129002 -9.3699999 -2.046 0.25
-35.056999 -9.4689999 -2.0439999 0.25999999
-34.828999 -9.5240002 -2.0309999 0.33000001
-34.988998 -9.6870003 -2.043 0.22
-34.877998 -9.7150002 -2.0369999 0.23
-34.736 -9.7930002 -2.03 0.14
-33.195999 -9.4700003 -1.933 0
-37.662998 -10.876 -2.2219999 0
-37.715 -11.02 -2.2279999 0
-38.721001 -11.447 -2.2950001 0.13
-37.054001 -11.016 -2.188 0.20999999
-36.958 -11.114 -2.1849999 0.23999999
-37.236 -11.325 -2.2049999 0.13
-36.640999 -11.27 -2.1689999 0.16
-35.542 -11.054 -2.0999999 0.12
-35.698002 -11.225 -2.112 0.15000001
-34.574001 -10.991 -2.0409999 0.12
-35.077999 -11.212 -2.075 0.44999999
-33.776001 -10.912 -1.993 0.13
-33.705002 -11.006 -1.9910001 0.36000001
-33.754002 -11.139 -1.9960001 0.27000001
-33.541 -11.186 -1.984 0.31999999
-33.228001 -11.197 -1.966 0.22
-32.848 -11.184 -1.944 0.16
-32.411999 -11.092 -1.916 0.16
-32.091999 -11.095 -1.898 0.27000001
-31.757 -11.091 -1.878 0.28999999
-31.761999 -11.205 -1.881 0.31
-31.445999 -11.204 -1.862 0.28999999
-31.455999 -11.319 -1.865 0.28
-31.205 -11.339 -1.851 0.28999999
-30.799 -11.246 -1.825 0.17
-30.896 -11.392 -1.834 0.33000001
-30.645 -11.409 -1.8200001 0.22
-30.742001 -11.555 -1.829 0.25
-30.792999 -11.685 -1.835 0.25
-28.986 -11.102 -1.717 0.18000001
-28.212 -10.907 -1.668 0.28999999
-28.228001 -10.964 -1.671 0.31999999
-28.209999 -11.059 -1.6720001 0.20999999
-28.183001 -11.151 -1.6720001 0.44999999
-28.667999 -11.448 -1.707 0.20999999
-28.431 -11.456 -1.693 0.31
-29.363001 -11.94 -1.758 0.15000001
-27.740999 -11.33 -1.651 0.44
-28.976 -11.942 -1.7359999 0.19
-28.808001 -11.978 -1.727 0.31999999
-28.958 -12.148 -1.74 0.30000001
-29.087 -12.31 -1.751 0.31999999
-29.149 -12.444 -1.758 0.27000001
-29.094999 -12.529 -1.757 0.18000001
-29.077 -12.576 -1.757 0.36000001
-29.014 -12.657 -1.755 0.37
-28.855 -12.695 -1.747 0.31
-28.808001 -12.783 -1.747 0.34
-28.764 -12.872 -1.747 0.25
-28.690001 -12.947 -1.744 0.23999999
-28.733 -13.075 -1.75 0.38999999
-28.775999 -13.149 -1.7539999 0
-28.33 -13.053 -1.727 0.13
-28.363001 -13.177 -1.732 0.28
-28.757 -13.47 -1.762 0.16
-28.945999 -13.67 -1.777 0.34
-28.683001 -13.656 -1.762 0.16
-28.5 -13.678 -1.753 0.34999999
-28.597 -13.78 -1.761 0.25999999
-28.611 -13.898 -1.765 0.33000001
-28.691999 -14.049 -1.773 0.16
-28.503 -14.068 -1.763 0
-56.419998 -28.094999 -3.6960001 0
-57.742001 -28.981001 -3.7939999 0
-57.960999 -29.319 -3.8150001 0
-57.393002 -29.145 -3.779 0
-57.348999 -29.35 -3.7820001 0
-57.174999 -29.488001 -3.777 0
-59.058998 -30.695999 -3.914 0
-57.57 -30.152 -3.8169999 0
