# .PCD v0.7 - Point Cloud Data file format
VERSION 0.7
FIELDS x y z intensity
SIZE 4 4 4 4
TYPE F F F F
COUNT 1 1 1 1
WIDTH 1438
HEIGHT 1
VIEWPOINT 0 0 0 1 0 0 0
POINTS 1438
DATA ascii
1.499 -3.7390001 -1.675 0
1.5 -3.7249999 -1.669 0
1.508 -3.71 -1.664 0.029999999
1.522 -3.711 -1.6670001 0.07
1.535 -3.7090001 -1.668 0.14
1.545 -3.701 -1.6670001 0.16
1.554 -3.6889999 -1.663 0.039999999
1.5700001 -3.6949999 -1.668 0.17
1.5779999 -3.6989999 -1.671 0.20999999
1.5829999 -3.6789999 -1.664 0.25
1.605 -3.697 -1.676 0.23999999
1.6109999 -3.6789999 -1.669 0.28999999
1.63 -3.6900001 -1.677 0.27000001
1.6440001 -3.6919999 -1.6799999 0.31999999
1.653 -3.6800001 -1.677 0.31
1.66 -3.681 -1.679 0.27000001
1.678 -3.6889999 -1.6849999 0.25
1.691 -3.687 -1.687 0.27000001
1.701 -3.678 -1.6849999 0.30000001
1.715 -3.6800001 -1.689 0.28999999
1.725 -3.671 -1.687 0.30000001
1.738 -3.6689999 -1.689 0.28999999
1.7539999 -3.6860001 -1.698 0.31999999
1.762 -3.674 -1.6950001 0.36000001
1.777 -3.675 -1.698 0.36000001
1.795 -3.6819999 -1.705 0.38999999
1.804 -3.674 -1.7029999 0.31
1.8150001 -3.6659999 -1.702 0.33000001
1.834 -3.675 -1.71 0.34
1.84 -3.6719999 -1.71 0.36000001
1.855 -3.675 -1.714 0.34999999
1.867 -3.6689999 -1.714 0.34
1.883 -3.671 -1.7180001 0.33000001
1.897 -3.6719999 -1.721 0.36000001
1.909 -3.6659999 -1.721 0.33000001
1.923 -3.665 -1.723 0.38
1.9349999 -3.6730001 -1.729 0.33000001
1.949 -3.6719999 -1.732 0.37
1.959 -3.664 -1.7309999 0.34999999
1.975 -3.6659999 -1.735 0.34
1.993 -3.671 -1.7410001 0.31999999
2.0050001 -3.6659999 -1.7410001 0.31999999
2.0209999 -3.668 -1.745 0.38
2.03 -3.671 -1.749 0.34999999
2.0409999 -3.6630001 -1.748 0.30000001
2.052 -3.6570001 -1.748 0.33000001
2.072 -3.665 -1.755 0.28999999
2.0739999 -3.642 -1.747 0.38999999
2.096 -3.6530001 -1.756 0.23
2.0999999 -3.6340001 -1.749 0.51999998
2.105 -3.6289999 -1.749 0.34999999
2.1170001 -3.6240001 -1.749 0.38999999
2.1229999 -3.608 -1.745 0.34
2.1400001 -3.6110001 -1.749 0.34999999
2.1570001 -3.6129999 -1.7539999 0.34
2.171 -3.6110001 -1.757 0.30000001
2.1730001 -3.602 -1.7539999 0.36000001
2.1760001 -3.582 -1.747 0.28999999
2.1960001 -3.589 -1.7539999 0.36000001
2.2019999 -3.573 -1.749 0.31
2.2090001 -3.5599999 -1.7460001 0.36000001
2.2279999 -3.5650001 -1.753 0.31
2.2409999 -3.5610001 -1.7539999 0.36000001
2.24 -3.5469999 -1.749 0.30000001
2.2579999 -3.5510001 -1.7539999 0.34999999
2.263 -3.5339999 -1.749 0.28999999
2.2750001 -3.529 -1.75 0.36000001
2.2880001 -3.5250001 -1.752 0.34999999
2.2939999 -3.51 -1.748 0.34
2.3080001 -3.507 -1.75 0.34
2.3150001 -3.5050001 -1.751 0.31
2.316 -3.483 -1.743 0.33000001
2.325 -3.4719999 -1.7410001 0.34
2.3429999 -3.4760001 -1.747 0.31999999
2.352 -3.4649999 -1.745 0.34
2.362 -3.4560001 -1.745 0.31999999
2.3729999 -3.45 -1.745 0.31
2.378 -3.434 -1.7410001 0.31
2.3840001 -3.4319999 -1.7410001 0.31
2.398 -3.4289999 -1.744 0.31999999
2.408 -3.4200001 -1.743 0.31999999
2.415 -3.4059999 -1.74 0.31999999
2.4389999 -3.418 -1.75 0.31
2.437 -3.392 -1.7410001 0.31
2.447 -3.3940001 -1.744 0.31999999
2.4590001 -3.3900001 -1.745 0.31999999
2.464 -3.3729999 -1.7410001 0.31
2.4719999 -3.362 -1.739 0.31999999
2.497 -3.3740001 -1.749 0.34
2.4949999 -3.3499999 -1.7410001 0.30000001
2.5050001 -3.3399999 -1.74 0.31999999
2.5209999 -3.3510001 -1.748 0.36000001
2.5190001 -3.3269999 -1.739 0.28999999
2.5369999 -3.329 -1.745 0.36000001
2.549 -3.323 -1.745 0.31999999
2.549 -3.302 -1.738 0.25999999
2.563 -3.2980001 -1.7410001 0.36000001
2.579 -3.2969999 -1.745 0.30000001
2.572 -3.277 -1.7359999 0.28
2.5880001 -3.276 -1.74 0.36000001
2.6010001 -3.2720001 -1.742 0.31999999
2.6059999 -3.257 -1.738 0.25
2.625 -3.26 -1.745 0.38999999
2.638 -3.2550001 -1.7460001 0.30000001
2.638 -3.234 -1.739 0.31999999
2.635 -3.22 -1.733 0.28
2.658 -3.227 -1.742 0.33000001
2.6570001 -3.2060001 -1.735 0.27000001
2.677 -3.2090001 -1.7410001 0.34
2.6860001 -3.1989999 -1.7410001 0.28999999
2.697 -3.1919999 -1.7410001 0.34
2.6989999 -3.174 -1.7359999 0.31999999
2.7119999 -3.1789999 -1.7410001 0.31999999
2.7179999 -3.1670001 -1.739 0.30000001
2.7249999 -3.154 -1.7359999 0.28999999
2.743 -3.155 -1.742 0.33000001
2.7420001 -3.1340001 -1.735 0.28999999
2.757 -3.131 -1.738 0.33000001
2.77 -3.1259999 -1.7410001 0.28999999
2.776 -3.1229999 -1.7410001 0.30000001
2.779 -3.1059999 -1.7359999 0.30000001
2.8010001 -3.1110001 -1.745 0.36000001
2.8039999 -3.096 -1.7410001 0.31999999
2.8150001 -3.0880001 -1.7410001 0.30000001
2.822 -3.076 -1.74 0.31999999
2.8199999 -3.0639999 -1.735 0.28999999
2.836 -3.062 -1.739 0.28999999
2.8559999 -3.0650001 -1.7460001 0.30000001
2.859 -3.0480001 -1.7410001 0.33000001
2.862 -3.0320001 -1.737 0.28999999
2.875 -3.027 -1.74 0.33000001
2.8800001 -3.013 -1.7359999 0.25999999
2.891 -3.0150001 -1.7410001 0.33000001
2.898 -3.003 -1.739 0.28999999
2.911 -2.9979999 -1.7410001 0.33000001
2.9230001 -2.9920001 -1.743 0.31999999
2.9330001 -2.984 -1.744 0.30000001
2.941 -2.973 -1.743 0.30000001
2.947 -2.96 -1.7410001 0.30000001
2.9579999 -2.9619999 -1.745 0.31999999
2.967 -2.9530001 -1.745 0.31
2.973 -2.9389999 -1.742 0.33000001
2.983 -2.931 -1.743 0.27000001
2.99 -2.9189999 -1.7410001 0.28999999
3 -2.911 -1.742 0.31
3.0120001 -2.904 -1.744 0.33000001
3.0150001 -2.888 -1.74 0.30000001
3.03 -2.8940001 -1.7460001 0.31999999
3.0369999 -2.8829999 -1.745 0.28
3.0450001 -2.872 -1.745 0.28999999
3.0550001 -2.8640001 -1.745 0.28999999
3.0580001 -2.848 -1.7410001 0.27000001
3.073 -2.845 -1.745 0.33000001
3.082 -2.8440001 -1.748 0.33000001
3.0910001 -2.8340001 -1.748 0.28999999
3.096 -2.8199999 -1.745 0.28
3.1059999 -2.812 -1.7460001 0.28999999
3.112 -2.8 -1.745 0.30000001
3.118 -2.7869999 -1.743 0.31
3.1289999 -2.78 -1.745 0.31999999
3.1370001 -2.7780001 -1.7460001 0.31
3.138 -2.7620001 -1.742 0.31
3.148 -2.753 -1.743 0.28999999
3.1630001 -2.7479999 -1.7460001 0.28999999
3.168 -2.7360001 -1.745 0.31999999
3.1830001 -2.73 -1.748 0.31999999
3.194 -2.723 -1.749 0.30000001
3.1830001 -2.7049999 -1.7410001 0.30000001
3.187 -2.691 -1.738 0.28
3.197 -2.6819999 -1.739 0
3.207 -2.6730001 -1.74 0
3.1819999 -2.635 -1.72 0
3.4489999 -2.355 -1.7410001 0
3.448 -2.3380001 -1.7359999 0.050000001
3.4719999 -2.339 -1.745 0.15000001
3.467 -2.3199999 -1.738 0.22
3.4560001 -2.2969999 -1.728 0.23
3.4760001 -2.302 -1.737 0.25999999
3.4820001 -2.29 -1.7359999 0.27000001
3.474 -2.2690001 -1.728 0.2
3.4990001 -2.27 -1.738 0.30000001
3.4820001 -2.243 -1.725 0
3.4949999 -2.2360001 -1.728 0
3.467 -2.2030001 -1.71 0
3.6659999 -1.944 -1.728 0.07
3.6589999 -1.925 -1.722 0.16
3.665 -1.921 -1.723 0.2
3.6760001 -1.9119999 -1.726 0.44999999
3.6789999 -1.899 -1.724 0.44999999
3.704 -1.898 -1.734 0.25999999
3.7019999 -1.882 -1.73 0.31
3.7030001 -1.868 -1.728 0.30000001
3.7090001 -1.8559999 -1.728 0.30000001
3.7090001 -1.849 -1.726 0.28
3.71 -1.834 -1.723 0.28
3.7219999 -1.826 -1.727 0.30000001
3.733 -1.817 -1.729 0.33000001
3.733 -1.803 -1.727 0.25999999
3.7390001 -1.791 -1.727 0.28999999
3.75 -1.7819999 -1.729 0.31
3.757 -1.778 -1.732 0.31
3.7509999 -1.761 -1.726 0.31
3.7720001 -1.756 -1.733 0.31
3.7720001 -1.742 -1.7309999 0.28999999
3.7780001 -1.73 -1.7309999 0.28
3.776 -1.715 -1.728 0.30000001
3.7850001 -1.705 -1.729 0.28999999
3.7809999 -1.696 -1.726 0.28999999
3.8 -1.6900001 -1.732 0.25999999
3.793 -1.673 -1.727 0.25
3.8069999 -1.664 -1.7309999 0.31999999
3.8110001 -1.652 -1.73 0.30000001
3.8110001 -1.638 -1.728 0.27000001
3.8329999 -1.633 -1.7359999 0.25999999
3.832 -1.625 -1.734 0.27000001
3.832 -1.6109999 -1.732 0.28999999
3.8369999 -1.599 -1.732 0.27000001
3.842 -1.587 -1.732 0.28
3.842 -1.573 -1.729 0.28999999
3.855 -1.564 -1.733 0.25999999
3.862 -1.553 -1.734 0.23
3.8610001 -1.545 -1.732 0.18000001
3.8710001 -1.535 -1.735 0.31
3.8699999 -1.521 -1.732 0.22
3.875 -1.5089999 -1.732 0.25999999
3.8829999 -1.498 -1.734 0.28999999
3.895 -1.489 -1.737 0.25
3.8889999 -1.472 -1.732 0.18000001
3.898 -1.469 -1.7359999 0.28999999
3.9130001 -1.46 -1.7410001 0.22
3.9159999 -1.448 -1.74 0.31
3.9100001 -1.431 -1.735 0.25999999
3.9219999 -1.4220001 -1.738 0.25999999
3.938 -1.414 -1.744 0.25
3.9300001 -1.404 -1.739 0.31
3.928 -1.3890001 -1.7359999 0.27000001
3.9349999 -1.378 -1.737 0.19
3.948 -1.368 -1.7410001 0.27000001
3.9489999 -1.355 -1.74 0.25
3.957 -1.344 -1.7410001 0.22
3.9560001 -1.329 -1.739 0.13
3.9579999 -1.323 -1.739 0
3.806 1.4220001 -1.7359999 0.19
3.789 1.4299999 -1.73 0.37
3.78 1.4400001 -1.728 0.31
3.7869999 1.456 -1.733 0.34999999
3.776 1.465 -1.73 0.25
3.766 1.475 -1.728 0.46000001
3.777 1.487 -1.734 0.28
3.766 1.4960001 -1.7309999 0.41
3.7539999 1.505 -1.728 0.23999999
3.7650001 1.523 -1.735 0.34
3.7449999 1.528 -1.728 0.38
3.7420001 1.541 -1.728 0.31
3.7490001 1.558 -1.734 0.37
3.733 1.558 -1.728 0.38
3.7360001 1.573 -1.732 0.30000001
3.7309999 1.585 -1.732 0.36000001
3.72 1.594 -1.728 0.34
3.7249999 1.61 -1.733 0.36000001
3.7160001 1.62 -1.732 0.34
3.707 1.623 -1.728 0.34
3.7019999 1.6339999 -1.728 0.38
3.7019999 1.648 -1.7309999 0.33000001
3.6900001 1.6569999 -1.728 0.40000001
3.6860001 1.669 -1.728 0.34
3.6830001 1.682 -1.729 0.34999999
3.6689999 1.689 -1.725 0.34999999
3.6730001 1.698 -1.728 0.27000001
3.668 1.71 -1.728 0.34
3.6659999 1.723 -1.73 0.31
3.655 1.732 -1.728 0.41999999
3.651 1.744 -1.728 0.36000001
3.638 1.752 -1.724 0.36000001
3.632 1.763 -1.724 0.31999999
3.638 1.773 -1.728 0.38999999
3.6289999 1.783 -1.727 0.28
3.6259999 1.796 -1.728 0.40000001
3.6110001 1.802 -1.723 0.36000001
3.6129999 1.817 -1.728 0.28
3.608 1.829 -1.728 0.33000001
3.605 1.842 -1.729 0.44
3.589 1.841 -1.723 0.28
3.595 1.858 -1.728 0.31999999
3.5810001 1.865 -1.724 0.38999999
3.573 1.875 -1.723 0.27000001
3.553 1.8789999 -1.716 0.30000001
3.5469999 1.89 -1.716 0
3.559 1.911 -1.725 0
3.4289999 2.227 -1.747 0.14
3.3989999 2.223 -1.735 0.18000001
3.3889999 2.2309999 -1.733 0.30000001
3.3740001 2.237 -1.729 0.25
3.369 2.2490001 -1.73 0.38999999
3.3629999 2.26 -1.7309999 0.25999999
3.359 2.273 -1.733 0.41
3.3499999 2.2739999 -1.729 0.31999999
3.3499999 2.29 -1.733 0.34999999
3.332 2.293 -1.728 0.28
3.3199999 2.3 -1.725 0.050000001
3.3210001 2.316 -1.729 0
3.3310001 2.339 -1.739 0
3.138 2.6689999 -1.762 0.039999999
3.1129999 2.665 -1.752 0.15000001
3.0780001 2.652 -1.7359999 0.25999999
3.062 2.654 -1.7309999 0.31999999
3.062 2.6630001 -1.733 0.33000001
3.049 2.6689999 -1.7309999 0.28999999
3.0339999 2.6719999 -1.727 0.33000001
3.0380001 2.6930001 -1.734 0.33000001
3.017 2.691 -1.727 0.30000001
3.0109999 2.7030001 -1.728 0.41999999
3.0120001 2.721 -1.734 0.27000001
3.003 2.721 -1.7309999 0.27000001
2.994 2.73 -1.7309999 0.28999999
2.9990001 2.7520001 -1.739 0.41999999
2.97 2.743 -1.727 0.23999999
2.964 2.7550001 -1.728 0.31999999
2.9690001 2.776 -1.737 0.28999999
2.947 2.773 -1.728 0.40000001
2.9449999 2.78 -1.73 0.27000001
2.9460001 2.7980001 -1.7359999 0.41
2.924 2.7950001 -1.728 0.30000001
2.925 2.8139999 -1.734 0.38
2.915 2.822 -1.733 0.28
2.8989999 2.8239999 -1.728 0.31999999
2.8870001 2.8299999 -1.727 0.34999999
2.8940001 2.846 -1.734 0.31
2.872 2.8429999 -1.726 0.34999999
2.8699999 2.858 -1.73 0.30000001
2.869 2.875 -1.735 0.41999999
2.8510001 2.875 -1.729 0.23999999
2.842 2.8840001 -1.729 0.38999999
2.8380001 2.898 -1.733 0.25
2.8280001 2.8970001 -1.729 0.37
2.8150001 2.902 -1.727 0.27000001
2.826 2.9319999 -1.74 0.44
2.8039999 2.927 -1.732 0.20999999
2.803 2.944 -1.737 0.41999999
2.7850001 2.944 -1.7309999 0.23999999
2.7650001 2.9419999 -1.724 0.28999999
2.7720001 2.9579999 -1.732 0.37
2.7650001 2.97 -1.733 0.33000001
2.75 2.971 -1.729 0.34
2.744 2.984 -1.732 0.38
2.7279999 2.9860001 -1.728 0.34
2.7149999 2.99 -1.725 0.31999999
2.71 3.003 -1.728 0.40000001
2.7060001 3.0090001 -1.728 0.34
2.698 3.0190001 -1.729 0.34
2.694 3.0339999 -1.733 0.34999999
2.691 3.049 -1.738 0.28999999
2.675 3.0510001 -1.733 0.46000001
2.658 3.0510001 -1.728 0.25999999
2.652 3.063 -1.7309999 0.23999999
2.6500001 3.0699999 -1.733 0.44999999
2.638 3.076 -1.7309999 0.31999999
2.631 3.0869999 -1.733 0.37
2.6170001 3.0910001 -1.73 0.25
2.609 3.0999999 -1.7309999 0.30000001
2.598 3.1070001 -1.73 0.34999999
2.5969999 3.1270001 -1.737 0.30000001
2.595 3.1340001 -1.738 0.49000001
2.579 3.135 -1.734 0.25999999
2.566 3.138 -1.732 0.34999999
2.5580001 3.1489999 -1.733 0.31999999
2.55 3.1589999 -1.734 0.40000001
2.5409999 3.168 -1.735 0.36000001
2.5309999 3.1760001 -1.735 0.34
2.5250001 3.1789999 -1.734 0.36000001
2.5090001 3.1789999 -1.73 0.34999999
2.5020001 3.1919999 -1.733 0.31
2.49 3.197 -1.7309999 0.40000001
2.4809999 3.2060001 -1.732 0.36000001
2.474 3.2179999 -1.734 0.36000001
2.4630001 3.224 -1.733 0.31999999
2.4579999 3.2279999 -1.733 0.36000001
2.4530001 3.243 -1.738 0.37
2.4360001 3.2409999 -1.732 0.33000001
2.425 3.2479999 -1.732 0.38
2.418 3.26 -1.734 0.30000001
2.4100001 3.2709999 -1.7359999 0.38
2.398 3.2750001 -1.734 0.34
2.3929999 3.279 -1.734 0.38
2.3870001 3.293 -1.738 0.37
2.3729999 3.296 -1.735 0.28999999
2.362 3.302 -1.734 0.33000001
2.3529999 3.312 -1.7359999 0.36000001
2.3429999 3.319 -1.7359999 0.36000001
2.3329999 3.3269999 -1.7359999 0.30000001
2.3280001 3.332 -1.737 0.38
2.312 3.3299999 -1.732 0.36000001
2.306 3.345 -1.7359999 0.33000001
2.293 3.348 -1.733 0.28999999
2.283 3.3559999 -1.734 0.38999999
2.2720001 3.362 -1.733 0.36000001
2.266 3.3770001 -1.738 0.34999999
2.2609999 3.3800001 -1.738 0.36000001
2.2479999 3.3840001 -1.7359999 0.34
2.233 3.3840001 -1.732 0.36000001
2.2290001 3.401 -1.738 0.25999999
2.2190001 3.4100001 -1.738 0.47
2.2 3.4030001 -1.7309999 0.25
2.1949999 3.4189999 -1.7359999 0.33000001
2.191 3.4260001 -1.738 0.38
2.1800001 3.431 -1.737 0.28
2.1670001 3.4349999 -1.735 0.34
2.154 3.438 -1.733 0.36000001
2.1489999 3.454 -1.738 0.38
2.138 3.461 -1.738 0.34
2.128 3.4690001 -1.739 0.34999999
2.118 3.4779999 -1.74 0.36000001
2.1040001 3.467 -1.733 0.34
2.102 3.4879999 -1.74 0.30000001
2.0880001 3.49 -1.738 0.34999999
2.075 3.493 -1.7359999 0.37
2.0699999 3.5090001 -1.7410001 0.36000001
2.0539999 3.507 -1.737 0.30000001
2.0480001 3.5090001 -1.7359999 0.36000001
2.0380001 3.517 -1.737 0.38999999
2.026 3.5220001 -1.7359999 0.36000001
2.0139999 3.527 -1.735 0.31999999
2.0050001 3.5380001 -1.738 0.31
1.9960001 3.5469999 -1.739 0.37
1.987 3.5569999 -1.7410001 0.36000001
1.978 3.5550001 -1.738 0.31999999
1.971 3.5680001 -1.742 0.38
1.9529999 3.563 -1.7359999 0.34
1.947 3.5769999 -1.74 0.43000001
1.934 3.5810001 -1.739 0.31
1.924 3.589 -1.74 0.31999999
1.9119999 3.5929999 -1.739 0.34999999
1.902 3.602 -1.7410001 0.31999999
1.892 3.5969999 -1.737 0.36000001
1.882 3.605 -1.738 0.34
1.876 3.6210001 -1.743 0.49000001
1.859 3.6170001 -1.738 0.23999999
1.848 3.6229999 -1.738 0.30000001
1.84 3.635 -1.7410001 0.38
1.826 3.6359999 -1.738 0.38
1.819 3.635 -1.737 0.33000001
1.807 3.641 -1.737 0.33000001
1.7970001 3.6500001 -1.738 0.34
1.7869999 3.6589999 -1.74 0.36000001
1.772 3.6559999 -1.7359999 0.34
1.767 3.675 -1.743 0.36000001
1.751 3.671 -1.738 0.31
1.749 3.6830001 -1.743 0.38999999
1.732 3.677 -1.737 0.33000001
1.724 3.6889999 -1.74 0.40000001
1.712 3.6930001 -1.739 0.31
1.698 3.6949999 -1.738 0.30000001
1.6849999 3.697 -1.7359999 0.31999999
1.678 3.7119999 -1.7410001 0.38999999
1.673 3.7160001 -1.742 0.28999999
1.658 3.7149999 -1.738 0.36000001
1.653 3.734 -1.745 0.33000001
1.64 3.737 -1.744 0.41999999
1.626 3.7360001 -1.7410001 0.30000001
1.614 3.7420001 -1.742 0.30000001
1.598 3.737 -1.737 0.34
1.599 3.7550001 -1.744 0.36000001
1.5880001 3.7620001 -1.745 0.38
1.574 3.7620001 -1.743 0.38
1.562 3.766 -1.743 0.31
1.55 3.77 -1.742 0.30000001
1.535 3.7679999 -1.738 0.31999999
1.526 3.779 -1.742 0.31999999
1.521 3.7850001 -1.743 0.33000001
1.507 3.783 -1.74 0.38999999
1.494 3.786 -1.739 0.31
1.488 3.806 -1.747 0.34999999
1.472 3.8010001 -1.742 0.25999999
1.462 3.809 -1.743 0.38999999
1.452 3.8180001 -1.7460001 0.33000001
1.447 3.8239999 -1.747 0.28999999
1.432 3.8199999 -1.743 0.38999999
1.423 3.8329999 -1.747 0.27000001
1.409 3.832 -1.745 0.38
1.393 3.825 -1.739 0.31999999
1.388 3.8499999 -1.749 0.28999999
1.374 3.849 -1.747 0.33000001
1.367 3.849 -1.7460001 0.31999999
1.359 3.8659999 -1.752 0.28999999
1.341 3.8529999 -1.743 0.43000001
1.329 3.855 -1.743 0.28999999
1.324 3.882 -1.753 0.38
1.3049999 3.865 -1.743 0.34
1.294 3.8729999 -1.745 0.27000001
1.289 3.8800001 -1.747 0.30000001
1.276 3.8800001 -1.7460001 0.43000001
1.2640001 3.8840001 -1.7460001 0.34
1.252 3.8900001 -1.747 0.27000001
1.238 3.8889999 -1.744 0.25999999
1.225 3.8889999 -1.743 0.34
1.2180001 3.9089999 -1.75 0.34999999
1.2079999 3.9000001 -1.745 0.30000001
1.197 3.9070001 -1.747 0.31
1.188 3.9219999 -1.752 0.31999999
1.171 3.908 -1.743 0.31
1.161 3.9200001 -1.747 0.37
1.149 3.924 -1.747 0.28
1.133 3.915 -1.742 0.28
1.123 3.9289999 -1.747 0.33000001
1.12 3.941 -1.752 0.38999999
1.103 3.927 -1.743 0.31999999
1.095 3.948 -1.752 0.28999999
1.084 3.9549999 -1.753 0.43000001
1.064 3.931 -1.74 0.30000001
1.058 3.9590001 -1.752 0.28
1.045 3.96 -1.751 0.34999999
1.038 3.96 -1.75 0.38999999
1.028 3.97 -1.753 0.27000001
1.012 3.9590001 -1.747 0.31
0.99900001 3.9590001 -1.745 0.31999999
0.98900002 3.973 -1.75 0.28999999
0.97799999 3.983 -1.753 0.40000001
0.96899998 3.974 -1.748 0.31999999
0.95700002 3.977 -1.748 0.34999999
0.94499999 3.9849999 -1.751 0.23
0.93199998 3.983 -1.748 0.34999999
0.92000002 3.9909999 -1.751 0.38999999
0.90799999 3.997 -1.752 0.36000001
0.89399999 3.99 -1.747 0.27000001
0.88300002 4.0009999 -1.752 0.31999999
0.87599999 4.0009999 -1.751 0.36000001
0.86400002 4.007 -1.752 0.28999999
0.85100001 4.0050001 -1.75 0.30000001
0.83899999 4.013 -1.752 0.31
0.82700002 4.0170002 -1.753 0.38
0.81400001 4.0180001 -1.752 0.28999999
0.801 4.0180001 -1.752 0.31999999
0.79400003 4.0180001 -1.751 0.36000001
0.78100002 4.0190001 -1.75 0.27000001
0.76899999 4.0209999 -1.75 0.34
0.75700003 4.0289998 -1.752 0.36000001
0.745 4.0310001 -1.752 0.31999999
0.73199999 4.0320001 -1.752 0.30000001
0.72000003 4.039 -1.7539999 0.30000001
0.71200001 4.0320001 -1.75 0.28
0.69999999 4.0370002 -1.752 0.34999999
0.68699998 4.0359998 -1.75 0.31999999
0.67400002 4.0380001 -1.75 0.36000001
0.66299999 4.0489998 -1.7539999 0.31999999
0.64899999 4.046 -1.752 0.31999999
0.63700002 4.0510001 -1.753 0.31999999
0.63099998 4.052 -1.753 0.30000001
0.61799997 4.0539999 -1.753 0.34999999
0.60399997 4.0510001 -1.751 0.33000001
0.59299999 4.0599999 -1.7539999 0.28999999
0.58200002 4.0739999 -1.76 0.38999999
0.56800002 4.0669999 -1.756 0.25999999
0.55500001 4.0739999 -1.758 0.40000001
0.54799998 4.066 -1.7539999 0.30000001
0.53500003 4.0700002 -1.755 0.34
0.52399999 4.0819998 -1.76 0.31999999
0.50999999 4.0749998 -1.756 0.36000001
0.49700001 4.0749998 -1.755 0.28
0.484 4.0760002 -1.755 0.41999999
0.47099999 4.0739999 -1.753 0.28999999
0.46399999 4.073 -1.752 0.31999999
0.45199999 4.0799999 -1.755 0.38999999
0.44 4.085 -1.757 0.28
0.426 4.0830002 -1.755 0.28
0.414 4.0879998 -1.757 0.38
0.40099999 4.0830002 -1.7539999 0.30000001
0.38800001 4.092 -1.757 0.38999999
0.382 4.0869999 -1.755 0.28999999
0.36899999 4.0949998 -1.758 0.30000001
0.35600001 4.0929999 -1.757 0.34999999
0.34299999 4.0869999 -1.753 0.27000001
0.331 4.099 -1.758 0.34999999
0.317 4.0939999 -1.756 0.28999999
0.30500001 4.1009998 -1.758 0.40000001
0.29899999 4.1009998 -1.758 0.22
0.285 4.0970001 -1.756 0.34
0.273 4.112 -1.762 0.41
0.25999999 4.1040001 -1.758 0.27000001
0.24699999 4.1069999 -1.7589999 0.31999999
0.234 4.1110001 -1.761 0.31999999
0.221 4.0929999 -1.752 0.31999999
0.208 4.1100001 -1.76 0.34999999
0.20200001 4.1110001 -1.76 0.31999999
0.189 4.1059999 -1.757 0.31
0.176 4.1069999 -1.757 0.31999999
0.163 4.1090002 -1.758 0.36000001
0.15000001 4.1129999 -1.76 0.28999999
0.13699999 4.1059999 -1.757 0.36000001
0.124 4.1100001 -1.758 0.31999999
0.118 4.105 -1.756 0.38
0.105 4.1069999 -1.757 0.27000001
0.092 4.1199999 -1.762 0.44
0.079000004 4.1059999 -1.756 0.31999999
0.066 4.112 -1.758 0.28
0.052999999 4.1139998 -1.7589999 0.37
0.039999999 4.1079998 -1.757 0.34999999
0.034000002 4.1209998 -1.762 0.34
0.021 4.1139998 -1.7589999 0.28
0.0080000004 4.118 -1.761 0.41
-0.0049999999 4.112 -1.758 0.23
-0.017999999 4.1230001 -1.763 0.40000001
-0.030999999 4.1170001 -1.761 0.25999999
-0.044 4.125 -1.7640001 0.36000001
-0.050000001 4.1209998 -1.762 0.30000001
-0.063000001 4.1149998 -1.76 0.36000001
-0.075999998 4.1209998 -1.762 0.27000001
-0.089000002 4.1149998 -1.76 0.38
-0.102 4.1160002 -1.761 0.34999999
-0.115 4.118 -1.762 0.23
-0.12800001 4.119 -1.762 0.36000001
-0.134 4.119 -1.762 0.27000001
-0.147 4.1170001 -1.762 0.41999999
-0.15899999 4.1020002 -1.755 0.25999999
-0.17299999 4.1069999 -1.757 0.38999999
-0.186 4.1079998 -1.758 0.38999999
-0.199 4.118 -1.763 0.2
-0.212 4.119 -1.7640001 0.34999999
-0.22499999 4.1170001 -1.763 0.34999999
-0.23100001 4.1090002 -1.76 0.30000001
-0.244 4.112 -1.762 0.36000001
-0.257 4.1110001 -1.762 0.30000001
-0.27000001 4.1160002 -1.7640001 0.38
-0.28299999 4.1149998 -1.7640001 0.27000001
-0.296 4.1139998 -1.7640001 0.38
-0.30899999 4.1100001 -1.762 0.34
-0.31600001 4.1199999 -1.767 0.25
-0.32800001 4.1100001 -1.763 0.30000001
-0.34200001 4.118 -1.767 0.36000001
-0.354 4.1020002 -1.761 0.30000001
-0.36700001 4.105 -1.762 0.28999999
-0.38100001 4.1149998 -1.767 0.41
-0.38600001 4.099 -1.761 0.36000001
-0.40000001 4.1129999 -1.767 0.25
-0.412 4.099 -1.762 0.38
-0.42500001 4.099 -1.762 0.30000001
-0.43700001 4.0939999 -1.761 0.34
-0.44999999 4.0949998 -1.762 0.31999999
-0.46399999 4.099 -1.7640001 0.31999999
-0.477 4.0970001 -1.7640001 0.38999999
-0.484 4.0999999 -1.766 0.19
-0.49599999 4.0949998 -1.7640001 0.36000001
-0.509 4.0949998 -1.765 0.34
-0.523 4.1030002 -1.7690001 0.34
-0.53500003 4.0900002 -1.7640001 0.28999999
-0.54900002 4.099 -1.7690001 0.37
-0.56 4.085 -1.763 0.27000001
-0.56699997 4.0840001 -1.763 0.37
-0.57999998 4.0879998 -1.766 0.34
-0.59299999 4.0869999 -1.767 0.30000001
-0.60799998 4.0949998 -1.771 0.41
-0.62 4.0890002 -1.7690001 0.28999999
-0.63300002 4.0890002 -1.77 0.31999999
-0.64499998 4.0799999 -1.767 0.34999999
-0.64999998 4.0749998 -1.765 0.31999999
-0.66399997 4.0799999 -1.768 0.37
-0.67699999 4.0780001 -1.768 0.31
-0.69 4.0760002 -1.768 0.34999999
-0.704 4.079 -1.771 0.30000001
-0.71499997 4.066 -1.766 0.38
-0.72799999 4.066 -1.767 0.28999999
-0.73699999 4.0770001 -1.772 0.38999999
-0.74699998 4.0599999 -1.766 0.28
-0.76099998 4.0689998 -1.771 0.38999999
-0.77700001 4.0809999 -1.777 0.23999999
-0.78500003 4.053 -1.766 0.30000001
-0.79900002 4.0580001 -1.7690001 0.43000001
-0.81199998 4.0570002 -1.77 0.23
-0.81699997 4.0500002 -1.767 0.34999999
-0.82999998 4.0500002 -1.768 0.36000001
-0.847 4.0630002 -1.776 0.36000001
-0.85699999 4.0479999 -1.77 0.25999999
-0.86799997 4.04 -1.767 0.27000001
-0.88499999 4.0549998 -1.776 0.38
-0.89399999 4.0380001 -1.7690001 0.30000001
-0.90100002 4.0380001 -1.77 0.34999999
-0.917 4.0479999 -1.776 0.34999999
-0.92500001 4.027 -1.767 0.28
-0.93900001 4.0279999 -1.7690001 0.40000001
-0.95599997 4.0440001 -1.778 0.27000001
-0.96399999 4.0240002 -1.77 0.34999999
-0.97600001 4.0170002 -1.768 0.34
-0.986 4.0300002 -1.775 0.28999999
-0.99599999 4.0159998 -1.77 0.37
-1.007 4.007 -1.767 0.28
-1.023 4.0149999 -1.772 0.34
-1.033 4.0050001 -1.7690001 0.31
-1.046 4.0029998 -1.77 0.41999999
-1.0599999 4.0050001 -1.772 0.28999999
-1.071 3.9949999 -1.7690001 0.28
-1.082 4.0110002 -1.777 0.38999999
-1.092 3.997 -1.772 0.28999999
-1.104 3.9909999 -1.772 0.30000001
-1.1160001 3.9860001 -1.771 0.36000001
-1.132 3.997 -1.777 0.30000001
-1.1390001 3.974 -1.768 0.38
-1.154 3.977 -1.772 0.30000001
-1.164 3.9890001 -1.778 0.34999999
-1.173 3.973 -1.772 0.37
-1.186 3.9719999 -1.773 0.31
-1.199 3.9679999 -1.773 0.31
-1.211 3.964 -1.773 0.38999999
-1.224 3.9619999 -1.774 0.34
-1.238 3.961 -1.776 0.30000001
-1.242 3.9530001 -1.772 0.31999999
-1.253 3.9449999 -1.771 0.34999999
-1.268 3.95 -1.775 0.25
-1.277 3.934 -1.7690001 0.40000001
-1.29 3.9319999 -1.77 0.30000001
-1.308 3.9449999 -1.778 0.38999999
-1.3150001 3.927 -1.772 0.28999999
-1.324 3.9319999 -1.775 0.38
-1.335 3.924 -1.773 0.28999999
-1.346 3.915 -1.771 0.33000001
-1.363 3.9260001 -1.778 0.36000001
-1.373 3.915 -1.775 0.31999999
-1.383 3.9030001 -1.772 0.34
-1.397 3.904 -1.774 0.31
-1.409 3.9170001 -1.781 0.43000001
-1.416 3.898 -1.774 0.30000001
-1.429 3.8970001 -1.776 0.37
-1.4450001 3.901 -1.78 0.28999999
-1.455 3.8929999 -1.778 0.37
-1.4680001 3.8900001 -1.779 0.28999999
-1.483 3.8900001 -1.781 0.34
-1.488 3.869 -1.773 0.30000001
-1.4960001 3.8710001 -1.776 0.34
-1.51 3.872 -1.778 0.41
-1.5190001 3.858 -1.774 0.30000001
-1.534 3.8599999 -1.777 0.31999999
-1.5470001 3.859 -1.779 0.37
-1.561 3.8570001 -1.781 0.38
-1.568 3.8410001 -1.775 0.25
-1.5779999 3.848 -1.78 0.34999999
-1.587 3.835 -1.776 0.37
-1.598 3.8280001 -1.775 0.38
-1.615 3.835 -1.781 0.33000001
-1.623 3.8199999 -1.776 0.31999999
-1.638 3.8210001 -1.779 0.41
-1.651 3.8180001 -1.78 0.31999999
-1.655 3.812 -1.778 0.34
-1.666 3.8050001 -1.777 0.31999999
-1.681 3.8050001 -1.78 0.38
-1.691 3.796 -1.778 0.31
-1.704 3.7939999 -1.78 0.31999999
-1.711 3.777 -1.774 0.31999999
-1.73 3.7869999 -1.781 0.19
-1.737 3.786 -1.7819999 0.28999999
-1.752 3.7880001 -1.786 0.27000001
-1.758 3.77 -1.78 0.34999999
-1.771 3.767 -1.781 0.37
-1.786 3.7679999 -1.785 0.28999999
-1.793 3.753 -1.78 0.34
-1.804 3.744 -1.778 0.34
-1.813 3.7479999 -1.781 0.40000001
-1.8200001 3.734 -1.777 0.25
-1.835 3.7349999 -1.781 0.40000001
-1.85 3.734 -1.783 0.31
-1.855 3.717 -1.777 0.28
-1.87 3.717 -1.781 0.30000001
-1.8839999 3.7149999 -1.7819999 0.41
-1.895 3.707 -1.781 0.31
-1.905 3.7119999 -1.786 0.36000001
-1.91 3.6949999 -1.78 0.22
-1.923 3.6900001 -1.781 0.30000001
-1.939 3.6919999 -1.785 0.40000001
-1.948 3.681 -1.7819999 0.25
-1.96 3.677 -1.783 0.46000001
-1.9630001 3.6689999 -1.781 0.22
-1.985 3.6819999 -1.791 0.34
-1.985 3.655 -1.78 0.41
-1.999 3.652 -1.781 0.28999999
-2.02 3.6630001 -1.791 0.34
-2.02 3.6359999 -1.78 0.34
-2.0380001 3.642 -1.786 0.34
-2.0450001 3.641 -1.7869999 0.34999999
-2.0550001 3.631 -1.786 0.34
-2.066 3.625 -1.786 0.34
-2.0780001 3.6199999 -1.786 0.34999999
-2.085 3.605 -1.7819999 0.27000001
-2.096 3.599 -1.7819999 0.28999999
-2.1159999 3.6059999 -1.79 0.34999999
-2.115 3.579 -1.779 0.38
-2.1259999 3.585 -1.784 0.34999999
-2.1459999 3.5929999 -1.791 0.36000001
-2.1459999 3.5669999 -1.781 0.36000001
-2.1670001 3.576 -1.79 0.41
-2.175 3.5650001 -1.7869999 0.25
-2.181 3.5480001 -1.7819999 0.30000001
-2.1919999 3.5420001 -1.7819999 0.38999999
-2.2049999 3.55 -1.789 0.31999999
-2.2119999 3.5369999 -1.786 0.33000001
-2.22 3.526 -1.783 0.34
-2.2390001 3.5309999 -1.79 0.40000001
-2.2420001 3.51 -1.7819999 0.30000001
-2.256 3.5079999 -1.785 0.31999999
-2.276 3.5139999 -1.7920001 0.36000001
-2.273 3.4990001 -1.786 0.34
-2.286 3.494 -1.7869999 0.37
-2.3039999 3.4979999 -1.793 0.30000001
-2.306 3.477 -1.786 0.40000001
-2.3169999 3.47 -1.786 0.31999999
-2.332 3.4679999 -1.789 0.33000001
-2.3410001 3.4579999 -1.7869999 0.34
-2.348 3.457 -1.789 0.43000001
-2.362 3.4549999 -1.791 0.27000001
-2.3699999 3.4430001 -1.789 0.36000001
-2.3800001 3.434 -1.788 0.38999999
-2.3970001 3.4349999 -1.793 0.28999999
-2.401 3.4189999 -1.788 0.34
-2.4130001 3.4130001 -1.789 0.43000001
-2.4189999 3.4100001 -1.79 0.27000001
-2.4300001 3.4030001 -1.79 0.36000001
-2.4400001 3.3940001 -1.789 0.38
-2.4579999 3.3959999 -1.795 0.31999999
-2.4579999 3.3740001 -1.786 0.34
-2.4749999 3.375 -1.791 0.41
-2.4909999 3.3740001 -1.796 0.27000001
-2.4960001 3.359 -1.791 0.41999999
-2.5020001 3.3570001 -1.7920001 0.27000001
-2.5179999 3.3559999 -1.796 0.38
-2.52 3.3369999 -1.79 0.37
-2.5280001 3.326 -1.788 0.36000001
-2.5420001 3.322 -1.791 0.34
-2.5510001 3.313 -1.79 0.43000001
-2.5639999 3.3069999 -1.791 0.33000001
-2.5650001 3.2980001 -1.788 0
-0.99699998 1.275 -0.62199998 0
-2.569 3.283 -1.784 0
-0.90600002 1.155 -0.55299997 0
-0.90700001 1.149 -0.551 0
-0.926 1.169 -0.56400001 0
-0.96399999 1.207 -0.588 0
-1.022 1.2690001 -0.62699997 0
-1.0779999 1.3279999 -0.66299999 0
-1.036 1.27 -0.63099998 0
-1.048 1.276 -0.63700002 0
-1.0190001 1.234 -0.61299998 0
-1.058 1.276 -0.639 0
-0.93900001 1.0420001 -0.523 0
-1.029 1.08 -0.56400001 0
-1.209 1.255 -0.67799997 0
-3.1340001 2.809 -1.802 0
-3.135 2.7920001 -1.7970001 0
-3.1570001 2.7939999 -1.806 0
-3.1559999 2.7839999 -1.802 0
-3.1589999 2.7690001 -1.799 0
-3.181 2.77 -1.806 0
-3.177 2.7490001 -1.799 0
-3.188 2.7420001 -1.801 0
-3.2160001 2.7479999 -1.812 0
-3.467 2.3729999 -1.799 0
-3.497 2.378 -1.811 0
-3.503 2.3659999 -1.811 0.02
-3.4949999 2.345 -1.802 0.029999999
-3.483 2.3210001 -1.791 0.16
-3.5220001 2.3299999 -1.809 0.23
-3.5139999 2.3099999 -1.801 0.2
-3.51 2.299 -1.796 0.38999999
-3.5220001 2.2909999 -1.799 0.23999999
-3.5179999 2.273 -1.793 0.34999999
-3.533 2.267 -1.7970001 0.28999999
-3.5450001 2.2590001 -1.8 0.36000001
-3.539 2.24 -1.793 0.30000001
-3.5599999 2.237 -1.801 0.38
-3.5599999 2.221 -1.796 0.25
-3.5599999 2.214 -1.795 0.28
-3.5680001 2.204 -1.796 0.23999999
-3.5710001 2.1900001 -1.793 0.28
-3.579 2.1789999 -1.794 0.27000001
-3.605 2.1789999 -1.804 0.20999999
-3.5899999 2.155 -1.7920001 0.059999999
-3.6029999 2.1470001 -1.796 0
-3.609 2.1429999 -1.7970001 0
-3.6099999 2.128 -1.794 0
-3.6370001 2.1289999 -1.8049999 0
-3.6229999 2.1059999 -1.794 0
-3.6289999 2.0940001 -1.794 0
-3.641 2.086 -1.796 0
-3.6389999 2.0699999 -1.7920001 0
-3.652 2.069 -1.7970001 0
-3.655 2.056 -1.796 0
-3.665 2.046 -1.7970001 0
-3.664 2.03 -1.793 0
-3.6600001 2.0139999 -1.788 0
-3.684 2.0120001 -1.7970001 0
-3.684 1.997 -1.794 0
-3.694 1.994 -1.7970001 0
-3.71 1.988 -1.802 0
-3.6960001 1.966 -1.7920001 0
-3.7030001 1.954 -1.7920001 0
-3.592 -2.2309999 -1.811 0.20999999
-3.556 -2.224 -1.796 0.16
-3.5510001 -2.2290001 -1.795 0.38
-3.5469999 -2.2420001 -1.796 0.31999999
-3.5339999 -2.2490001 -1.793 0.47
-3.517 -2.2539999 -1.788 0.38
-3.526 -2.2750001 -1.796 0.34999999
-3.517 -2.2850001 -1.796 0.28
-3.507 -2.2939999 -1.794 0.31999999
-3.5 -2.2980001 -1.7920001 0.37
-3.4879999 -2.306 -1.79 0.30000001
-3.487 -2.3210001 -1.793 0.31999999
-3.487 -2.3369999 -1.7970001 0.36000001
-3.4719999 -2.342 -1.793 0.27000001
-3.471 -2.3570001 -1.796 0.30000001
-3.4549999 -2.362 -1.791 0.28999999
-3.451 -2.368 -1.791 0.25
-3.4419999 -2.3770001 -1.791 0.27000001
-3.424 -2.381 -1.785 0.11
-3.427 -2.3989999 -1.791 0.19
-3.4159999 -2.408 -1.789 0.2
-3.418 -2.425 -1.794 0.1
-3.4170001 -2.441 -1.798 0.15000001
-3.415 -2.447 -1.799 0.20999999
-3.4030001 -2.4549999 -1.796 0.19
-3.391 -2.4619999 -1.794 0.23
-3.3789999 -2.4690001 -1.791 0.23999999
-3.3770001 -2.484 -1.795 0.2
-3.369 -2.4949999 -1.795 0.25999999
-3.3640001 -2.5079999 -1.796 0.25
-3.3610001 -2.5139999 -1.7970001 0.23
-3.355 -2.526 -1.798 0.30000001
-3.3469999 -2.536 -1.798 0.31
-3.342 -2.549 -1.8 0.22
-3.322 -2.5510001 -1.793 0.40000001
-3.3169999 -2.563 -1.795 0.30000001
-3.3080001 -2.573 -1.794 0.33000001
-3.309 -2.582 -1.7970001 0.31999999
-3.3010001 -2.5929999 -1.7970001 0.43000001
-3.2920001 -2.602 -1.796 0.25999999
-3.2820001 -2.6110001 -1.796 0.41
-3.2780001 -2.625 -1.798 0.34999999
-3.26 -2.6270001 -1.7920001 0.28999999
-3.26 -2.6440001 -1.7970001 0.36000001
-3.2590001 -2.652 -1.799 0.28999999
-3.25 -2.6619999 -1.799 0.36000001
-3.2449999 -2.674 -1.801 0.28999999
-3.2409999 -2.688 -1.803 0.23
-3.2130001 -2.6819999 -1.791 0.27000001
-3.2060001 -2.6930001 -1.7920001 0.23999999
-3.21 -2.714 -1.8 0.050000001
-3.2219999 -2.733 -1.8099999 0
-3.1930001 -2.7249999 -1.7970001 0
-3.1800001 -2.7320001 -1.795 0
-3.1689999 -2.7390001 -1.793 0
-3.165 -2.7539999 -1.796 0
-3.174 -2.78 -1.807 0
-2.964 -3.039 -1.819 0
-2.9449999 -3.0369999 -1.812 0.050000001
-2.8970001 -3.007 -1.7869999 0.15000001
-2.9200001 -3.0409999 -1.806 0.2
-2.8900001 -3.027 -1.791 0.28999999
-2.8759999 -3.0320001 -1.789 0.30000001
-2.8729999 -3.0480001 -1.793 0.28
-2.855 -3.0480001 -1.7869999 0.31999999
-2.8380001 -3.049 -1.7819999 0.34999999
-2.8399999 -3.0710001 -1.791 0.34
-2.829 -3.069 -1.786 0.30000001
-2.8199999 -3.0780001 -1.786 0.28
-2.8039999 -3.0799999 -1.7819999 0.23
-2.7920001 -3.086 -1.781 0.23
-2.8050001 -3.1199999 -1.796 0
-2.776 -3.1070001 -1.783 0
-2.7590001 -3.108 -1.778 0
-2.763 -3.122 -1.784 0
-0.93400002 -1.223 -0.58499998 0
-1.021 -1.479 -0.70300001 0
-0.92699999 -1.349 -0.63 0
-0.87800002 -1.284 -0.59299999 0
-0.87 -1.28 -0.58899999 0
-0.81199998 -1.201 -0.54500002 0
-0.77899998 -1.153 -0.51800001 0
-0.77399999 -1.154 -0.51700002 0
-0.81699997 -1.229 -0.55599999 0
-0.83999997 -1.274 -0.579 0
-0.93800002 -1.438 -0.667 0
-2.2609999 -3.586 -1.816 0.050000001
-2.2360001 -3.5699999 -1.804 0.15000001
-2.221 -3.5599999 -1.796 0.28
-2.198 -3.546 -1.786 0.27000001
-2.184 -3.549 -1.783 0.34999999
-2.1760001 -3.562 -1.786 0.36000001
-2.1730001 -3.5810001 -1.793 0.33000001
-2.158 -3.582 -1.79 0.34999999
-2.154 -3.5880001 -1.791 0.36000001
-2.1429999 -3.595 -1.791 0.36000001
-2.1289999 -3.5969999 -1.789 0.38999999
-2.1159999 -3.602 -1.788 0.40000001
-2.1070001 -3.612 -1.79 0.38
-2.092 -3.612 -1.786 0.34
-2.0780001 -3.6140001 -1.784 0.40000001
-2.0840001 -3.638 -1.795 0.34
-2.063 -3.6270001 -1.786 0.36000001
-2.056 -3.641 -1.79 0.40000001
-2.05 -3.6589999 -1.796 0.34999999
-2.029 -3.648 -1.786 0.38999999
-2.02 -3.6589999 -1.789 0.34999999
-2.0120001 -3.671 -1.7920001 0.38999999
-1.9960001 -3.668 -1.7869999 0.34
-1.987 -3.6659999 -1.785 0.38999999
-1.987 -3.694 -1.796 0.31999999
-1.973 -3.6949999 -1.793 0.36000001
-1.9529999 -3.687 -1.786 0.40000001
-1.952 -3.7119999 -1.796 0.34
-1.927 -3.6919999 -1.7819999 0.34
-1.921 -3.71 -1.788 0.31999999
-1.925 -3.7320001 -1.798 0.40000001
-1.909 -3.73 -1.794 0.36000001
-1.897 -3.734 -1.793 0.51999998
-1.8839999 -3.7390001 -1.7920001 0.40000001
-1.865 -3.73 -1.785 0.41
-1.847 -3.723 -1.778 0.46000001
-1.844 -3.747 -1.7869999 0.34999999
-1.823 -3.7179999 -1.772 0.44
-1.814 -3.7290001 -1.774 0.36000001
-1.804 -3.7379999 -1.776 0.44
-1.779 -3.7160001 -1.762 0.40000001
-1.775 -3.7379999 -1.77 0.31
-1.7640001 -3.7449999 -1.771 0.44999999
-1.748 -3.7260001 -1.76 0.38999999
-1.734 -3.727 -1.757 0.41
-1.729 -3.747 -1.765 0.34999999
-1.706 -3.727 -1.752 0.38
-1.691 -3.7249999 -1.748 0.44999999
-1.683 -3.74 -1.753 0.38999999
-1.668 -3.737 -1.749 0.34
-1.658 -3.7290001 -1.744 0.38
-1.65 -3.7449999 -1.749 0.41
-1.63 -3.73 -1.739 0.41
-1.615 -3.7260001 -1.735 0.38
-1.612 -3.753 -1.7460001 0.36000001
-1.586 -3.7249999 -1.729 0.46000001
-1.581 -3.7449999 -1.737 0.31
-1.572 -3.7390001 -1.733 0.47999999
-1.5599999 -3.744 -1.733 0.27000001
-1.54 -3.73 -1.723 0.54000002
-1.529 -3.737 -1.724 0.34
-1.5190001 -3.7449999 -1.726 0.33000001
-1.502 -3.7360001 -1.719 0.47999999
-1.5 -3.766 -1.732 0.25999999
-1.482 -3.7379999 -1.717 0.47999999
-1.476 -3.756 -1.723 0.30000001
-1.456 -3.7390001 -1.7130001 0.55000001
-1.441 -3.7360001 -1.709 0.28
-1.429 -3.7390001 -1.7079999 0.44
-1.423 -3.7609999 -1.717 0.31999999
-1.406 -3.75 -1.709 0.47999999
-1.393 -3.733 -1.7 0.47999999
-1.385 -3.7460001 -1.704 0.28999999
-1.375 -3.756 -1.707 0.38
-1.357 -3.744 -1.699 0.44999999
-1.348 -3.756 -1.7029999 0.37
-1.3329999 -3.75 -1.698 0.43000001
-1.319 -3.7490001 -1.6950001 0.41
-1.311 -3.744 -1.692 0.41
-1.295 -3.7360001 -1.686 0.41
-1.286 -3.7479999 -1.6900001 0.37
-1.274 -3.7509999 -1.689 0.33000001
-1.262 -3.756 -1.6900001 0.34
-1.25 -3.7590001 -1.689 0.40000001
-1.237 -3.757 -1.687 0.34
-1.2309999 -3.7590001 -1.687 0.44
-1.2180001 -3.7609999 -1.686 0.40000001
-1.2079999 -3.77 -1.689 0.34999999
-1.197 -3.776 -1.689 0.44999999
-1.1849999 -3.78 -1.689 0.38999999
-1.17 -3.7750001 -1.6849999 0.38999999
-1.1569999 -3.773 -1.683 0.38
-1.154 -3.7850001 -1.688 0.36000001
-1.1390001 -3.779 -1.683 0.43000001
-1.128 -3.7839999 -1.684 0.38
-1.117 -3.793 -1.686 0.31999999
-1.1059999 -3.7980001 -1.687 0.41
-1.0930001 -3.796 -1.684 0.38999999
-1.082 -3.8050001 -1.687 0.33000001
-1.077 -3.8080001 -1.688 0.36000001
-1.063 -3.806 -1.6849999 0.38999999
-1.051 -3.8080001 -1.684 0.38
-1.038 -3.8080001 -1.683 0.41
-1.026 -3.8110001 -1.683 0.34999999
-1.017 -3.826 -1.689 0.31
-1.0039999 -3.8239999 -1.686 0.41
-0.99900001 -3.8310001 -1.689 0.28
-0.98199999 -3.8150001 -1.679 0.43000001
-0.972 -3.823 -1.682 0.31999999
-0.96100003 -3.8329999 -1.6849999 0.41999999
-0.94800001 -3.8329999 -1.684 0.44
-0.935 -3.832 -1.682 0.41999999
-0.92699999 -3.8510001 -1.689 0.41
-0.91799998 -3.8399999 -1.684 0.5
-0.90799999 -3.852 -1.688 0.38
-0.89600003 -3.855 -1.688 0.46000001
-0.88300002 -3.8540001 -1.686 0.47
-0.87099999 -3.8570001 -1.686 0.56999999
-0.86000001 -3.8659999 -1.689 0.36000001
-0.84899998 -3.8710001 -1.6900001 0.41
-0.84299999 -3.8759999 -1.692 0.56999999
-0.82999998 -3.8710001 -1.689 0.41
-0.81599998 -3.869 -1.686 0.47
-0.80400002 -3.869 -1.6849999 0.41
-0.79100001 -3.8659999 -1.683 0.44999999
-0.77999997 -3.8740001 -1.6849999 0.38
-0.76700002 -3.875 -1.684 0.34999999
-0.76300001 -3.885 -1.689 0.38
-0.75 -3.8840001 -1.687 0.36000001
-0.74000001 -3.8970001 -1.692 0.38999999
-0.72600001 -3.8900001 -1.688 0.5
-0.713 -3.8889999 -1.686 0.37
-0.69999999 -3.8889999 -1.6849999 0.5
-0.69099998 -3.9100001 -1.694 0.30000001
-0.68400002 -3.9030001 -1.6900001 0.52999997
-0.67400002 -3.9200001 -1.697 0.38999999
-0.65499997 -3.8829999 -1.679 0.55000001
-0.64600003 -3.901 -1.686 0.31999999
-0.634 -3.908 -1.689 0.51999998
-0.62099999 -3.905 -1.686 0.28999999
-0.60799998 -3.8989999 -1.683 0.47
-0.60699999 -3.9360001 -1.699 0.40000001
-0.58999997 -3.9059999 -1.684 0.47999999
-0.57800001 -3.9089999 -1.6849999 0.38
-0.56699997 -3.9219999 -1.6900001 0.44999999
-0.55299997 -3.911 -1.684 0.36000001
-0.54000002 -3.9089999 -1.683 0.47
-0.53200001 -3.9419999 -1.697 0.38
-0.52100003 -3.908 -1.681 0.46000001
-0.51099998 -3.9230001 -1.687 0.38999999
-0.49900001 -3.931 -1.6900001 0.44999999
-0.486 -3.9219999 -1.6849999 0.41
-0.47299999 -3.924 -1.6849999 0.36000001
-0.46000001 -3.918 -1.682 0.54000002
-0.447 -3.908 -1.677 0.33000001
-0.43900001 -3.8929999 -1.67 0.44
-0.43000001 -3.925 -1.684 0.34
-0.417 -3.921 -1.681 0.46000001
-0.40400001 -3.915 -1.678 0.37
-0.39300001 -3.934 -1.686 0.5
-0.37900001 -3.9170001 -1.678 0.41999999
-0.37400001 -3.9289999 -1.683 0.34999999
-0.361 -3.9260001 -1.681 0.44999999
-0.34799999 -3.911 -1.674 0.40000001
-0.33399999 -3.8989999 -1.668 0.63
-0.32499999 -3.9349999 -1.684 0.33000001
-0.31099999 -3.9119999 -1.673 0.44
-0.29800001 -3.9100001 -1.671 0.36000001
-0.28799999 -3.9360001 -1.683 0.41
-0.28 -3.9130001 -1.6720001 0.56
-0.26800001 -3.9170001 -1.674 0.37
-0.25600001 -3.9289999 -1.679 0.46000001
-0.242 -3.8940001 -1.6619999 0.36000001
-0.228 -3.8710001 -1.651 0.47
-0.21699999 -3.888 -1.659 0.38999999
-0.205 -3.8870001 -1.658 0.44999999
-0.199 -3.898 -1.663 0.43000001
-0.18700001 -3.9170001 -1.671 0.44
-0.175 -3.901 -1.664 0.5
-0.163 -3.9089999 -1.6670001 0.38
-0.15099999 -3.927 -1.675 0.41
-0.13699999 -3.875 -1.651 0.5
-0.125 -3.8699999 -1.649 0.37
-0.119 -3.885 -1.655 0.44
-0.107 -3.885 -1.655 0.40000001
-0.093999997 -3.882 -1.654 0.41
-0.082000002 -3.8670001 -1.647 0.55000001
-0.07 -3.8659999 -1.646 0.33000001
-0.057999998 -3.8840001 -1.655 0.46000001
-0.052000001 -3.9119999 -1.6670001 0.34999999
-0.039999999 -3.9260001 -1.674 0.43000001
-0.027000001 -3.8900001 -1.6569999 0.5
-0.015 -3.9100001 -1.666 0.31999999
-0.003 -3.901 -1.6619999 0.56
0.0099999998 -3.9170001 -1.67 0.38
0.022 -3.9300001 -1.675 0.43000001
0.028000001 -3.8989999 -1.661 0.60000002
0.039999999 -3.895 -1.66 0.31999999
0.052999999 -3.9130001 -1.668 0.49000001
0.064999998 -3.931 -1.676 0.38
0.077 -3.8929999 -1.659 0.55000001
0.090000004 -3.9219999 -1.6720001 0.31999999
0.101 -3.898 -1.661 0.49000001
0.108 -3.918 -1.67 0.31999999
0.12 -3.9119999 -1.668 0.5
0.133 -3.915 -1.67 0.36000001
0.145 -3.915 -1.67 0.44999999
0.15700001 -3.9030001 -1.665 0.49000001
0.17 -3.921 -1.673 0.36000001
0.182 -3.9100001 -1.668 0.49000001
0.18700001 -3.9059999 -1.666 0.41
0.2 -3.905 -1.666 0.44
0.213 -3.9130001 -1.67 0.36000001
0.22499999 -3.9089999 -1.669 0.5
0.23800001 -3.925 -1.676 0.38
0.25 -3.9130001 -1.671 0.5
0.26199999 -3.9159999 -1.673 0.34999999
0.26699999 -3.905 -1.668 0.50999999
0.28 -3.9059999 -1.669 0.34999999
0.292 -3.905 -1.669 0.38999999
0.30399999 -3.898 -1.666 0.44999999
0.31600001 -3.8970001 -1.666 0.44999999
0.32699999 -3.885 -1.661 0.41
0.33899999 -3.8829999 -1.66 0.38
0.347 -3.8970001 -1.6670001 0.37
0.35800001 -3.881 -1.66 0.37
0.368 -3.8599999 -1.651 0.25999999
0.38100001 -3.8659999 -1.655 0.14
0.39300001 -3.8629999 -1.654 0
0.40799999 -3.891 -1.6670001 0
0.41999999 -3.8840001 -1.665 0
0.43000001 -3.921 -1.682 0
0.44299999 -3.927 -1.6849999 0
0.45199999 -3.895 -1.671 0
0.46599999 -3.904 -1.676 0
0.477 -3.8959999 -1.673 0
0.49000001 -3.8989999 -1.675 0
0.55800003 -3.8959999 -1.678 0
0.56599998 -3.869 -1.666 0.039999999
0.58499998 -3.908 -1.6849999 0.16
0.58700001 -3.881 -1.673 0.23
0.602 -3.898 -1.682 0.33000001
0.61000001 -3.868 -1.669 0.23999999
0.62599999 -3.891 -1.6799999 0.27000001
0.634 -3.8659999 -1.67 0.43000001
0.64300001 -3.846 -1.661 0.43000001
0.65600002 -3.8469999 -1.663 0.41999999
0.662 -3.848 -1.664 0.36000001
0.676 -3.8510001 -1.666 0.40000001
0.68800002 -3.849 -1.666 0.27000001
0.70200002 -3.8610001 -1.673 0.34999999
0.71100003 -3.8429999 -1.665 0.38
0.72600001 -3.8510001 -1.67 0.31999999
0.74000001 -3.862 -1.676 0.37
0.741 -3.8340001 -1.664 0.34
0.75300002 -3.8299999 -1.663 0.31
0.76499999 -3.8310001 -1.665 0.25999999
0.778 -3.8340001 -1.6670001 0.23
0.79299998 -3.842 -1.6720001 0.19
0.81300002 -3.8770001 -1.689 0.43000001
0.81400001 -3.8239999 -1.666 0.23
0.81300002 -3.7909999 -1.651 0.38999999
0.83600003 -3.8369999 -1.674 0.38
0.84600002 -3.825 -1.67 0.28999999
0.85900003 -3.826 -1.671 0.25
0.87599999 -3.8440001 -1.681 0.1
0.88200003 -3.8169999 -1.67 0.090000004
0.88999999 -3.8239999 -1.674 0.079999998
0.90200001 -3.8210001 -1.674 0
0.91100001 -3.8080001 -1.669 0
0.92299998 -3.8050001 -1.669 0
0.93800002 -3.8150001 -1.674 0
1.5369999 -3.733 -1.724 0
1.538 -3.7190001 -1.7180001 0
1.551 -3.7160001 -1.719 0
1.572 -3.733 -1.73 0
1.574 -3.7060001 -1.719 0
1.585 -3.7 -1.7180001 0.059999999
1.6 -3.7030001 -1.723 0.039999999
1.607 -3.6860001 -1.717 0.14
1.615 -3.6900001 -1.72 0.19
1.631 -3.6949999 -1.725 0.1
1.647 -3.698 -1.729 0.17
1.658 -3.6930001 -1.729 0.22
1.675 -3.698 -1.734 0.19
1.682 -3.6830001 -1.729 0.13
1.697 -3.6860001 -1.733 0.20999999
1.709 -3.6960001 -1.74 0.23
1.717 -3.684 -1.737 0.34999999
1.732 -3.6849999 -1.74 0.28999999
1.744 -3.6800001 -1.74 0.34999999
1.758 -3.681 -1.743 0.28999999
1.772 -3.6789999 -1.745 0.25999999
1.786 -3.678 -1.747 0.28999999
1.7920001 -3.677 -1.748 0.28999999
1.806 -3.6760001 -1.751 0.28999999
1.823 -3.6819999 -1.757 0.28999999
1.8329999 -3.6730001 -1.755 0.28999999
1.85 -3.677 -1.76 0.33000001
1.8660001 -3.681 -1.765 0.31
1.8710001 -3.6760001 -1.7640001 0.34
1.8839999 -3.6730001 -1.766 0.34
1.902 -3.6789999 -1.772 0.36000001
1.902 -3.6500001 -1.76 0.30000001
1.916 -3.6489999 -1.762 0.34
1.9299999 -3.6489999 -1.766 0.33000001
1.938 -3.6370001 -1.762 0.34
1.9450001 -3.635 -1.763 0.34999999
1.9579999 -3.632 -1.765 0.34
1.959 -3.6070001 -1.755 0.34999999
1.97 -3.599 -1.7539999 0.36000001
1.99 -3.609 -1.762 0.34999999
1.998 -3.598 -1.76 0.36000001
2.0109999 -3.5929999 -1.761 0.38
2.0190001 -3.595 -1.763 0.34
2.027 -3.582 -1.76 0.38999999
2.0380001 -3.576 -1.76 0.33000001
2.056 -3.582 -1.767 0.36000001
2.0569999 -3.5569999 -1.757 0.41999999
2.069 -3.552 -1.757 0.34
2.086 -3.556 -1.763 0.31
2.096 -3.5469999 -1.762 0.33000001
2.092 -3.5280001 -1.753 0.44999999
2.1099999 -3.5339999 -1.76 0.38999999
2.1059999 -3.5020001 -1.747 0.46000001
2.122 -3.503 -1.751 0.38
2.1400001 -3.507 -1.757 0.33000001
2.141 -3.4849999 -1.748 0.38999999
2.151 -3.4890001 -1.752 0.34
2.1689999 -3.493 -1.758 0.38999999
2.1730001 -3.4760001 -1.752 0.36000001
2.181 -3.464 -1.75 0.36000001
2.2019999 -3.473 -1.758 0.37
2.2 -3.4460001 -1.747 0.34
2.217 -3.448 -1.752 0.34
2.23 -3.457 -1.7589999 0.38
2.2279999 -3.4300001 -1.748 0.31999999
2.2420001 -3.428 -1.751 0.34
2.2590001 -3.4300001 -1.756 0.34
2.2579999 -3.4059999 -1.747 0.38
2.2709999 -3.402 -1.748 0.31999999
2.289 -3.405 -1.7539999 0.34
2.29 -3.3959999 -1.751 0.37
2.3010001 -3.388 -1.751 0.36000001
2.3139999 -3.3859999 -1.753 0.36000001
2.316 -3.365 -1.7460001 0.40000001
2.3280001 -3.3610001 -1.747 0.31999999
2.346 -3.3640001 -1.753 0.34
2.349 -3.346 -1.747 0.36000001
2.352 -3.3380001 -1.745 0.34999999
2.3729999 -3.345 -1.753 0.34
2.3740001 -3.3239999 -1.7460001 0.38
2.3829999 -3.316 -1.745 0.36000001
2.3989999 -3.3150001 -1.749 0.37
2.4059999 -3.303 -1.747 0.31999999
2.418 -3.299 -1.748 0.34999999
2.4300001 -3.3039999 -1.753 0.34
2.424 -3.2739999 -1.7410001 0.36000001
2.444 -3.28 -1.748 0.34
2.46 -3.279 -1.752 0.38
2.4530001 -3.2479999 -1.739 0.34
2.474 -3.2550001 -1.747 0.40000001
2.4849999 -3.2490001 -1.748 0.31999999
2.4820001 -3.2349999 -1.743 0.34999999
2.493 -3.227 -1.743 0.40000001
2.503 -3.2190001 -1.743 0.33000001
2.5120001 -3.21 -1.742 0.34
2.5250001 -3.2060001 -1.744 0.31999999
2.539 -3.2019999 -1.747 0.38
2.5450001 -3.2 -1.747 0.36000001
2.55 -3.1860001 -1.744 0.34
2.5599999 -3.178 -1.744 0.34
2.5710001 -3.1719999 -1.745 0.33000001
2.5780001 -3.1589999 -1.743 0.34999999
2.595 -3.1600001 -1.747 0.34
2.595 -3.1400001 -1.7410001 0.38
2.6029999 -3.1389999 -1.743 0.34999999
2.6210001 -3.1400001 -1.748 0.33000001
2.6270001 -3.128 -1.7460001 0.43000001
2.631 -3.1129999 -1.742 0.31999999
2.6500001 -3.1159999 -1.748 0.34999999
2.654 -3.0999999 -1.744 0.31999999
2.664 -3.092 -1.744 0.36000001
2.6760001 -3.096 -1.749 0.33000001
2.6760001 -3.0769999 -1.743 0.36000001
2.6889999 -3.072 -1.745 0.31999999
2.7019999 -3.0680001 -1.747 0.43000001
2.7160001 -3.0639999 -1.75 0.30000001
2.7160001 -3.0439999 -1.743 0.34999999
2.7309999 -3.0420001 -1.747 0.34
2.7379999 -3.0309999 -1.7460001 0.31999999
2.7379999 -3.0209999 -1.743 0.31999999
2.753 -3.0179999 -1.7460001 0.30000001
2.763 -3.0109999 -1.747 0.41
2.7690001 -2.9979999 -1.744 0.28999999
2.7850001 -2.9960001 -1.748 0.31999999
2.7920001 -2.9849999 -1.747 0.36000001
2.8 -2.984 -1.749 0.31999999
2.8139999 -2.9809999 -1.752 0.34
2.8199999 -2.9679999 -1.75 0.34
2.825 -2.9549999 -1.747 0.37
2.8399999 -2.951 -1.751 0.33000001
2.848 -2.941 -1.75 0.36000001
2.8570001 -2.9319999 -1.75 0.33000001
2.872 -2.938 -1.757 0.34999999
2.8659999 -2.914 -1.747 0.33000001
2.8770001 -2.9070001 -1.748 0.31
2.892 -2.9030001 -1.752 0.38
2.8970001 -2.8900001 -1.749 0.33000001
2.9070001 -2.882 -1.75 0.31999999
2.914 -2.8710001 -1.748 0.33000001
2.9130001 -2.8610001 -1.745 0.28999999
2.9260001 -2.8559999 -1.747 0.34
2.9430001 -2.8540001 -1.752 0.38
2.9419999 -2.836 -1.747 0.31999999
2.9549999 -2.8299999 -1.749 0.38
2.9719999 -2.829 -1.7539999 0.38999999
2.9679999 -2.8069999 -1.7460001 0.30000001
2.98 -2.8099999 -1.751 0.33000001
2.9920001 -2.803 -1.752 0.28999999
2.9909999 -2.7850001 -1.747 0.37
3.0050001 -2.78 -1.75 0.31999999
3.0120001 -2.77 -1.749 0.38
3.029 -2.767 -1.7539999 0.34999999
3.0280001 -2.7490001 -1.748 0.27000001
3.0480001 -2.7579999 -1.757 0.44
3.043 -2.7360001 -1.749 0.31999999
3.0550001 -2.73 -1.752 0.31999999
3.075 -2.73 -1.758 0.36000001
3.0680001 -2.707 -1.749 0.30000001
3.0799999 -2.7 -1.751 0.28999999
3.096 -2.698 -1.756 0.36000001
3.0910001 -2.684 -1.75 0.43000001
3.1010001 -2.6760001 -1.751 0.31999999
3.1129999 -2.6700001 -1.753 0.36000001
3.1159999 -2.655 -1.75 0.30000001
3.1199999 -2.642 -1.747 0.40000001
3.1370001 -2.6389999 -1.752 0.27000001
3.135 -2.6300001 -1.749 0.38
3.138 -2.615 -1.7460001 0.31999999
3.165 -2.6199999 -1.757 0.38
3.1530001 -2.5940001 -1.745 0.28999999
3.1670001 -2.589 -1.748 0.30000001
3.1819999 -2.5840001 -1.752 0.38999999
3.1860001 -2.5710001 -1.75 0.30000001
3.1860001 -2.563 -1.747 0.34
3.207 -2.563 -1.755 0.34
3.194 -2.5369999 -1.743 0.37
3.207 -2.53 -1.7460001 0.41
3.22 -2.5250001 -1.749 0.25999999
3.2279999 -2.5150001 -1.749 0.41
3.2320001 -2.5009999 -1.747 0.25
3.2550001 -2.51 -1.757 0.36000001
3.2509999 -2.4909999 -1.751 0
3.243 -2.4690001 -1.742 0
3.5250001 -2.1700001 -1.771 0.1
3.4949999 -2.1359999 -1.751 0.19
3.5090001 -2.1300001 -1.755 0.25999999
3.494 -2.1059999 -1.743 0.20999999
3.4990001 -2.0940001 -1.743 0.38
3.5020001 -2.0810001 -1.7410001 0.38999999
3.51 -2.0780001 -1.743 0.41
