# .PCD v0.7 - Point Cloud Data file format
VERSION 0.7
FIELDS x y z intensity
SIZE 4 4 4 4
TYPE F F F F
COUNT 1 1 1 1
WIDTH 1413
HEIGHT 1
VIEWPOINT 0 0 0 1 0 0 0
POINTS 1413
DATA ascii
29.530001 31.747 -2.4790001 0.050000001
29.502001 31.917 -2.4860001 0.090000004
29.427999 31.937 -2.484 0.079999998
29.159 31.844999 -2.4679999 0
29.249001 32.146 -2.4860001 0
29.176001 32.269001 -2.4879999 0
28.698999 31.941 -2.4530001 0
28.594 32.027 -2.4530001 0
28.896999 32.571999 -2.4909999 0
29.701 33.585999 -2.5710001 0
29.261 33.298 -2.539 0
29.275999 33.526001 -2.55 0
29.419001 33.904999 -2.5739999 0
29.253 33.929001 -2.5680001 0
29.139 34.012001 -2.5680001 0
29.063 34.139999 -2.5710001 0.07
29.030001 34.209999 -2.573 0.13
28.924999 34.304001 -2.573 0.090000004
28.971001 34.577999 -2.5880001 0.15000001
28.718 34.494999 -2.5739999 0.090000004
28.525 34.484001 -2.566 0
28.299999 34.431 -2.5539999 0
28.014 34.301998 -2.5369999 0
28.188 34.625999 -2.559 0
27.797001 34.365002 -2.5309999 0.07
27.68 34.442001 -2.53 0
27.648001 34.624001 -2.5380001 0
27.646999 34.846001 -2.549 0
27.134001 34.422001 -2.5079999 0
26.976 34.442001 -2.503 0
27.134001 34.757 -2.5250001 0
27.361 35.276001 -2.559 0
26.83 34.816002 -2.516 0
26.565001 34.696999 -2.5 0
26.556 34.911999 -2.5109999 0
26.641001 35.254002 -2.5309999 0
27.559999 36.710999 -2.6370001 0.059999999
27.409 36.749001 -2.6329999 0.14
27.381001 36.832001 -2.6359999 0.1
27.27 36.924999 -2.6370001 0.14
27.013 36.818001 -2.622 0.090000004
26.792999 36.759998 -2.6110001 0
26.662001 36.821999 -2.609 0
26.611 36.997002 -2.6159999 0
26.721001 37.396999 -2.6400001 0
26.621 37.380001 -2.6359999 0
26.546 37.523998 -2.6400001 0
26.386999 37.549 -2.6359999 0
26.288 37.659 -2.638 0
26.063999 37.589001 -2.6270001 0
25.863001 37.550999 -2.618 0
25.829 37.755001 -2.6270001 0
26.158001 38.365002 -2.6689999 0
26.177 38.653999 -2.6849999 0
26.396 39.243 -2.723 0
25.347 37.938999 -2.6199999 0
26.775 40.353001 -2.793 0
26.775999 40.630001 -2.8069999 0
26.596001 40.636002 -2.8010001 0
26.639 40.841 -2.813 0
26.444 40.820999 -2.806 0
26.311001 40.896999 -2.8050001 0
26.146999 40.924 -2.8010001 0
26.122999 41.171001 -2.813 0
26.028 41.306999 -2.8169999 0
25.868999 41.342999 -2.8139999 0
25.811001 41.395 -2.8150001 0
25.690001 41.490002 -2.816 0
25.466999 41.421001 -2.8050001 0
25.485001 41.742001 -2.822 0
25.309 41.749001 -2.8169999 0
25.184999 41.84 -2.8180001 0
25.077999 41.959999 -2.8210001 0
24.860001 41.743999 -2.803 0
25.033001 42.337002 -2.8399999 0
24.990999 42.570999 -2.8510001 0
24.826 42.596001 -2.8469999 0
24.815001 42.886002 -2.862 0
24.504 42.657001 -2.8399999 0
24.716999 43.342999 -2.8840001 0
24.546 43.201 -2.8710001 0
24.607 43.627998 -2.8959999 0
24.417999 43.612 -2.8889999 0
24.091999 43.348999 -2.865 0
12.48 22.764999 -1.403 0.17
12.382 22.756001 -1.4 0.40000001
12.446 23.046 -1.418 0
12.314 22.886999 -1.405 0
24.181999 45.339001 -2.9760001 0
24.339001 45.983002 -3.0150001 0
24.459 46.563 -3.0510001 0
24.381001 46.77 -3.0599999 0
24.176001 46.735001 -3.052 0
24.016001 46.784 -3.05 0
24.017 46.967999 -3.0599999 0
23.976999 47.256001 -3.075 0
23.951 47.574001 -3.092 0
23.511 47.069 -3.052 0
23.535 47.488998 -3.076 0
24.093 49.004002 -3.175 0
23.870001 48.937 -3.165 0
23.889999 49.174 -3.1789999 0
23.708 49.191002 -3.175 0
23.642 49.451 -3.188 0
23.535999 49.630001 -3.1949999 0
23.312 49.558998 -3.1849999 0
23.159 49.639 -3.1849999 0
22.952 49.601002 -3.178 0
22.927999 49.752998 -3.1860001 0
22.67 49.603001 -3.171 0
22.559999 49.776001 -3.178 0
22.398001 49.834 -3.177 0
22.261 49.948002 -3.1800001 0
22.107 50.025002 -3.1800001 0
21.962999 50.123001 -3.1819999 0
21.945 50.299 -3.1919999 0
21.858 50.532001 -3.2030001 0
21.780001 50.790001 -3.2160001 0
21.691 51.022999 -3.227 0
21.513 51.049 -3.224 0
21.306 51.006001 -3.2160001 0
21.073999 50.898998 -3.2049999 0
20.865999 50.847 -3.197 0
20.782 50.869999 -3.1960001 0
20.584999 50.842999 -3.1900001 0
23.648001 58.951 -3.7260001 0
23.42 58.918999 -3.7190001 0
23.150999 58.777 -3.7049999 0
22.922001 58.736 -3.697 0
22.694 58.698002 -3.6900001 0
22.556 58.612 -3.6819999 0
22.273001 58.424999 -3.665 0
22.188999 58.757999 -3.6819999 0
22.041 58.926998 -3.6889999 0
21.790001 58.816002 -3.677 0
21.503 58.606998 -3.6589999 0
21.080999 58.016998 -3.6159999 0
21.038 58.183998 -3.6240001 0
20.93 58.459999 -3.638 0
20.650999 58.256001 -3.6199999 0.07
20.445 58.257 -3.6159999 0
20.298 58.423 -3.6229999 0
20.048 58.296001 -3.6099999 0.059999999
19.834999 58.269001 -3.605 0.079999998
19.709999 58.200001 -3.598 0.090000004
19.489 58.150002 -3.5910001 0
19.268999 58.098 -3.5829999 0
18.919001 57.646999 -3.55 0.039999999
18.773001 57.817001 -3.5569999 0.079999998
18.541 57.716 -3.5469999 0
18.351 57.747002 -3.5450001 0
18.226999 57.673 -3.539 0
17.993 57.560001 -3.5280001 0
17.691 57.223999 -3.5020001 0
17.544001 57.386002 -3.5090001 0
17.290001 57.198002 -3.493 0
17.091 57.187 -3.4890001 0
16.819 56.928001 -3.4690001 0
16.625 56.597 -3.4460001 0
16.516001 56.888 -3.461 0
16.297001 56.799999 -3.4519999 0
16.077999 56.707001 -3.4430001 0
15.857 56.605 -3.4330001 0
15.64 56.509998 -3.424 0
15.294 55.945 -3.385 0
15.296 56.299999 -3.4059999 0
15.067 56.153 -3.3940001 0
14.857 56.070999 -3.385 0
14.654 56.016998 -3.3789999 0
14.444 55.931 -3.3699999 0
14.137 55.462002 -3.3380001 0
14.026 55.756001 -3.3540001 0
13.819 55.671001 -3.345 0
13.596 55.143002 -3.3099999 0
13.49 55.462002 -3.3280001 0
13.284 55.370998 -3.319 0
13.078 55.276001 -3.3110001 0
12.869 55.167 -3.3010001 0
12.674 55.112 -3.2950001 0
12.473 55.030998 -3.2880001 0
12.352 54.895 -3.2780001 0
12.167 54.877998 -3.2739999 0
11.71 53.612 -3.1919999 0
11.799 54.845001 -3.267 0
11.308 53.376999 -3.1719999 0
11.116 53.293999 -3.165 0
10.923 53.205002 -3.1570001 0
10.813 53.092999 -3.1489999 0
10.621 52.998001 -3.141 0
10.432 52.918999 -3.1340001 0
10.245 52.844002 -3.1270001 0
10.06 52.776001 -3.1210001 0
9.8730001 52.693001 -3.1129999 0
9.6879997 52.619999 -3.1070001 0.1
8.1289997 44.523998 -2.5969999 0
9.3970003 52.424999 -3.092 0
9.2150002 52.354 -3.085 0
9.0299997 52.266998 -3.0780001 0
8.849 52.193001 -3.072 0
8.6689997 52.122002 -3.066 0
8.4870005 52.037998 -3.059 0
8.3889999 51.952999 -3.052 0
8.2110004 51.886002 -3.0469999 0
8.0349998 51.827 -3.0409999 0
7.855 51.737999 -3.0339999 0
7.6799998 51.674999 -3.029 0
7.5040002 51.610001 -3.023 0
7.3280001 51.535 -3.017 0
7.1539998 51.470001 -3.0120001 0
7.0609999 51.395 -3.006 0
6.8870001 51.323002 -3 0
6.7150002 51.257999 -2.9949999 0
6.54 51.174 -2.9879999 0
6.368 51.101002 -2.983 0
6.1950002 51.018002 -2.9760001 0
6.0229998 50.939999 -2.97 0
5.934 50.866001 -2.9649999 0
5.7620001 50.780998 -2.9590001 0
5.592 50.700001 -2.9519999 0
5.421 50.612 -2.9460001 0
5.2529998 50.536999 -2.9400001 0
5.0840001 50.456001 -2.934 0
4.915 50.367001 -2.928 0
4.8280001 50.285 -2.9219999 0
4.6609998 50.202 -2.9159999 0
4.4959998 50.143002 -2.911 0
4.3309999 50.063999 -2.9059999 0
4.164 49.965 -2.8989999 0
4.0019999 49.907001 -2.8940001 0
3.8369999 49.823002 -2.888 0
3.7539999 49.759998 -2.8840001 0
3.5899999 49.669998 -2.878 0
3.431 49.626999 -2.8740001 0
3.27 49.568001 -2.8699999 0
3.109 49.495998 -2.865 0
2.9489999 49.425999 -2.8599999 0
2.789 49.342999 -2.8540001 0
2.6289999 49.265999 -2.849 0
2.5469999 49.188 -2.8440001 0
2.3900001 49.127998 -2.8399999 0
2.2309999 49.035999 -2.8340001 0
2.075 48.993 -2.8299999 0
1.9170001 48.909 -2.825 0
1.761 48.855 -2.8210001 0
1.605 48.755001 -2.8150001 0
1.527 48.715 -2.812 0
1.3710001 48.625999 -2.806 0
1.216 48.546001 -2.8010001 0.07
0.442 22.819 -1.209 0.25
0.36899999 22.738001 -1.204 0.34999999
0.29699999 22.693001 -1.201 0.37
0.26100001 22.68 -1.2 0.31
0.19 22.694 -1.201 0.38999999
0.119 22.705 -1.202 0.34999999
0.048 22.740999 -1.204 0.31999999
-0.024 22.811001 -1.2079999 0.46000001
-0.097999997 23.174 -1.2309999 0
-0.37900001 47.801998 -2.7539999 0
-0.454 47.741001 -2.75 0
-0.60299999 47.678001 -2.747 0
-0.75199997 47.627998 -2.744 0
-0.92900002 49.040001 -2.8310001 0
-1.082 49.013 -2.8299999 0
-1.23 48.745998 -2.813 0
-1.38 48.647999 -2.8080001 0
-1.457 48.647999 -2.8080001 0
-1.6059999 48.555 -2.802 0
-1.757 48.504002 -2.8 0.079999998
-1.9069999 48.439999 -2.796 0.079999998
-2.056 48.363998 -2.7920001 0.090000004
-2.207 48.318001 -2.789 0.14
-2.355 48.241001 -2.7850001 0.1
-2.5039999 48.182999 -2.7820001 0.16
-2.576 48.118 -2.7780001 0
-2.7219999 48.014 -2.7720001 0.12
-2.8710001 47.974998 -2.77 0.23
-3.02 47.933998 -2.7679999 0.25999999
-3.1659999 47.860001 -2.7639999 0.25
-3.313 47.801998 -2.7609999 0.27000001
-3.4590001 47.737999 -2.7579999 0.19
-3.53 47.679001 -2.7550001 0.18000001
-3.6760001 47.613998 -2.7509999 0.18000001
-3.819 47.529999 -2.747 0.12
-3.9630001 47.444 -2.7420001 0.15000001
-4.1100001 47.411999 -2.7409999 0.27000001
-4.2540002 47.345001 -2.7379999 0.25999999
-4.3979998 47.278 -2.734 0.19
-4.4679999 47.235001 -2.7320001 0.16
-4.612 47.173 -2.7290001 0.31999999
-4.7550001 47.103001 -2.7260001 0.18000001
-4.8969998 47.034 -2.7219999 0.18000001
-5.039 46.969002 -2.7190001 0.12
-5.1820002 46.907001 -2.7160001 0.17
-5.3239999 46.845001 -2.714 0.12
-5.3920002 46.791 -2.711 0.17
-5.5339999 46.728001 -2.7079999 0.28
-5.6760001 46.673 -2.7060001 0.19
-5.8150001 46.595001 -2.7019999 0.18000001
-5.9559999 46.530998 -2.6989999 0.12
-6.0960002 46.466999 -2.6960001 0.17
-6.2379999 46.416 -2.694 0.28999999
-6.3049998 46.363998 -2.6919999 0.18000001
-6.2750001 45.092999 -2.6129999 0.23
-6.585 46.247002 -2.687 0.2
-6.737 46.269001 -2.6889999 0.14
-6.8850002 46.265999 -2.691 0.36000001
-7.0289998 46.237999 -2.6900001 0.19
-7.1700001 46.186001 -2.688 0.36000001
-7.2319999 46.108002 -2.684 0.19
-7.3709998 46.050999 -2.6819999 0.37
-7.5079999 45.979 -2.6789999 0.19
-7.652 45.957001 -2.6789999 0.36000001
-7.789 45.887001 -2.6760001 0.18000001
-7.901 45.675999 -2.665 0.37
-8.0279999 45.560001 -2.6589999 0.25
-8.1680002 45.514999 -2.658 0.2
-8.2329998 45.469002 -2.6559999 0.41
-8.368 45.400002 -2.6530001 0.25
-8.5030003 45.334 -2.6500001 0.2
-8.6420002 45.289001 -2.6489999 0.41
-8.7790003 45.236 -2.648 0.23
-8.9119997 45.164001 -2.645 0.20999999
-9.0489998 45.108002 -2.6429999 0.38999999
-9.1110001 45.053001 -2.6400001 0.23
-9.2469997 44.995998 -2.6389999 0.2
-9.3859997 44.952999 -2.638 0.41999999
-9.5190001 44.884998 -2.635 0.25
-9.6540003 44.827 -2.6340001 0.23
-9.7880001 44.769001 -2.632 0.18000001
-9.9209995 44.701 -2.6300001 0.41999999
-9.9840002 44.657001 -2.628 0.25
-10.118 44.596001 -2.6259999 0.25
-10.253 44.540001 -2.6240001 0.25
-10.386 44.480999 -2.6229999 0.25999999
-10.519 44.418999 -2.6210001 0.27000001
-10.655 44.369999 -2.6199999 0.23999999
-10.78 44.279999 -2.6159999 0.34
-10.847 44.249001 -2.615 0.2
-10.984 44.209 -2.615 0.20999999
-11.115 44.144001 -2.6129999 0.41999999
-11.25 44.095001 -2.612 0.25
-11.379 44.021 -2.6099999 0.2
-11.513 43.969002 -2.609 0.41999999
-11.646 43.914001 -2.608 0.23999999
-11.707 43.866001 -2.6059999 0.2
-11.841 43.816002 -2.605 0.40000001
-11.972 43.754002 -2.6029999 0.2
-12.1 43.681 -2.6010001 0.36000001
-12.235 43.634998 -2.5999999 0.22
-12.371 43.592999 -2.5999999 0.23
-12.498 43.519001 -2.598 0.2
-12.63 43.466 -2.5969999 0.22
-12.699 43.445999 -2.5969999 0.2
-12.824 43.368 -2.595 0.22
-12.95 43.294998 -2.5929999 0.19
-13.085 43.251999 -2.592 0.20999999
-13.212 43.18 -2.5899999 0.19
-13.345 43.129002 -2.5899999 0.20999999
-13.476 43.075001 -2.589 0.19
-13.534 43.023998 -2.5869999 0.20999999
-13.663 42.959999 -2.586 0.25999999
-13.833 43.027 -2.5929999 0.18000001
-13.98 43.02 -2.595 0.13
-14.111 42.962002 -2.5940001 0.16
-14.248 42.924999 -2.595 0.12
-14.367 42.833 -2.592 0.16
-14.434 42.807999 -2.592 0.12
-14.566 42.757 -2.5910001 0.17
-14.697 42.702 -2.5910001 0.28999999
-14.826 42.639999 -2.5899999 0.27000001
-14.955 42.577999 -2.589 0.19
-15.083 42.515999 -2.5880001 0.18000001
-15.212 42.455002 -2.5869999 0.28999999
-15.343 42.402 -2.5869999 0.19
-15.402 42.356998 -2.585 0.18000001
-15.533 42.303001 -2.585 0.20999999
-15.667 42.257999 -2.585 0.18000001
-15.792 42.188 -2.5840001 0.12
-8.8760004 23.518999 -1.352 0.12
-8.9069996 23.379 -1.345 0.25999999
-8.967 23.316 -1.3430001 0.31999999
-8.9899998 23.266001 -1.34 0.25
-9.0769997 23.273001 -1.3430001 0.28999999
-9.1549997 23.257999 -1.3430001 0.28999999
-9.2559996 23.299 -1.348 0.41
-16.753 41.733002 -2.579 0.2
-16.877001 41.661999 -2.5780001 0.25999999
-17.003 41.598 -2.5769999 0.28999999
-17.072001 41.580002 -2.5780001 0.31
-17.205 41.532001 -2.5780001 0.23
-17.316999 41.432999 -2.575 0.38999999
-17.445999 41.375 -2.575 0.64999998
-17.580999 41.333 -2.576 0.54000002
-17.705 41.264999 -2.575 0.28
-17.766001 41.049999 -2.5639999 0.28
-17.83 41.021999 -2.5639999 0.34
-17.959 40.965 -2.5639999 0.44
-18.099001 40.933998 -2.566 0.31
-18.214001 40.848 -2.5639999 0.5
-18.346001 40.798 -2.5639999 0.31999999
-18.483999 40.762001 -2.566 0.34
-18.604 40.687 -2.5650001 0.73000002
-18.674 40.671001 -2.566 0.66000003
-18.795 40.597 -2.5650001 0.81
-18.922001 40.535999 -2.5639999 0.36000001
-19.049999 40.479 -2.5650001 0.79000002
-19.179001 40.424 -2.5650001 0.81999999
-19.299999 40.351002 -2.5639999 0.81999999
-19.417999 40.271999 -2.563 0.63
-11.215 23.099001 -1.386 0.28
-11.217 23.011 -1.381 0.36000001
-11.277 22.951 -1.3789999 0.30000001
-11.348 22.913 -1.3789999 0.33000001
-11.427 22.892 -1.38 0.33000001
-11.532 22.922001 -1.385 0.20999999
-20.274 39.942001 -2.5680001 0.28999999
-20.382999 39.844002 -2.566 0.56999999
-20.445999 39.813999 -2.566 0.41
-20.572001 39.750999 -2.566 0.18000001
-20.712999 39.717999 -2.5680001 0.50999999
-20.910999 39.792999 -2.5780001 0.23
-21.044001 39.741001 -2.579 0.19
-21.167 39.671001 -2.579 0.38999999
-21.296 39.612999 -2.579 0.23999999
-21.371 39.604 -2.5810001 0.20999999
-21.490999 39.528 -2.5799999 0.37
-21.625 39.478001 -2.582 0.19
-21.753 39.417999 -2.582 0.37
-21.881001 39.356998 -2.5829999 0.20999999
-22.003 39.284 -2.582 0.31999999
-22.138 39.236 -2.5840001 0.19
-22.198 39.199001 -2.5840001 0.31999999
-22.256001 39.014999 -2.576 0.23
-22.367001 38.924 -2.5739999 0.20999999
-22.493999 38.862 -2.575 0.38999999
-22.621 38.799999 -2.575 0.22
-22.750999 38.743 -2.576 0
-18.253 30.872 -2.016 0.13
-23.007 38.620998 -2.5780001 0.25
-23.08 38.605999 -2.579 0.28
-23.193001 38.519001 -2.579 0.30000001
-23.329 38.472 -2.5799999 0.27000001
-23.454 38.404999 -2.5810001 0.2
-23.587999 38.353001 -2.582 0.41
-23.714001 38.287998 -2.5829999 0.22
-23.847 38.233002 -2.585 0.19
-23.915001 38.209 -2.586 0.40000001
-24.044001 38.146999 -2.5869999 0.25
-24.177999 38.095001 -2.5880001 0.25
-24.299 38.021 -2.5880001 0.27000001
-24.419001 37.945999 -2.589 0.2
-24.552 37.889 -2.5899999 0.47999999
-24.747999 37.93 -2.599 0.2
-24.837999 37.938 -2.602 0.20999999
-24.969999 37.880001 -2.6040001 0.31
-25.098 37.814999 -2.605 0.28
-25.228001 37.751999 -2.6059999 0.34999999
-25.358 37.688999 -2.6070001 0.30000001
-25.488001 37.627998 -2.609 0.36000001
-25.614 37.558998 -2.609 0.33000001
-25.693001 37.548 -2.612 0.33000001
-25.819 37.479 -2.612 0.27000001
-25.952999 37.421001 -2.6140001 0.38
-26.084 37.359001 -2.6159999 0.28999999
-26.209999 37.289001 -2.6170001 0.28999999
-26.351999 37.241001 -2.619 0.37
-26.475 37.167999 -2.6199999 0.31999999
-26.549 37.146999 -2.622 0.33000001
-26.679001 37.083 -2.6229999 0.33000001
-26.813999 37.025002 -2.625 0.28999999
-26.941 36.955002 -2.6259999 0.22
-27.079 36.898998 -2.628 0.47999999
-20.159 27.302 -1.897 0.18000001
-20.211 27.193001 -1.893 0.25
-20.308001 27.143999 -1.8940001 0.30000001
-20.368999 27.138 -1.896 0.38999999
-20.471001 27.096001 -1.898 0.38999999
-20.572001 27.052 -1.9 0
-21.052999 27.504 -1.9400001 0.12
-20.938 27 -1.911 0
-21.122 27.062 -1.921 0.07
-28.313 36.144001 -2.6370001 0.14
-28.441999 36.075001 -2.6389999 0
-28.575001 36.009998 -2.641 0
-28.721001 35.960999 -2.6440001 0.14
-28.851999 35.894001 -2.6459999 0.23999999
-28.988001 35.831001 -2.648 0.18000001
-29.118999 35.763 -2.6500001 0.38
-29.202999 35.750999 -2.6530001 0.27000001
-29.334 35.681999 -2.655 0.23999999
-29.466 35.615002 -2.6570001 0.27000001
-29.601 35.549 -2.6589999 0.23999999
-29.74 35.487999 -2.661 0.23999999
-29.872999 35.421001 -2.6630001 0.23999999
-30.000999 35.347 -2.665 0.1
-30.086 35.334 -2.668 0.16
-30.200001 35.243 -2.668 0.090000004
-30.348 35.191002 -2.6719999 0.16
-30.489 35.131001 -2.675 0.090000004
-30.625999 35.066002 -2.677 0
-30.747 34.981998 -2.678 0
-30.893999 34.926998 -2.6819999 0.12
-31.040001 34.870998 -2.6849999 0.28999999
-31.115999 34.846001 -2.687 0.19
-31.261 34.786999 -2.6900001 0.18000001
-31.393999 34.715 -2.6919999 0.30000001
-31.523001 34.639 -2.694 0.27000001
-31.673 34.584999 -2.698 0.25999999
-31.813999 34.521 -2.701 0.11
-31.959 34.459999 -2.704 0
-32.044998 34.443001 -2.707 0
-22.346001 23.879 -1.8200001 0.12
-22.288 23.667999 -1.808 0.27000001
-22.268999 23.499001 -1.8 0.31
-22.09 23.165001 -1.777 0.28999999
-22.129999 23.061001 -1.774 0.31999999
-22.205999 22.996 -1.775 0.25999999
-22.238001 22.957001 -1.774 0.22
-22.395 22.974001 -1.7819999 0.28999999
-34.790001 35.445 -2.869 0.20999999
-34.723999 35.157001 -2.8540001 0.23
-34.791 35.002998 -2.8499999 0.20999999
-34.893002 34.887001 -2.849 0.2
-35.007 34.780998 -2.8499999 0.36000001
-34.931 34.597 -2.8380001 0.19
-35.362999 34.805 -2.8659999 0
-35.395 34.618 -2.8599999 0.12
-35.465 34.469002 -2.8559999 0
-35.816002 34.591999 -2.8770001 0.12
-35.626999 34.195 -2.852 0.16
-35.691002 34.041 -2.848 0.2
-35.894001 34.02 -2.8559999 0.12
-35.875999 33.896 -2.8499999 0.15000001
-36.134998 33.926998 -2.8629999 0.28999999
-36.247002 33.818001 -2.8640001 0.11
-36.202999 33.564999 -2.8510001 0
-36.283001 33.428001 -2.849 0.13
-36.363998 33.292 -2.8469999 0.20999999
-36.265999 32.993999 -2.8299999 0.27000001
-36.457001 33.063 -2.842 0.11
-36.570999 32.957001 -2.842 0.15000001
-36.743 32.903999 -2.848 0.22
-36.813 32.758999 -2.845 0.25
-36.91 32.638 -2.845 0.25
-37 32.511002 -2.8440001 0.11
-37.301998 32.569 -2.8599999 0
-37.362999 32.518002 -2.8610001 0.12
-37.474998 32.41 -2.862 0.090000004
-37.745998 32.438 -2.8759999 0.17
-37.890999 32.355 -2.8789999 0.28
-37.971001 32.217999 -2.878 0.11
-38.327999 32.314999 -2.898 0
-38.783001 32.490002 -2.927 0.13
-39.129002 32.674 -2.951 0.23
-39.299 32.606998 -2.9560001 0.25999999
-39.449001 32.522999 -2.96 0.1
-39.699001 32.52 -2.9719999 0
-40.071999 32.616001 -2.993 0.11
-40.337002 32.622002 -3.006 0.090000004
-40.584 32.611 -3.0179999 0.14
-40.950001 32.799 -3.043 0
-41.227001 32.807999 -3.056 0
-41.441002 32.765999 -3.0650001 0.07
-41.668999 32.734001 -3.075 0.14
-41.950001 32.742001 -3.089 0.1
-42.325001 32.821999 -3.1099999 0.079999998
-42.709999 32.904999 -3.132 0
-42.897999 32.943001 -3.1429999 0
-43.292999 33.029999 -3.1659999 0
-43.798 33.198002 -3.197 0
-44.111 33.216999 -3.2130001 0
-44.433998 33.242001 -3.23 0
-44.903 33.374001 -3.2579999 0.07
-45.209999 33.382 -3.2739999 0.079999998
-45.493999 33.370998 -3.2869999 0.15000001
-45.745998 33.445 -3.303 0.1
-46.076 33.464001 -3.3199999 0.090000004
-46.335999 33.431 -3.332 0
-46.758999 33.513 -3.3559999 0.07
-47.133999 33.557999 -3.3759999 0
-47.422001 33.539001 -3.3900001 0
-47.723 33.528 -3.405 0
-47.825001 33.487 -3.4089999 0
-46.571999 31.32 -3.2690001 0
-46.546001 31.195999 -3.263 0
-46.685001 31.077999 -3.266 0
-46.842999 30.969999 -3.2709999 0
-46.972 30.844 -3.273 0
-44.859001 28.757 -3.0929999 0
-44.946999 28.615 -3.0929999 0
-45.154999 28.548 -3.102 0
-45.451 28.535999 -3.1170001 0
-45.537998 28.392 -3.1170001 0
-45.733002 28.313999 -3.1240001 0
-45.928001 28.236 -3.132 0
-46.019001 28.191 -3.135 0
-46.172001 28.086 -3.1400001 0
-46.374001 28.01 -3.148 0
-46.604 27.948999 -3.1589999 0
-46.835999 27.889 -3.1689999 0
-47.056999 27.82 -3.1789999 0
-47.292999 27.759001 -3.1889999 0
-47.471001 27.764 -3.1989999 0
-47.715 27.705 -3.21 0
-47.896999 27.610001 -3.217 0
-48.066002 27.507 -3.223 0
-48.098999 27.325001 -3.2190001 0
-26.493 13.876 -1.647 0
-46.058998 23.736 -3.0020001 0
-46.035999 23.541 -2.9960001 0
-45.98 23.33 -2.987 0
-45.925999 23.122 -2.9779999 0
-27.834 13.97 -1.724 0
-45.764999 22.771 -2.9590001 0
-45.653 22.537001 -2.947 0
-45.702 22.382999 -2.9449999 0
-29.448999 14.319 -1.823 0
-30.091 14.514 -1.864 0
-30.285 14.49 -1.874 0
-30.111 14.349 -1.8609999 0
-30.723 14.521 -1.899 0
-30.667 14.377 -1.892 0
-30.941999 14.388 -1.908 0
-31.285999 14.428 -1.928 0
-31.162001 14.253 -1.9170001 0.07
-31.247 14.173 -1.92 0
-31.254999 14.117 -1.919 0.1
-31.403 14.065 -1.926 0.16
-31.516001 13.997 -1.9299999 0.16
-32.036999 14.108 -1.9630001 0.16
-32.016998 13.979 -1.9579999 0.16
-32.140999 13.913 -1.964 0.23
-32.118999 13.784 -1.959 0.17
-32.519001 13.895 -1.985 0.16
-32.965 13.963 -2.0120001 0.2
-33.015999 13.862 -2.0120001 0.23999999
-33.275002 13.848 -2.027 0.2
-32.945999 13.59 -2.0020001 0.18000001
-33.289001 13.609 -2.0220001 0.20999999
-33.362999 13.517 -2.0239999 0.18000001
-33.856998 13.655 -2.0550001 0.14
-34.431999 13.761 -2.0910001 0.38
-34.641998 13.719 -2.102 0.2
-34.745998 13.634 -2.1059999 0.23999999
-34.780998 13.522 -2.1059999 0.20999999
-35.042999 13.497 -2.1199999 0.20999999
-35.123001 13.401 -2.1229999 0.17
-35.134998 13.279 -2.1210001 0.31
-35.396999 13.315 -2.1370001 0.18000001
-35.731998 13.313 -2.1559999 0.23
-35.991001 13.28 -2.1700001 0.25999999
-36.542999 13.353 -2.204 0.16
-36.727001 13.29 -2.2130001 0.36000001
-36.972 13.247 -2.227 0.22
-37.182999 13.191 -2.2379999 0.25
-37.318001 13.173 -2.2449999 0.2
-37.674 13.165 -2.266 0.20999999
-37.957001 13.13 -2.2820001 0
-38.244999 13.095 -2.2980001 0
-38.400002 13.013 -2.3050001 0
-38.755001 12.998 -2.326 0
-39.138 12.99 -2.348 0
-39.477001 13.033 -2.369 0
-39.839001 13.014 -2.3900001 0
-40.021999 12.934 -2.3989999 0
-38.382999 12.273 -2.29 0
-38.785 12.267 -2.3139999 0
-39.226002 12.27 -2.3399999 0
-39.667999 12.272 -2.3659999 0
-40.043999 12.319 -2.3889999 0
-40.417 12.295 -2.4100001 0
-40.817001 12.276 -2.434 0
-41.009998 12.194 -2.444 0
-41.393002 12.166 -2.4660001 0
-41.414001 12.031 -2.4649999 0
-41.376999 11.879 -2.46 0
-37.872002 10.811 -2.234 0
-38.264 10.793 -2.256 0
-38.715 10.789 -2.283 0
-39.201 10.791 -2.312 0
-39.66 10.783 -2.3399999 0
-37.699001 9.9980001 -2.21 0
-37.637001 9.9180002 -2.2049999 0
-37.881001 9.8549995 -2.2179999 0
-38.278999 9.8299999 -2.2420001 0
-38.717999 9.8129997 -2.2679999 0
-39.214001 9.8070002 -2.2980001 0
-39.68 9.7910004 -2.325 0
-37.854 9.2159996 -2.207 0
-38.338001 9.2700005 -2.237 0
-38.886002 9.2720003 -2.27 0
-39.384998 9.2600002 -2.3 0
-29.768999 6.9070001 -1.688 0
-28.804001 6.5890002 -1.625 0
-30.181999 6.803 -1.711 0
-28.868 6.4130001 -1.627 0
-29.003 6.3470001 -1.6339999 0.07
-28.948999 6.2880001 -1.63 0.14
-28.92 6.1869998 -1.627 0.12
-28.878 6.0830002 -1.623 0.14
-30.809 6.3870001 -1.744 0.1
-29.186001 5.9559999 -1.64 0.14
-30.635 6.151 -1.73 0.18000001
-30.408001 6.006 -1.715 0
-28.716999 5.6259999 -1.607 0
-29.271 5.6389999 -1.641 0
-31.523001 5.9679999 -1.7819999 0.12
-31.580999 5.8759999 -1.784 0.12
-32.173 5.882 -1.8200001 0.11
-31.976999 5.7420001 -1.807 0.13
-32.000999 5.6430001 -1.807 0.13
-32.058998 5.6009998 -1.8099999 0
-32.071999 5.5 -1.8099999 0
-32.417999 5.454 -1.831 0.1
-31.645 5.2220001 -1.781 0.090000004
-31.565001 5.1069999 -1.775 0.17
-31.542999 5.0019999 -1.773 0
-33.396 5.1869998 -1.888 0
-33.203999 5.1040001 -1.875 0.079999998
-33.480999 5.039 -1.892 0.15000001
-33.866001 4.9879999 -1.915 0.1
-34.252998 4.934 -1.938 0.14
-35.181 4.9549999 -1.995 0.28
-35.844002 4.9330001 -2.0350001 0.16
-36.341999 4.8850002 -2.0650001 0
-36.730999 4.8189998 -2.089 0
-37.346001 4.8400002 -2.1270001 0
-38.085999 4.8140001 -2.1719999 0
-38.915001 4.7940001 -2.223 0.13
-39.368 4.724 -2.25 0.11
-39.646999 4.631 -2.266 0.31999999
-39.84 4.526 -2.277 0
-39.610001 4.3740001 -2.2620001 0
-39.570999 4.3070002 -2.2590001 0
-39.584 4.1830001 -2.2590001 0
-39.603001 4.059 -2.26 0
-39.602001 3.9330001 -2.2590001 0
-39.588001 3.806 -2.257 0
-39.591999 3.681 -2.257 0
-39.558998 3.553 -2.2539999 0
-39.525002 3.487 -2.2520001 0
-39.515999 3.3610001 -2.25 0
-39.465 3.2320001 -2.247 0
-39.460999 3.1070001 -2.2460001 0
-39.450001 2.9820001 -2.2449999 0
-39.386002 2.852 -2.24 0
-39.356998 2.7260001 -2.2379999 0
-39.370998 2.665 -2.2379999 0
-39.362999 2.54 -2.237 0
-39.339001 2.415 -2.2349999 0
-39.345001 2.2909999 -2.2349999 0
-39.301998 2.164 -2.2320001 0
-39.304001 2.0409999 -2.2320001 0
-39.266998 1.915 -2.2290001 0
-39.228001 1.852 -2.2260001 0
-39.264999 1.73 -2.2279999 0
-39.250999 1.6059999 -2.227 0
-39.266998 1.483 -2.2279999 0.039999999
-39.397999 1.24 -2.2360001 0
-39.296001 1.113 -2.2290001 0
-39.291 0.98900002 -2.2279999 0
-39.335999 0.92900002 -2.2309999 0
-39.365002 0.80599999 -2.233 0
-39.417 0.68300003 -2.2360001 0
-39.404999 0.55900002 -2.2349999 0
-39.404999 0.435 -2.2349999 0
-39.416 0.31099999 -2.2360001 0
-39.410999 0.18700001 -2.2349999 0
-39.423 0.125 -2.2360001 0
-39.418999 0.0020000001 -2.2360001 0
-39.435001 -0.122 -2.237 0
-39.452 -0.24600001 -2.2379999 0
-39.451 -0.37 -2.2379999 0
-39.48 -0.495 -2.24 0
-39.472 -0.61900002 -2.2390001 0
-39.473 -0.68099999 -2.2390001 0
-39.511002 -0.80500001 -2.2420001 0
-39.543999 -0.93000001 -2.244 0
-39.564999 -1.0549999 -2.2460001 0
-39.577 -1.1799999 -2.2460001 0
-39.577 -1.3049999 -2.247 0
-39.581001 -1.429 -2.247 0
-39.620998 -1.493 -2.25 0
-39.612 -1.617 -2.25 0
-39.605999 -1.742 -2.25 0
-39.605 -1.8660001 -2.25 0
-39.612999 -1.9910001 -2.2509999 0
-39.560001 -2.2379999 -2.2479999 0.14
-39.584 -2.302 -2.25 0
-39.389 -2.415 -2.2379999 0
-39.223999 -2.5280001 -2.2290001 0.090000004
-39.198002 -2.6500001 -2.227 0.20999999
-39.221001 -2.7750001 -2.2290001 0.19
-39.264 -2.902 -2.233 0.20999999
-39.341999 -3.033 -2.2379999 0.25
-39.373001 -3.0969999 -2.24 0.28
-39.355999 -3.22 -2.24 0.28999999
-38.415001 -3.325 -2.1819999 0
-38.393002 -3.4449999 -2.1819999 0
-38.389999 -3.566 -2.1819999 0
-38.388 -3.688 -2.1830001 0
-38.377998 -3.8080001 -2.1830001 0
-38.372002 -3.9289999 -2.1830001 0
-38.363998 -4.0500002 -2.184 0
-38.368999 -4.112 -2.184 0
-38.375999 -4.2350001 -2.1860001 0
-38.386002 -4.3579998 -2.187 0
-38.41 -4.4829998 -2.1889999 0
-38.423 -4.6069999 -2.191 0
-38.445999 -4.7319999 -2.1930001 0
-38.452999 -4.8559999 -2.1949999 0
-38.525002 -4.9260001 -2.2 0
-38.556 -5.0539999 -2.2030001 0
-38.562 -5.178 -2.204 0
-38.581001 -5.3039999 -2.2060001 0
-38.605999 -5.4310002 -2.2090001 0
-38.539001 -5.5450001 -2.2060001 0
-38.567001 -5.6729999 -2.2090001 0
-38.556 -5.7329998 -2.2079999 0
-38.556 -5.8569999 -2.21 0
-38.573002 -5.9829998 -2.2119999 0
-38.626999 -6.1160002 -2.2160001 0
-38.631001 -6.2410002 -2.2179999 0
-38.661999 -6.3709998 -2.221 0
-38.638 -6.4920001 -2.221 0
-38.633999 -6.5539999 -2.221 0
-38.650002 -6.6810002 -2.224 0
-38.634998 -6.8039999 -2.224 0
-38.629002 -6.928 -2.2249999 0
-38.615002 -7.0510001 -2.2249999 0
-38.630001 -7.1789999 -2.2279999 0
-38.632999 -7.3049998 -2.2290001 0
-38.706001 -7.382 -2.2349999 0
-38.672001 -7.5019999 -2.234 0
-38.692001 -7.632 -2.237 0
-38.702999 -7.7600002 -2.2390001 0
-38.715 -7.8889999 -2.2409999 0
-38.758999 -8.0249996 -2.2460001 0
-38.799999 -8.1610003 -2.25 0
-38.834 -8.2320004 -2.253 0
-38.817001 -8.3559999 -2.253 0
-38.824001 -8.4849997 -2.256 0
-38.860001 -8.6210003 -2.2590001 0
-38.876999 -8.7530003 -2.2620001 0
-38.922001 -8.8920002 -2.267 0
-38.936001 -9.0240002 -2.27 0
-38.950001 -9.1560001 -2.2720001 0
-38.980999 -9.2279997 -2.2750001 0
-39.006001 -9.3629999 -2.279 0
-38.952999 -9.4799995 -2.277 0
-38.938 -9.6059999 -2.2780001 0
-38.919998 -9.7309999 -2.279 0
-38.924 -9.8629999 -2.2809999 0
-38.914001 -9.9899998 -2.2820001 0
-38.937 -10.061 -2.2850001 0
-38.917 -10.187 -2.286 0
-38.926998 -10.32 -2.2880001 0
-38.929001 -10.452 -2.2909999 0
-38.907001 -10.577 -2.2909999 0
-38.922001 -10.713 -2.2939999 0
-38.923 -10.845 -2.2969999 0
-38.944 -10.916 -2.299 0
-38.929001 -11.044 -2.3 0
-38.923 -11.175 -2.302 0
-38.91 -11.304 -2.3039999 0
-38.928001 -11.442 -2.3069999 0
-38.902 -11.567 -2.3080001 0
-38.917 -11.704 -2.3110001 0
-32.382 -9.79 -1.89 0
-38.951 -11.915 -2.3169999 0
-38.963001 -12.053 -2.3199999 0
-38.955002 -12.185 -2.322 0
-38.957001 -12.32 -2.325 0
-38.984001 -12.463 -2.329 0
-38.988998 -12.6 -2.332 0
-39.007 -12.674 -2.3340001 0
-39.035 -12.819 -2.339 0
-39.056999 -12.962 -2.3429999 0
-28.223 -9.4569998 -1.6390001 0
-28.853001 -9.7700005 -1.682 0.12
-28.862 -9.8739996 -1.684 0.22
-28.514 -9.8549995 -1.663 0.25999999
-28.468 -9.8889999 -1.6619999 0.23999999
-28.438999 -9.9790001 -1.6619999 0.36000001
-28.323 -10.038 -1.656 0.34
-28.315001 -10.136 -1.658 0.33000001
-28.268 -10.22 -1.6569999 0.31999999
-28.261999 -10.318 -1.658 0.31
-28.167999 -10.384 -1.654 0.36000001
-28.193001 -10.494 -1.658 0.34999999
-28.167 -10.535 -1.658 0.31
-28.138 -10.625 -1.658 0.28
-28.226 -10.759 -1.666 0.36000001
-28.150999 -10.832 -1.663 0.31
-28.257999 -10.976 -1.6720001 0.17
-27.938999 -10.953 -1.654 0
-28.486 -11.219 -1.691 0
-32.605 -12.964 -1.9680001 0
-28.326 -11.362 -1.6849999 0.07
-28.4 -11.495 -1.692 0.18000001
-33.414001 -13.653 -2.03 0
-33.622002 -13.861 -2.0469999 0.11
-21.584999 -8.9680004 -1.243 0.23
-33.842999 -14.202 -2.0680001 0.17
-34.214001 -14.421 -2.0940001 0
-34.103001 -14.501 -2.0899999 0.12
-34.130001 -14.639 -2.095 0.20999999
-34.388 -14.878 -2.115 0.17
-34.504002 -15.057 -2.1259999 0.2
-34.669998 -15.26 -2.1400001 0.12
-24.6 -10.911 -1.462 0.090000004
-35.098999 -15.647 -2.174 0.19
-35.199001 -15.824 -2.1849999 0.11
-35.301998 -16.004 -2.1949999 0.16
-35.275002 -16.125999 -2.1960001 0.12
-35.348999 -16.294001 -2.2049999 0
-35.805 -16.641001 -2.24 0
-35.969002 -16.855 -2.2539999 0.11
-36.279999 -17.070999 -2.277 0.28999999
-36.228001 -17.186001 -2.2780001 0.2
-36.212002 -17.318001 -2.28 0.18000001
-36.193001 -17.448999 -2.283 0.22
-36.325001 -17.653 -2.296 0.090000004
-36.668999 -17.962999 -2.323 0.16
-36.778999 -18.160999 -2.335 0.22
-36.806 -18.246 -2.3380001 0.18000001
-18.979 -9.4689999 -1.109 0.23
-18.941999 -9.5249996 -1.109 0.14
-19.165001 -9.7130003 -1.126 0.38999999
-18.378 -9.4589996 -1.076 0.31
-18.327 -9.5050001 -1.074 0.34
-18.257 -9.5050001 -1.071 0.28999999
-18.287001 -9.5939999 -1.075 0.37
-18.158001 -9.599 -1.068 0.38
-18.135 -9.6599998 -1.068 0.50999999
-18.125999 -9.7279997 -1.0700001 0.38999999
-18.235001 -9.8610001 -1.08 0.23999999
-17.389999 -9.4729996 -1.022 0.25999999
-17.17 -9.3879995 -1.008 0.38999999
-17.396999 -9.5839996 -1.026 0.44999999
-17.194 -9.5430002 -1.0140001 0.23
-17.059999 -9.5380001 -1.006 0.5
-17.231001 -9.7060003 -1.021 0.33000001
-17.254999 -9.79 -1.025 0.41999999
-17.231001 -9.8479996 -1.025 0.31
-17.028999 -9.8039999 -1.013 0.41
-17.216999 -9.948 -1.027 0.31999999
-17.32 -10.081 -1.0369999 0.54000002
-17.479 -10.248 -1.051 0.28
-18.07 -10.672 -1.096 0.23
-17.608 -10.473 -1.0650001 0.36000001
-17.781 -10.651 -1.079 0.28999999
-17.872 -10.783 -1.0880001 0.25999999
-18.315001 -11.091 -1.122 0.25999999
-17.372999 -10.593 -1.056 0.38
-17.209 -10.567 -1.0470001 0.23
-16.171 -9.9980001 -0.97299999 0.31999999
-16.184999 -10.077 -0.977 0.47
-16.049999 -10.063 -0.96899998 0.20999999
-18.076 -11.417 -1.12 0.38
-15.145 -9.5939999 -0.90600002 0.18000001
-15.892 -10.139 -0.963 0.5
-15.883 -10.204 -0.96499997 0.37
-15.863 -10.261 -0.96600002 0.34
-16.077999 -10.472 -0.98400003 0.37
-14.789 -9.6969995 -0.89099997 0.41
-14.576 -9.6219997 -0.87800002 0.27000001
-14.718 -9.75 -0.889 0.20999999
-14.543 -9.6990004 -0.87900001 0.56
-14.902 -10.007 -0.90799999 0.2
-14.637 -9.8959999 -0.88999999 0.30000001
-14.407 -9.8059998 -0.875 0.41
-14.327 -9.8170004 -0.87199998 0.22
-14.228 -9.8149996 -0.86699998 0.58999997
-14.216 -9.8400002 -0.86699998 0.28999999
-14.624 -10.191 -0.89999998 0.31999999
-14.267 -10.008 -0.875 0.52999997
-14.372 -10.15 -0.88599998 0.27000001
-14.511 -10.317 -0.89899999 0.19
-14.454 -10.345 -0.89700001 0.58999997
-17.089001 -12.318 -1.1 0.28
-14.499 -10.481 -0.90399998 0.20999999
-14.387 -10.469 -0.898 0.34999999
-14.531 -10.644 -0.912 0.25999999
-14.592 -10.759 -0.91900003 0.49000001
-14.688 -10.902 -0.92900002 0.43000001
-13.98 -10.512 -0.87900001 0.51999998
-13.995 -10.592 -0.88300002 0.23999999
-13.981 -10.616 -0.88300002 0.56
-13.957 -10.667 -0.884 0.50999999
-13.797 -10.614 -0.87400001 0.22
-14.152 -10.958 -0.90499997 0.41
-15.548 -12.121 -1.017 0.20999999
-14.161 -11.109 -0.91100001 0.23
-13.783 -10.882 -0.884 0.44999999
-13.689 -10.842 -0.87800002 0.36000001
-13.596 -10.838 -0.87300003 0.25999999
-13.585 -10.899 -0.875 0.41999999
-13.537 -10.931 -0.87400001 0.30000001
-13.541 -11.005 -0.87699997 0.60000002
-13.474 -11.021 -0.87400001 0.22
-13.961 -11.494 -0.91600001 0.28
-13.874 -11.458 -0.91000003 0.44999999
-13.496 -11.217 -0.88300002 0.38999999
-13.16 -11.007 -0.85900003 0.27000001
-12.953 -10.902 -0.84500003 0.43000001
-12.968 -10.986 -0.84899998 0.34
-12.963 -11.051 -0.85100001 0.20999999
-12.893 -11.062 -0.84799999 0.57999998
-14.349 -12.354 -0.96899998 0.18000001
-13.071 -11.323 -0.86699998 0.43000001
-14.1 -12.294 -0.95499998 0.15000001
-13.922 -12.216 -0.94300002 0.33000001
-13.865 -12.243 -0.94199997 0.38
-15.292 -13.592 -1.063 0.23999999
-13.048 -11.666 -0.88 0.41999999
-13.036 -11.692 -0.88099998 0.25
-14.414 -13.014 -0.99900001 0.33000001
-10.678 -9.6929998 -0.68900001 0.30000001
-10.612 -9.6940002 -0.68599999 0.19
-10.524 -9.6739998 -0.68199998 0.43000001
-10.513 -9.7250004 -0.68300003 0.31999999
-10.467 -9.7449999 -0.68199998 0.23999999
-10.385 -9.698 -0.676 0.41
-10.366 -9.7419996 -0.67699999 0.17
-10.259 -9.7010002 -0.671 0.62
-10.353 -9.8520002 -0.68099999 0.23
-10.218 -9.7849998 -0.67299998 0.56999999
-10.265 -9.8920002 -0.67900002 0.38
-10.138 -9.8310003 -0.671 0.37
-10.135 -9.8590002 -0.67199999 0.38
-10.068 -9.8559999 -0.66900003 0.46000001
-10.013 -9.8640003 -0.667 0.23
-10.066 -9.9779997 -0.67400002 0.62
-9.967 -9.9420004 -0.66799998 0.2
-9.9759998 -10.015 -0.67199999 0.38999999
-9.8879995 -9.9890003 -0.667 0.2
-9.8000002 -9.9300003 -0.66000003 0.33000001
-9.7299995 -9.9209995 -0.65700001 0.64999998
-10.057 -10.321 -0.68900001 0.20999999
-9.9960003 -10.323 -0.68599999 0.41999999
-9.1260004 -9.4809999 -0.611 0.18000001
-9.1990004 -9.618 -0.62099999 0.56999999
-9.3640003 -9.8520002 -0.63800001 0.20999999
-8.9029999 -9.3950005 -0.59799999 0.40000001
-10.039 -10.665 -0.70300001 0.27000001
-9.1520004 -9.7810001 -0.62599999 0.38999999
-8.8509998 -9.5179996 -0.60100001 0.19
-8.7889996 -9.5109997 -0.59799999 0.56999999
-12.183 -13.283 -0.912 0.14
-8.7349997 -9.573 -0.59899998 0.34
-10.194 -11.25 -0.736 0.41
-10.676 -11.82 -0.78299999 0.23999999
-9.7729998 -10.885 -0.70200002 0.28999999
-9.783 -10.967 -0.70599997 0.27000001
-11.229 -12.673 -0.84500003 0.25999999
-11.326 -12.864 -0.85799998 0.51999998
-11.485 -13.129 -0.87599999 0.20999999
-11.218 -12.904 -0.85500002 0.34
-11.233 -12.962 -0.85799998 0.44
-11.415 -13.258 -0.88 0.47999999
-11.677 -13.649 -0.90799999 0.20999999
-11.039 -12.984 -0.852 0.5
-11.119 -13.162 -0.86299998 0.23999999
-12.315 -14.675 -0.98199999 0.25
-8.5290003 -10.249 -0.62199998 0.56
-8.0150003 -9.691 -0.57499999 0.18000001
-8.1049995 -9.8629999 -0.58700001 0.36000001
-7.901 -9.6759996 -0.56999999 0.56
-9.3950005 -11.588 -0.72000003 0.19
-7.9429998 -9.8540001 -0.57999998 0.38999999
-8.3900003 -10.478 -0.62800002 0.41999999
-7.816 -9.7889996 -0.57200003 0.31999999
-7.8639998 -9.9139996 -0.57999998 0.31
-8.0200005 -10.177 -0.59899998 0.23
-7.8049998 -9.9680004 -0.58099997 0.58999997
-7.7449999 -9.9549999 -0.57800001 0.34
-7.9039998 -10.227 -0.597 0.47999999
-7.8119998 -10.173 -0.59100002 0.23
-7.6690001 -10.018 -0.57800001 0.34
-7.553 -9.9309998 -0.56900001 0.44999999
-7.4850001 -9.9069996 -0.565 0.28999999
-7.4050002 -9.8649998 -0.56 0.56
-8.8310003 -11.85 -0.71200001 0.16
-8.743 -11.808 -0.70599997 0.2
-7.1900001 -9.7679996 -0.54799998 0.31
-7.1950002 -9.8070002 -0.55000001 0.30000001
-7.1370001 -9.7919998 -0.54699999 0.50999999
-7.1399999 -9.8620005 -0.551 0.16
-6.9089999 -9.6049995 -0.52899998 0.62
-7.1440001 -9.9989996 -0.55800003 0.27000001
-7.0240002 -9.8959999 -0.54799998 0.30000001
-6.9310002 -9.8299999 -0.54100001 0.31999999
-6.8629999 -9.7650003 -0.53600001 0.31999999
-6.8270001 -9.7790003 -0.53500003 0.56999999
-6.9970002 -10.091 -0.55699998 0.28
-6.9850001 -10.142 -0.55900002 0.23
-6.7820001 -9.9130001 -0.54000002 0.41
-6.8280001 -10.049 -0.54900002 0.31
-6.7189999 -9.9540005 -0.54000002 0.40000001
-6.7080002 -9.9709997 -0.54100001 0.5
-6.697 -10.024 -0.54299998 0.22
-6.6170001 -9.9720001 -0.53799999 0.38
-6.533 -9.9119997 -0.53200001 0.49000001
-6.5799999 -10.052 -0.54100001 0.31999999
-6.2540002 -9.618 -0.50700003 0.28999999
-6.0110002 -9.3070002 -0.48300001 0.31999999
-5.9759998 -9.2840004 -0.47999999 0.37
-5.9450002 -9.3000002 -0.47999999 0.33000001
-5.8909998 -9.2790003 -0.477 0.47
-5.855 -9.2860003 -0.47600001 0.38
-5.8140001 -9.2860003 -0.47499999 0.62
-5.79 -9.3120003 -0.47600001 0.30000001
-5.75 -9.3140001 -0.47400001 0.52999997
-5.7490001 -9.3450003 -0.47600001 0.28999999
-5.7179999 -9.3590002 -0.47600001 0.57999998
-5.7049999 -9.4049997 -0.47799999 0.28
-5.6750002 -9.4219999 -0.47799999 0.50999999
-5.6630001 -9.4689999 -0.47999999 0.38
-5.6630001 -9.5389996 -0.484 0.31999999
-5.6609998 -9.6029997 -0.48699999 0.5
-6.5640001 -11.265 -0.60399997 0.63
-6.5890002 -11.391 -0.611 0.28999999
-5.79 -10.075 -0.51599997 0.31
-5.6859999 -9.967 -0.50700003 0.33000001
-5.7119999 -10.087 -0.514 0.14
-5.6259999 -10.008 -0.50800002 0.44999999
-5.572 -9.9469995 -0.50300002 0.28
-5.6560001 -10.174 -0.51700002 0.23
-5.6370001 -10.214 -0.51899999 0.57999998
-5.4530001 -9.9530001 -0.49900001 0.14
-5.4250002 -9.9770002 -0.5 0.27000001
-5.4159999 -10.036 -0.50300002 0.40000001
-5.3499999 -9.9879999 -0.498 0.36000001
-5.3080001 -9.9469995 -0.495 0.20999999
-5.2389998 -9.8909998 -0.49000001 0.49000001
-4.9780002 -9.4689999 -0.45899999 0.22
-5.0450001 -9.6709995 -0.472 0.17
-4.8730001 -9.4110003 -0.45300001 0.47999999
-4.921 -9.5780001 -0.46399999 0.23
-4.8130002 -9.4399996 -0.45300001 0.34999999
-4.9120002 -9.6739998 -0.46900001 0.33000001
-4.7870002 -9.5 -0.45500001 0.51999998
-4.8140001 -9.6300001 -0.463 0.17
-4.941 -9.9630003 -0.48500001 0.38
-5.0120001 -10.189 -0.5 0.44
-4.9580002 -10.158 -0.49700001 0.34
-4.434 -9.151 -0.426 0.19
-4.4190001 -9.1569996 -0.426 0.34999999
-4.434 -9.3389997 -0.43700001 0.50999999
-4.4250002 -9.3950005 -0.44 0.5
-4.395 -9.4879999 -0.44400001 0.60000002
-4.2639999 -9.2779999 -0.42899999 0.19
-4.724 -10.374 -0.50300002 0.47999999
-4.4910002 -9.901 -0.47 0.20999999
-4.5159998 -10.039 -0.47799999 0.34
-4.3839998 -9.8260002 -0.463 0.33000001
-4.6139998 -10.434 -0.50300002 0.38999999
-4.4970002 -10.256 -0.49000001 0.19
-4.4390001 -10.21 -0.486 0.44999999
-5.2319999 -12.151 -0.616 0.17
-4.3600001 -10.157 -0.48100001 0.25999999
-4.303 -10.112 -0.477 0.44
-4.3119998 -10.223 -0.484 0.28999999
-4.5089998 -10.79 -0.52100003 0.2
-3.9979999 -9.6450005 -0.44299999 0.57999998
-4.862 -11.847 -0.58999997 0.16
-4.1680002 -10.287 -0.484 0.58999997
-4.0900002 -10.278 -0.48199999 0.56999999
-4.0560002 -10.287 -0.48100001 0.30000001
-4.0970001 -10.489 -0.49399999 0.19
-3.507 -9.052 -0.398 0.36000001
-4.1160002 -10.737 -0.509 0.2
-4.0679998 -10.661 -0.50300002 0.14
-3.4690001 -9.1669998 -0.40400001 0.2
-3.8940001 -10.4 -0.484 0.56999999
-3.3940001 -9.1420002 -0.40099999 0.12
-3.783 -10.299 -0.47600001 0.44
-3.872 -10.751 -0.50400001 0.54000002
-4.191 -11.701 -0.56599998 0.36000001
-5.5250001 -15.606 -0.82099998 0.31999999
-3.6589999 -10.415 -0.47999999 0.14
-3.348 -9.6190004 -0.42699999 0.57999998
-3.28 -9.5200005 -0.41999999 0.15000001
-3.984 -11.699 -0.56199998 0.28999999
-4.2680001 -12.67 -0.62400001 0.15000001
-3.0020001 -8.934 -0.38 0.52999997
-2.974 -8.9429998 -0.38 0.27000001
-3.4289999 -10.437 -0.477 0.27000001
-3.5090001 -10.797 -0.5 0.57999998
-3.4360001 -10.684 -0.49200001 0.18000001
-2.9979999 -9.4139996 -0.40900001 0.34
-3.006 -9.5450001 -0.41600001 0.20999999
-2.967 -9.4720001 -0.41100001 0.14
-3.0039999 -9.698 -0.42500001 0.55000001
-3.062 -10 -0.44400001 0.30000001
-2.8169999 -9.4049997 -0.405 0.19
-2.7739999 -9.3660002 -0.40200001 0.14
-2.6459999 -9.0369997 -0.38 0.22
-2.6530001 -9.1120005 -0.384 0.36000001
-2.642 -9.184 -0.389 0.25999999
-2.6470001 -9.3129997 -0.396 0.34
-2.6500001 -9.4370003 -0.40400001 0.33000001
-2.6440001 -9.5319996 -0.40900001 0.27000001
-2.78 -10.151 -0.44800001 0.20999999
-3.598 -13.333 -0.65200001 0.58999997
-3.5869999 -13.377 -0.65399998 0.34999999
-2.526 -9.632 -0.41299999 0.61000001
-2.523 -9.7480001 -0.41999999 0.30000001
-2.5 -9.7849998 -0.42199999 0.43000001
-2.6849999 -10.658 -0.477 0.34
-2.6559999 -10.686 -0.479 0.16
-2.6270001 -10.638 -0.47499999 0.62
-2.599 -10.668 -0.477 0.34999999
-2.6010001 -10.825 -0.486 0.18000001
-3.267 -13.821 -0.676 0.46000001
-3.865 -16.606001 -0.852 0.43000001
-3.8139999 -16.624001 -0.852 0.2
-3.753 -16.599001 -0.85000002 0.31999999
-2.4560001 -10.9 -0.48899999 0.23999999
-2.4130001 -10.869 -0.486 0.28999999
-2.1440001 -9.7889996 -0.417 0.30000001
-2.062 -9.5539999 -0.40200001 0.46000001
-2.201 -10.367 -0.45300001 0.28999999
-2.1670001 -10.37 -0.45300001 0.47
-1.995 -9.6899996 -0.40900001 0.2
-1.952 -9.5550003 -0.40099999 0.23
-2.1289999 -10.606 -0.46700001 0.55000001
-2.848 -14.469 -0.70999998 0.31
-1.8890001 -9.7139997 -0.41 0.27000001
-2.155 -11.492 -0.52100003 0.54000002
-1.835 -9.9390001 -0.42300001 0.12
-1.962 -10.734 -0.472 0.31
-2.4430001 -13.645 -0.65499997 0.25
-3.0179999 -17.204 -0.87800002 0.57999998
-2.152 -12.456 -0.579 0.20999999
-2.391 -14.124 -0.68400002 0.19
-2.3510001 -14.159 -0.685 0.28999999
-2.3299999 -14.308 -0.69400001 0.41999999
-2.299 -14.261 -0.69099998 0.31999999
-2.2420001 -14.189 -0.68599999 0.46000001
-1.5089999 -9.6990004 -0.405 0.2
-2.1329999 -14.073 -0.67799997 0.38
-2.3499999 -15.863 -0.78899997 0.34
-2.4130001 -16.656 -0.838 0.36000001
-2.0090001 -14.151 -0.68199998 0.28
-2.3069999 -16.660999 -0.838 0.18000001
-2.062 -15.051 -0.73699999 0.31999999
-1.936 -14.458 -0.69999999 0.30000001
-1.923 -14.719 -0.71600002 0.34999999
-1.834 -14.384 -0.69400001 0.31
-2.138 -17.235001 -0.87199998 0.40000001
-1.766 -14.58 -0.70599997 0.25
-1.74 -14.561 -0.70499998 0.34999999
-1.49 -12.777 -0.59299999 0.38
-1.451 -12.794 -0.59399998 0.28999999
-1.415 -12.836 -0.59600002 0.52999997
-1.369 -12.793 -0.59299999 0.28999999
-1.325 -12.757 -0.59100002 0.31999999
-1.459 -14.524 -0.69999999 0.17
-1.3200001 -13.334 -0.62599999 0.33000001
-1.256 -13.101 -0.61199999 0.33000001
-1.221 -13.175 -0.616 0.33000001
-1.188 -13.27 -0.62199998 0.30000001
-1.146 -13.264 -0.62099999 0.38999999
-1.101 -13.225 -0.61799997 0.41
-1.317 -16.532 -0.82300001 0.44
-1.2690001 -16.596001 -0.82700002 0.41999999
-1.062 -14.124 -0.67400002 0.23
-1.0089999 -14.007 -0.66600001 0.28999999
-0.96700001 -14.046 -0.66799998 0.44999999
-1.096 -16.745001 -0.83499998 0.28999999
-0.76800001 -12.223 -0.55500001 0.20999999
-0.72299999 -12.102 -0.54699999 0.51999998
-0.61299998 -10.78 -0.465 0.23
-0.58899999 -10.65 -0.45699999 0.36000001
-0.55400002 -10.632 -0.456 0.33000001
-0.52200001 -10.667 -0.458 0.41999999
-0.491 -10.707 -0.46000001 0.46000001
-0.46700001 -10.958 -0.47600001 0.38
-0.41299999 -10.904 -0.472 0.57999998
-0.331 -9.4350004 -0.38100001 0.31
-0.30199999 -9.4300003 -0.38100001 0.36000001
-0.38999999 -13.97 -0.662 0.41999999
-0.248 -9.6809998 -0.396 0.20999999
-0.25400001 -11.498 -0.509 0.16
-0.183 -9.4130001 -0.38 0.34
-0.169 -9.4569998 -0.38299999 0.47
-0.139 -9.4870005 -0.384 0.18000001
-0.113 -9.8549995 -0.40700001 0.34999999
-0.083999999 -10.207 -0.42899999 0.18000001
-0.057 -12.247 -0.55500001 0.20999999
-0.017999999 -12.303 -0.55800003 0.55000001
0.026000001 -13.796 -0.65100002 0.23
0.039999999 -9.5559998 -0.389 0.28
0.061999999 -10.416 -0.442 0.51999998
0.096000001 -10.474 -0.44499999 0.25999999
0.132 -10.729 -0.461 0.18000001
0.153 -9.9960003 -0.41600001 0.54000002
0.176 -9.6230001 -0.39300001 0.31999999
0.206 -9.5819998 -0.38999999 0.31999999
0.25999999 -10.469 -0.44499999 0.18000001
0.255 -9.7189999 -0.39899999 0.54000002
0.28 -9.5500002 -0.38800001 0.13
0.35499999 -10.818 -0.46700001 0.52999997
0.47799999 -13.147 -0.611 0.25
0.465 -11.833 -0.52999997 0.25
0.40400001 -9.6359997 -0.39399999 0.28999999
0.42199999 -9.6990004 -0.398 0.50999999
0.46000001 -9.849 -0.40700001 0.18000001
0.48199999 -9.6739998 -0.39700001 0.31
0.52100003 -9.8219995 -0.40599999 0.34999999
0.55500001 -9.8780003 -0.40900001 0.46000001
0.83200002 -13.843 -0.65499997 0.34
0.60500002 -9.6949997 -0.398 0.25999999
0.80199999 -12.419 -0.56699997 0.20999999
0.63999999 -9.533 -0.38800001 0.52999997
0.67299998 -9.5710001 -0.391 0.19
0.70300001 -9.5719995 -0.391 0.27000001
0.73900002 -9.6440001 -0.396 0.25
0.958 -11.935 -0.53799999 0.25999999
0.87400001 -10.51 -0.44999999 0.31
0.903 -10.464 -0.447 0.60000002
0.97399998 -11.059 -0.484 0.41
1.238 -13.51 -0.63700002 0.20999999
1.039 -11.01 -0.48199999 0.34999999
1.118 -11.456 -0.509 0.47999999
1.263 -12.136 -0.55199999 0.47999999
1.1569999 -10.814 -0.47 0.33000001
1.1720001 -10.794 -0.46900001 0.58999997
1.442 -12.853 -0.597 0.25999999
1.427 -12.383 -0.56800002 0.27000001
1.508 -12.727 -0.58999997 0.44999999
1.599 -13.13 -0.616 0.20999999
1.594 -12.761 -0.59299999 0.40000001
1.63 -12.726 -0.59100002 0.44999999
1.224 -9.4860001 -0.389 0.28999999
1.214 -9.1870003 -0.37099999 0.36000001
1.858 -13.638 -0.64899999 0.23999999
1.402 -10.104 -0.428 0.44999999
1.441 -10.149 -0.43200001 0.44
1.3710001 -9.4530001 -0.38800001 0.28999999
1.4579999 -9.8280001 -0.412 0.18000001
1.3839999 -9.2440004 -0.37599999 0.37
1.413 -9.2349997 -0.375 0.25
1.431 -9.1660004 -0.37099999 0.56999999
1.574 -9.8669996 -0.41499999 0.22
1.522 -9.3590002 -0.384 0.41
1.526 -9.2049999 -0.375 0.19
1.525 -9.0249996 -0.36399999 0.46000001
1.552 -9.0930004 -0.368 0.12
1.592 -9.1529999 -0.37200001 0.31999999
1.648 -9.302 -0.382 0.31
1.663 -9.2200003 -0.377 0.50999999
1.702 -9.2670002 -0.38 0.28999999
1.747 -9.3459997 -0.38600001 0.12
1.77 -9.3059998 -0.38299999 0.44
2.743 -14.229 -0.69400001 0.12
1.951 -9.9899998 -0.42699999 0.47999999
1.999 -9.908 -0.42300001 0.23
2.039 -9.9440002 -0.42500001 0.56999999
2.152 -10.323 -0.44999999 0.18000001
2.0079999 -9.4960003 -0.398 0.44999999
2.171 -10.025 -0.43200001 0.60000002
2.049 -9.3260002 -0.38800001 0.28999999
2.0450001 -9.1750002 -0.37900001 0.27000001
2.4200001 -10.677 -0.47499999 0.25
2.4530001 -10.667 -0.47400001 0.2
2.4809999 -10.638 -0.47299999 0.55000001
2.5350001 -10.642 -0.47400001 0.55000001
2.54 -10.516 -0.46700001 0.44
2.336 -9.552 -0.40599999 0.34
2.3940001 -9.6549997 -0.41299999 0.20999999
2.414 -9.6070004 -0.41 0.27000001
2.4430001 -9.5950003 -0.41 0.54000002
3.2539999 -12.664 -0.60600001 0.13
2.8150001 -10.827 -0.48899999 0.44999999
2.9189999 -11.085 -0.50599998 0.17
2.7090001 -10.166 -0.44800001 0.54000002
3.3110001 -12.247 -0.58200002 0.37
2.6140001 -9.5710001 -0.41100001 0.28999999
3.0929999 -11.17 -0.514 0.17
2.6789999 -9.6300001 -0.41600001 0.31999999
2.7639999 -9.8149996 -0.428 0.16
2.7390001 -9.6110001 -0.41600001 0.20999999
2.7309999 -9.4700003 -0.40700001 0.31999999
2.756 -9.448 -0.40599999 0.34
2.8989999 -9.8179998 -0.43099999 0.33000001
2.8670001 -9.6569996 -0.421 0.37
2.927 -9.743 -0.42699999 0.38
3.0650001 -10.087 -0.44999999 0.25
2.8940001 -9.4209995 -0.40700001 0.17
3.04 -9.7849998 -0.43099999 0.43000001
3.0569999 -9.7299995 -0.428 0.34
3.0869999 -9.7189999 -0.428 0.2
3.063 -9.5939999 -0.41999999 0.57999998
3.0539999 -9.4650002 -0.41299999 0.23
3.1370001 -9.6140003 -0.42300001 0.2
3.4530001 -10.465 -0.479 0.31999999
3.1530001 -9.4639997 -0.414 0.25999999
3.5139999 -10.429 -0.47799999 0.43000001
3.3280001 -9.7799997 -0.43599999 0.31
3.549 -10.266 -0.46900001 0.58999997
3.7409999 -10.71 -0.49900001 0.23
3.928 -11.129 -0.52700001 0.30000001
3.652 -10.251 -0.47099999 0.2
3.668 -10.194 -0.46799999 0.54000002
3.605 -9.9239998 -0.45100001 0.30000001
3.684 -10.042 -0.45899999 0.41
3.7360001 -10.133 -0.465 0.33000001
3.7539999 -10.084 -0.463 0.33000001
3.925 -10.442 -0.48699999 0.25
3.75 -9.8850002 -0.45100001 0.38
