# .PCD v0.7 - Point Cloud Data file format
VERSION 0.7
FIELDS x y z intensity
SIZE 4 4 4 4
TYPE F F F F
COUNT 1 1 1 1
WIDTH 1412
HEIGHT 1
VIEWPOINT 0 0 0 1 0 0 0
POINTS 1412
DATA ascii
2.625 -3.9200001 -1.574 0.31999999
2.642 -3.918 -1.576 0.38
2.651 -3.905 -1.574 0.30000001
2.6630001 -3.8959999 -1.574 0.34999999
2.6700001 -3.8940001 -1.575 0.34999999
2.6919999 -3.8989999 -1.581 0.34
2.6989999 -3.8829999 -1.5779999 0.34999999
2.7090001 -3.872 -1.576 0.34
2.7260001 -3.8710001 -1.58 0.38999999
2.7290001 -3.848 -1.574 0.28
2.7520001 -3.855 -1.58 0.41
2.7520001 -3.8429999 -1.577 0.28
2.7690001 -3.8399999 -1.58 0.40000001
2.7750001 -3.8239999 -1.576 0.30000001
2.7850001 -3.812 -1.575 0.37
2.7980001 -3.8050001 -1.576 0.30000001
2.8099999 -3.796 -1.576 0.27000001
2.8280001 -3.7950001 -1.579 0.38999999
2.8310001 -3.7880001 -1.5779999 0.36000001
2.8380001 -3.7709999 -1.574 0.37
2.8310001 -3.7379999 -1.564 0.34999999
2.8529999 -3.743 -1.5700001 0.34
2.869 -3.7379999 -1.572 0.36000001
2.892 -3.744 -1.5779999 0.33000001
2.891 -3.7309999 -1.574 0.36000001
2.8940001 -3.711 -1.5700001 0.30000001
2.904 -3.6989999 -1.568 0.31999999
2.914 -3.688 -1.568 0.36000001
2.9200001 -3.6719999 -1.564 0.31999999
2.921 -3.6489999 -1.558 0.31999999
2.9489999 -3.661 -1.568 0.38999999
2.9660001 -3.671 -1.574 0.31999999
2.9860001 -3.6719999 -1.579 0.34
3.0020001 -3.668 -1.582 0.33000001
3.003 -3.6459999 -1.576 0.38999999
3.016 -3.638 -1.576 0.28
3.026 -3.6270001 -1.576 0.38999999
3.04 -3.6199999 -1.577 0.36000001
3.043 -3.612 -1.576 0.34
3.0639999 -3.6140001 -1.581 0.33000001
3.0739999 -3.6029999 -1.58 0.37
3.0829999 -3.5910001 -1.579 0.34
3.118 -3.608 -1.592 0.28
3.1329999 -3.6029999 -1.594 0.34999999
3.1270001 -3.585 -1.5880001 0.30000001
3.168 -3.609 -1.604 0.40000001
3.177 -3.596 -1.603 0.30000001
3.1919999 -3.5910001 -1.605 0.25
3.207 -3.585 -1.607 0.27000001
3.1989999 -3.5539999 -1.597 0.18000001
3.2079999 -3.5409999 -1.595 0.31999999
3.2420001 -3.5680001 -1.6109999 0.25
3.2449999 -3.5480001 -1.6059999 0.14
3.2520001 -3.5339999 -1.604 0.28999999
3.273 -3.5339999 -1.609 0.16
3.2880001 -3.5280001 -1.612 0.28
3.3169999 -3.5369999 -1.6210001 0.23999999
3.346 -3.546 -1.63 0.16
3.339 -3.527 -1.624 0.28999999
3.3659999 -3.533 -1.632 0.23999999
3.3989999 -3.546 -1.643 0.22
3.401 -3.5250001 -1.6390001 0.23
3.437 -3.54 -1.651 0.19
3.4590001 -3.5420001 -1.6569999 0.49000001
3.467 -3.527 -1.655 0.38
3.4809999 -3.5309999 -1.66 0.41
3.49 -3.517 -1.659 0.28999999
3.5009999 -3.506 -1.659 0.38
3.5190001 -3.5020001 -1.6619999 0.38
3.5409999 -3.503 -1.668 0.36000001
3.5480001 -3.4879999 -1.666 0.44999999
3.553 -3.4809999 -1.666 0.33000001
3.5769999 -3.483 -1.6720001 0.40000001
3.5739999 -3.4579999 -1.666 0.38999999
3.5869999 -3.448 -1.666 0.37
3.5999999 -3.4400001 -1.668 0.40000001
3.6040001 -3.4219999 -1.664 0.37
3.622 -3.4170001 -1.668 0.41999999
3.6570001 -3.4400001 -1.682 0.38
3.684 -3.444 -1.691 0.34
3.6949999 -3.4319999 -1.691 0.33000001
3.7019999 -3.4170001 -1.688 0.41
3.7279999 -3.4189999 -1.696 0.41
3.744 -3.4130001 -1.699 0.23
3.7349999 -3.3940001 -1.692 0.33000001
3.75 -3.3859999 -1.694 0.23
3.7639999 -3.3770001 -1.6950001 0.17
3.7690001 -3.3599999 -1.693 0.28
3.776 -3.346 -1.691 0.18000001
3.7739999 -3.322 -1.6849999 0.13
3.793 -3.3180001 -1.689 0.20999999
3.8110001 -3.323 -1.6950001 0.23
3.813 -3.3039999 -1.691 0.28
3.819 -3.2880001 -1.689 0.2
3.835 -3.2809999 -1.692 0.43000001
3.848 -3.2709999 -1.693 0.23
3.8440001 -3.247 -1.686 0.25
3.8640001 -3.244 -1.691 0.18000001
3.8559999 -3.227 -1.6849999 0.23
3.892 -3.2360001 -1.697 0.16
3.8770001 -3.2019999 -1.6849999 0.25
3.9070001 -3.207 -1.6950001 0.18000001
3.898 -3.1789999 -1.686 0.23999999
3.927 -3.1819999 -1.6950001 0.16
3.9189999 -3.1559999 -1.686 0.25
3.9219999 -3.1470001 -1.6849999 0.14
3.9330001 -3.1359999 -1.686 0.25999999
3.954 -3.1329999 -1.691 0.16
3.9449999 -3.105 -1.682 0.23
3.971 -3.1059999 -1.6900001 0.18000001
3.967 -3.0829999 -1.684 0.23
3.9920001 -3.092 -1.693 0.18000001
3.9820001 -3.0639999 -1.684 0.23999999
4.006 -3.063 -1.691 0.19
4.0029998 -3.04 -1.684 0.12
4.027 -3.039 -1.691 0.17
4.0219998 -3.0150001 -1.684 0.23
4.0339999 -3.0050001 -1.686 0.16
4.033 -2.994 -1.683 0.13
4.0679998 -3 -1.6950001 0.18000001
4.0560002 -2.9719999 -1.6849999 0.12
4.0809999 -2.97 -1.692 0.18000001
4.0689998 -2.9419999 -1.682 0.11
4.1009998 -2.9460001 -1.693 0.18000001
4.0949998 -2.9219999 -1.686 0.11
4.1009998 -2.9159999 -1.686 0.18000001
4.105 -2.9000001 -1.684 0.11
4.1209998 -2.892 -1.687 0.19
4.125 -2.875 -1.6849999 0.11
4.145 -2.8699999 -1.6900001 0.18000001
4.138 -2.846 -1.683 0.11
4.1490002 -2.8440001 -1.686 0.2
4.1550002 -2.829 -1.684 0.11
4.1729999 -2.822 -1.688 0.19
4.1739998 -2.8039999 -1.6849999 0.11
4.198 -2.8010001 -1.692 0.18000001
4.1960001 -2.78 -1.687 0.12
4.2189999 -2.777 -1.693 0.18000001
4.2030001 -2.757 -1.684 0.12
4.2259998 -2.753 -1.691 0.19
4.2249999 -2.733 -1.686 0.11
4.257 -2.7349999 -1.697 0.17
4.2360001 -2.7019999 -1.684 0.12
4.2680001 -2.704 -1.694 0.18000001
4.257 -2.6789999 -1.686 0.22
4.289 -2.6889999 -1.697 0.18000001
4.2649999 -2.6559999 -1.684 0.059999999
4.2740002 -2.642 -1.684 0.17
4.283 -2.6300001 -1.684 0.11
4.3060002 -2.625 -1.691 0.18000001
4.303 -2.605 -1.686 0.11
4.323 -2.608 -1.693 0.17
4.3200002 -2.5869999 -1.688 0.23
4.3429999 -2.5829999 -1.694 0.16
4.3169999 -2.549 -1.6799999 0.059999999
4.3520002 -2.5510001 -1.691 0.16
4.3379998 -2.5239999 -1.682 0.2
4.3470001 -2.5120001 -1.682 0.1
4.3769999 -2.52 -1.693 0.15000001
4.3610001 -2.4920001 -1.683 0.050000001
4.3850002 -2.4879999 -1.6900001 0.16
4.381 -2.467 -1.6849999 0.11
4.4120002 -2.467 -1.6950001 0.18000001
4.3969998 -2.4400001 -1.6849999 0.11
4.4169998 -2.4330001 -1.691 0.16
4.408 -2.4189999 -1.6849999 0.050000001
4.4250002 -2.411 -1.689 0.16
4.4130001 -2.3859999 -1.681 0.1
4.4569998 -2.392 -1.696 0.15000001
4.4330001 -2.3610001 -1.683 0.050000001
4.4499998 -2.352 -1.687 0.17
4.4660001 -2.3429999 -1.691 0.11
4.4759998 -2.339 -1.693 0.17
4.4569998 -2.3110001 -1.682 0.22
4.4809999 -2.306 -1.689 0.090000004
4.4970002 -2.296 -1.693 0.14
4.474 -2.266 -1.6799999 0.050000001
4.506 -2.2650001 -1.691 0.17
4.4910002 -2.2490001 -1.683 0.2
4.5009999 -2.2360001 -1.684 0.1
4.5419998 -2.2390001 -1.698 0.17
4.5240002 -2.2119999 -1.688 0.11
4.5479999 -2.2060001 -1.6950001 0.16
4.526 -2.178 -1.683 0.050000001
4.5440001 -2.1689999 -1.688 0.14
4.5279999 -2.152 -1.6799999 0.050000001
4.5609999 -2.151 -1.691 0.15000001
4.5580001 -2.132 -1.686 0.19
4.5650001 -2.118 -1.686 0.1
4.5970001 -2.115 -1.697 0.16
4.5689998 -2.085 -1.683 0.050000001
4.6020002 -2.082 -1.693 0.16
4.5939999 -2.0710001 -1.689 0.11
4.6230001 -2.066 -1.698 0.14
4.5869999 -2.0320001 -1.681 0.050000001
4.6209998 -2.03 -1.692 0.15000001
4.605 -2.006 -1.683 0.050000001
4.6279998 -1.999 -1.6900001 0.16
4.6329999 -1.992 -1.691 0.19
4.6290002 -1.973 -1.686 0.18000001
4.6259999 -1.955 -1.683 0.18000001
4.652 -1.949 -1.691 0.18000001
4.6370001 -1.925 -1.682 0.18000001
4.6430001 -1.911 -1.682 0.18000001
4.6719999 -1.905 -1.691 0.17
4.6589999 -1.892 -1.6849999 0.18000001
4.6680002 -1.878 -1.686 0.18000001
4.6830001 -1.867 -1.6900001 0.090000004
4.6820002 -1.85 -1.687 0.079999998
4.684 -1.834 -1.686 0.079999998
4.704 -1.824 -1.691 0.090000004
4.7010002 -1.806 -1.688 0.090000004
4.7020001 -1.798 -1.687 0.079999998
4.704 -1.7819999 -1.686 0.090000004
4.7010002 -1.7640001 -1.682 0.090000004
4.711 -1.751 -1.684 0.079999998
4.7199998 -1.738 -1.686 0.16
4.7329998 -1.725 -1.688 0.16
4.7350001 -1.709 -1.687 0.17
4.7360001 -1.701 -1.686 0.17
4.723 -1.6799999 -1.6799999 0.039999999
4.7459998 -1.671 -1.686 0.079999998
4.7459998 -1.654 -1.684 0.16
4.7319999 -1.633 -1.677 0.039999999
4.757 -1.625 -1.684 0.07
4.7670002 -1.612 -1.686 0.079999998
4.7680001 -1.603 -1.686 0.15000001
4.7620001 -1.585 -1.682 0.039999999
4.7690001 -1.5700001 -1.682 0.07
4.7839999 -1.559 -1.686 0.079999998
4.789 -1.544 -1.686 0.090000004
4.796 -1.53 -1.687 0.079999998
4.8039999 -1.524 -1.689 0.15000001
4.803 -1.507 -1.687 0.17
4.8080001 -1.492 -1.687 0.16
4.803 -1.474 -1.684 0.039999999
4.8299999 -1.465 -1.692 0.14
4.829 -1.449 -1.6900001 0.19
4.8239999 -1.431 -1.686 0.1
4.8280001 -1.424 -1.687 0.090000004
4.8379998 -1.41 -1.689 0.079999998
4.8429999 -1.395 -1.689 0.15000001
4.8309999 -1.375 -1.683 0.039999999
4.849 -1.364 -1.688 0.079999998
4.848 -1.347 -1.686 0.16
4.8579998 -1.342 -1.689 0.17
4.8530002 -1.324 -1.686 0.039999999
4.8530002 -1.308 -1.684 0.07
4.8660002 -1.295 -1.688 0.079999998
4.8699999 -1.279 -1.688 0.090000004
4.8800001 -1.266 -1.6900001 0.090000004
4.869 -1.2460001 -1.684 0.039999999
4.8909998 -1.244 -1.692 0.07
4.881 -1.225 -1.686 0.039999999
4.8839998 -1.21 -1.686 0.07
4.8920002 -1.1950001 -1.688 0.039999999
4.9050002 -1.182 -1.691 0.079999998
4.914 -1.168 -1.693 0.090000004
4.9070001 -1.15 -1.689 0.079999998
4.9180002 -1.1440001 -1.693 0.16
4.908 -1.126 -1.688 0.039999999
4.9169998 -1.112 -1.6900001 0.079999998
4.9190001 -1.096 -1.689 0.039999999
4.928 -1.082 -1.691 0.07
4.9289999 -1.066 -1.691 0.15000001
4.9159999 -1.0470001 -1.684 0.039999999
4.9439998 -1.044 -1.694 0.07
4.9299998 -1.025 -1.688 0.039999999
4.9320002 -1.01 -1.687 0.07
4.9369998 -0.99400002 -1.688 0.039999999
4.947 -0.98000002 -1.691 0.07
4.9499998 -0.96499997 -1.691 0.16
4.9460001 -0.95599997 -1.688 0.039999999
4.9619999 -0.94300002 -1.693 0.07
4.9559999 -0.926 -1.6900001 0.079999998
4.9569998 -0.91000003 -1.689 0.039999999
4.967 -0.89499998 -1.692 0.07
4.9530001 -0.87699997 -1.686 0.039999999
4.9689999 -0.86400002 -1.691 0.079999998
4.9629998 -0.85399997 -1.688 0.039999999
4.9860001 -0.84200001 -1.6950001 0.14
4.9809999 -0.82499999 -1.693 0.19
4.9949999 -0.81199998 -1.697 0.16
4.9879999 -0.79400003 -1.693 0.16
4.9920001 -0.77899998 -1.694 0.17
4.9850001 -0.76200002 -1.691 0.18000001
4.9980001 -0.75599998 -1.6950001 0.17
4.98 -0.73699999 -1.687 0.039999999
5.0009999 -0.72399998 -1.694 0.07
4.9860001 -0.70599997 -1.688 0.079999998
5.0089998 -0.69300002 -1.6950001 0.090000004
5.0089998 -0.67699999 -1.6950001 0.15000001
5.013 -0.662 -1.6950001 0.16
5.0159998 -0.65399998 -1.696 0.16
5.0120001 -0.63800001 -1.694 0.16
4.9990001 -0.62 -1.688 0.16
5.0240002 -0.60699999 -1.697 0.17
5.0240002 -0.59100002 -1.696 0.18000001
5.0219998 -0.57499999 -1.6950001 0.16
5.0149999 -0.56599998 -1.692 0.039999999
5.0300002 -0.55199999 -1.697 0.15000001
5.013 -0.53399998 -1.6900001 0.050000001
5.0349998 -0.51999998 -1.697 0.07
5.0279999 -0.50400001 -1.694 0.15000001
5.033 -0.48800001 -1.6950001 0.16
5.0190001 -0.47099999 -1.6900001 0.039999999
5.046 -0.46599999 -1.699 0.079999998
5.033 -0.44800001 -1.694 0.16
5.0250001 -0.43200001 -1.691 0.039999999
5.0409999 -0.417 -1.696 0.07
5.0479999 -0.40200001 -1.698 0.079999998
5.04 -0.38499999 -1.6950001 0.15000001
5.052 -0.37 -1.699 0.17
5.0279999 -0.36000001 -1.6900001 0.039999999
5.0450001 -0.34599999 -1.6950001 0.07
5.0489998 -0.33000001 -1.697 0.079999998
5.0339999 -0.31299999 -1.691 0.079999998
5.053 -0.29800001 -1.697 0.16
5.0560002 -0.28299999 -1.698 0.16
5.0489998 -0.266 -1.6950001 0.16
5.059 -0.259 -1.699 0.16
5.0450001 -0.242 -1.693 0.039999999
5.059 -0.227 -1.698 0.07
5.0609999 -0.211 -1.699 0.079999998
5.0749998 -0.19599999 -1.7029999 0.079999998
5.0609999 -0.17900001 -1.698 0.079999998
5.0500002 -0.163 -1.694 0.079999998
5.0650001 -0.156 -1.699 0.079999998
5.0430002 -0.139 -1.691 0.039999999
5.0640001 -0.124 -1.699 0.07
5.059 -0.108 -1.697 0.15000001
5.0650001 -0.092 -1.699 0.16
5.0599999 -0.075999998 -1.697 0.16
5.0560002 -0.059999999 -1.6950001 0.18000001
5.073 -0.052000001 -1.701 0.18000001
5.0430002 -0.035999998 -1.691 0.039999999
5.0469999 -0.02 -1.692 0
5.0679998 -0.0040000002 -1.699 0.12
4.921 0.0060000001 -1.694 0.14
4.9299998 0.014 -1.698 0.18000001
4.9169998 0.028999999 -1.693 0.17
4.9320002 0.045000002 -1.698 0.17
4.902 0.059999999 -1.687 0.039999999
4.9260001 0.075999998 -1.696 0.14
4.9330001 0.090999998 -1.699 0.19
4.9180002 0.106 -1.693 0
4.9289999 0.114 -1.698 0.13
4.9169998 0.12899999 -1.693 0.050000001
4.9390001 0.146 -1.702 0.07
4.9109998 0.16 -1.691 0.039999999
4.9120002 0.176 -1.692 0.029999999
4.9120002 0.191 -1.692 0.07
4.928 0.2 -1.698 0.079999998
4.9180002 0.215 -1.6950001 0.079999998
4.9000001 0.229 -1.689 0.039999999
4.9050002 0.245 -1.691 0.079999998
4.908 0.25999999 -1.692 0.039999999
4.921 0.27700001 -1.697 0.079999998
4.8969998 0.29100001 -1.689 0.039999999
4.908 0.29899999 -1.693 0.029999999
4.9070001 0.315 -1.693 0.029999999
4.9060001 0.33000001 -1.693 0.07
4.8920002 0.34400001 -1.688 0.039999999
4.908 0.361 -1.694 0.07
4.895 0.37599999 -1.6900001 0.039999999
4.9200001 0.39300001 -1.7 0.07
4.921 0.40099999 -1.7 0.16
4.9070001 0.41499999 -1.696 0.039999999
4.908 0.43099999 -1.696 0.07
4.9159999 0.447 -1.7 0.079999998
4.9070001 0.46200001 -1.697 0.090000004
4.9089999 0.47799999 -1.698 0.090000004
4.902 0.493 -1.696 0.15000001
4.9050002 0.50099999 -1.698 0.16
4.8990002 0.51599997 -1.696 0.039999999
4.9130001 0.53299999 -1.702 0.07
4.9039998 0.54699999 -1.699 0.15000001
4.8870001 0.56099999 -1.693 0.039999999
4.8930001 0.57700002 -1.696 0.07
4.8940001 0.58499998 -1.697 0.16
4.908 0.60299999 -1.7029999 0.16
4.895 0.61699998 -1.699 0.17
4.8730001 0.62900001 -1.691 0.039999999
4.902 0.64899999 -1.7029999 0.07
4.8709998 0.66000003 -1.692 0.039999999
4.8759999 0.676 -1.6950001 0.07
4.8860002 0.68599999 -1.699 0.079999998
4.8839998 0.70099998 -1.699 0.15000001
4.8800001 0.71600002 -1.698 0.039999999
4.8920002 0.73400003 -1.704 0.07
4.881 0.74800003 -1.7 0.079999998
4.8670001 0.76099998 -1.696 0.079999998
4.882 0.77899998 -1.702 0.090000004
4.875 0.78600001 -1.7 0.079999998
4.8740001 0.80199999 -1.701 0.16
4.8660002 0.81599998 -1.699 0.16
4.8839998 0.83499998 -1.707 0.17
4.8649998 0.847 -1.7 0.18000001
4.8400002 0.85799998 -1.692 0.039999999
4.868 0.87900001 -1.704 0.07
4.8670001 0.88700002 -1.704 0.090000004
4.8569999 0.90100002 -1.701 0.079999998
4.8590002 0.917 -1.7029999 0.14
4.855 0.93199998 -1.702 0.17
4.8460002 0.94599998 -1.7 0.039999999
4.862 0.96499997 -1.707 0.14
4.8400002 0.96899998 -1.7 0.18000001
4.8569999 0.98799998 -1.707 0.17
4.836 1 -1.7 0.039999999
4.8309999 1.0140001 -1.7 0.15000001
4.829 1.03 -1.7 0.050000001
4.8499999 1.05 -1.709 0.16
4.8210001 1.0599999 -1.7 0.050000001
4.8559999 1.076 -1.714 0.14
4.8249998 1.085 -1.7029999 0.050000001
4.8319998 1.102 -1.707 0.16
4.8200002 1.115 -1.704 0.050000001
4.8239999 1.132 -1.707 0.15000001
4.8109999 1.145 -1.7029999 0.19
4.8049998 1.16 -1.702 0.090000004
4.8379998 1.176 -1.716 0.13
4.8109999 1.1849999 -1.707 0.059999999
4.7940001 1.197 -1.702 0.16
4.7940001 1.2130001 -1.7029999 0.19
4.783 1.226 -1.7 0.039999999
4.7940001 1.245 -1.706 0.16
4.7789998 1.257 -1.702 0.050000001
4.7930002 1.2690001 -1.7079999 0.14
4.777 1.281 -1.7029999 0.050000001
4.7820001 1.298 -1.707 0.17
4.7670002 1.3099999 -1.702 0.050000001
4.7969999 1.335 -1.716 0.16
4.776 1.345 -1.709 0.22
4.7789998 1.362 -1.712 0.31999999
4.7740002 1.369 -1.711 0.28
4.7709999 1.3839999 -1.711 0.34
4.7589998 1.397 -1.709 0.31999999
4.7620001 1.414 -1.711 0.27000001
4.7680001 1.433 -1.716 0.33000001
4.7459998 1.442 -1.709 0.2
4.7270002 1.452 -1.7029999 0.31999999
4.7550001 1.469 -1.715 0.22
4.7220001 1.475 -1.704 0.050000001
4.7280002 1.494 -1.7079999 0.15000001
4.7249999 1.5089999 -1.709 0.050000001
4.7259998 1.526 -1.711 0.15000001
4.7049999 1.535 -1.705 0.050000001
4.724 1.55 -1.7130001 0.15000001
4.7119999 1.562 -1.71 0.050000001
4.7179999 1.58 -1.714 0.16
4.6900001 1.587 -1.705 0.050000001
4.6919999 1.604 -1.7079999 0.15000001
4.7010002 1.624 -1.714 0.19
4.704 1.642 -1.717 0.16
4.6719999 1.6390001 -1.705 0.039999999
4.6950002 1.664 -1.716 0.16
4.6700001 1.671 -1.709 0.050000001
4.6669998 1.687 -1.709 0.15000001
4.6529999 1.698 -1.706 0.050000001
4.6789999 1.724 -1.7180001 0.14
4.6570001 1.725 -1.711 0.050000001
4.6739998 1.748 -1.72 0.18000001
4.6529999 1.756 -1.714 0.19
4.6529999 1.773 -1.716 0.18000001
4.6490002 1.788 -1.716 0.16
4.6469998 1.804 -1.7180001 0.1
4.6360002 1.817 -1.716 0.18000001
4.6329999 1.824 -1.716 0.18000001
4.6290002 1.839 -1.716 0.18000001
4.6209998 1.853 -1.716 0.17
4.6149998 1.868 -1.716 0.17
4.6110001 1.883 -1.716 0.18000001
4.6139998 1.901 -1.72 0.18000001
4.599 1.9119999 -1.716 0.17
4.6100001 1.925 -1.722 0.18000001
4.5970001 1.936 -1.719 0.17
4.5840001 1.948 -1.716 0.16
4.5799999 1.9630001 -1.717 0.039999999
4.5669999 1.974 -1.714 0.14
4.5760002 1.9960001 -1.72 0.039999999
4.5710001 2.0109999 -1.721 0.079999998
4.5700002 2.0190001 -1.722 0.079999998
4.546 2.0250001 -1.715 0
4.5419998 2.04 -1.716 0
4.5489998 2.0610001 -1.721 0.12
4.546 2.0769999 -1.722 0.18000001
4.5380001 2.0899999 -1.722 0.16
4.5310001 2.096 -1.72 0.090000004
4.5310001 2.1129999 -1.723 0.079999998
4.5159998 2.1229999 -1.72 0.079999998
4.5040002 2.135 -1.7180001 0.079999998
4.5079999 2.154 -1.722 0.14
4.5089998 2.1719999 -1.725 0.16
4.4990001 2.1849999 -1.724 0.16
4.4920001 2.1900001 -1.722 0.16
4.4770002 2.2 -1.719 0.039999999
4.4850001 2.2219999 -1.725 0.16
4.4679999 2.2309999 -1.721 0.050000001
4.4879999 2.2590001 -1.732 0
4.4619999 2.263 -1.725 0
4.454 2.276 -1.724 0.029999999
4.4580002 2.2880001 -1.727 0.07
4.4489999 2.3010001 -1.727 0.079999998
4.4419999 2.3150001 -1.727 0.14
4.4320002 2.3269999 -1.725 0.17
4.4289999 2.3429999 -1.727 0.090000004
4.4169998 2.355 -1.725 0.090000004
4.4130001 2.3699999 -1.727 0.16
4.4120002 2.3789999 -1.728 0.16
4.4180002 2.4000001 -1.734 0.16
4.3909998 2.4030001 -1.725 0.16
4.3829999 2.4170001 -1.725 0.18000001
4.3800001 2.4330001 -1.727 0.039999999
4.3709998 2.4460001 -1.727 0.16
4.3600001 2.4579999 -1.725 0.18000001
4.368 2.471 -1.73 0.090000004
4.342 2.4749999 -1.722 0.090000004
4.3439999 2.494 -1.727 0.079999998
4.3390002 2.51 -1.728 0.039999999
4.3119998 2.5120001 -1.72 0.029999999
4.3039999 2.5250001 -1.72 0.039999999
4.3150001 2.5409999 -1.726 0.13
4.3049998 2.553 -1.725 0.17
4.2950001 2.566 -1.725 0.17
4.2859998 2.5780001 -1.724 0.039999999
4.2839999 2.596 -1.727 0.15000001
4.263 2.6010001 -1.721 0.050000001
4.2789998 2.6300001 -1.7309999 0.16
4.2410002 2.615 -1.717 0.050000001
4.2550001 2.6429999 -1.727 0.07
4.2480001 2.6570001 -1.727 0.090000004
4.2449999 2.6730001 -1.729 0.079999998
4.2329998 2.6849999 -1.728 0.16
4.2340002 2.704 -1.732 0.17
4.2189999 2.704 -1.727 0.18000001
4.2090001 2.7160001 -1.727 0.18000001
4.21 2.7349999 -1.7309999 0.18000001
4.1919999 2.7420001 -1.727 0.039999999
4.1890001 2.76 -1.729 0.14
4.1789999 2.7720001 -1.729 0.050000001
4.1690001 2.7839999 -1.728 0.15000001
4.1719999 2.796 -1.7309999 0.18000001
4.1630001 2.809 -1.7309999 0.16
4.145 2.8150001 -1.727 0.039999999
4.1490002 2.8369999 -1.733 0.16
4.1370001 2.848 -1.7309999 0.18000001
4.1459999 2.8740001 -1.74 0.1
4.1230001 2.8770001 -1.734 0.090000004
4.1230001 2.8870001 -1.7359999 0.090000004
4.119 2.9030001 -1.738 0.15000001
4.098 2.9070001 -1.732 0.050000001
4.0960002 2.925 -1.7359999 0.15000001
4.105 2.9519999 -1.744 0.2
4.0869999 2.9579999 -1.74 0.17
4.0700002 2.9649999 -1.7359999 0.039999999
4.0710001 2.9760001 -1.739 0.16
4.059 2.9860001 -1.738 0.050000001
4.0539999 3.003 -1.74 0.16
4.0560002 3.0239999 -1.745 0.19
4.033 3.027 -1.739 0.1
4.0240002 3.039 -1.739 0.079999998
4.0170002 3.0539999 -1.74 0.079999998
4.0159998 3.063 -1.742 0.079999998
4.0089998 3.0780001 -1.743 0.079999998
4.0110002 3.0999999 -1.749 0.079999998
3.9790001 3.095 -1.738 0.090000004
3.984 3.119 -1.745 0.090000004
3.974 3.131 -1.745 0.090000004
3.9690001 3.138 -1.745 0.079999998
3.9590001 3.1500001 -1.745 0.16
3.9660001 3.1760001 -1.753 0.17
3.938 3.174 -1.745 0.18000001
3.928 3.1860001 -1.745 0
3.9330001 3.21 -1.752 0.13
3.902 3.2060001 -1.742 0.050000001
3.915 3.227 -1.75 0.17
3.904 3.2390001 -1.75 0.050000001
3.8940001 3.2509999 -1.75 0.14
3.881 3.2609999 -1.749 0.18000001
3.868 3.2709999 -1.747 0.16
3.8659999 3.29 -1.752 0.039999999
3.8670001 3.3010001 -1.7539999 0.16
3.8610001 3.3169999 -1.756 0
3.849 3.3280001 -1.756 0.14
3.8340001 3.336 -1.7539999 0.2
3.822 3.3469999 -1.753 0.090000004
3.812 3.359 -1.753 0.079999998
3.8069999 3.3759999 -1.756 0.079999998
3.8139999 3.3929999 -1.762 0.090000004
3.7880001 3.391 -1.7539999 0.15000001
3.7720001 3.398 -1.752 0.039999999
3.773 3.421 -1.758 0.15000001
3.763 3.4330001 -1.758 0.050000001
3.7460001 3.4400001 -1.755 0.07
3.734 3.45 -1.7539999 0.16
3.73 3.457 -1.755 0.039999999
3.7260001 3.4760001 -1.758 0.14
3.7190001 3.4909999 -1.761 0.2
3.7049999 3.5 -1.7589999 0.090000004
3.701 3.5179999 -1.763 0.090000004
3.6819999 3.5220001 -1.758 0.039999999
3.6819999 3.5439999 -1.7640001 0.07
3.675 3.549 -1.763 0.15000001
3.6689999 3.5650001 -1.766 0.16
3.651 3.5699999 -1.763 0.039999999
3.6440001 3.586 -1.765 0.13
3.6289999 3.5929999 -1.763 0.039999999
3.6240001 3.6110001 -1.766 0
3.6240001 3.622 -1.7690001 0.059999999
3.6040001 3.6259999 -1.765 0.039999999
3.598 3.642 -1.767 0.07
3.579 3.645 -1.763 0.14
3.5610001 3.6500001 -1.76 0.039999999
3.5599999 3.6719999 -1.765 0.14
3.5510001 3.6860001 -1.767 0.2
3.55 3.697 -1.77 0.17
3.5380001 3.7079999 -1.77 0.039999999
3.517 3.7079999 -1.7640001 0.039999999
3.5220001 3.737 -1.773 0.07
3.497 3.734 -1.766 0.079999998
3.493 3.7539999 -1.77 0.039999999
3.4890001 3.773 -1.774 0.07
3.4749999 3.77 -1.77 0.039999999
3.477 3.796 -1.778 0.07
3.4549999 3.796 -1.772 0.15000001
3.4460001 3.8099999 -1.774 0.17
3.4360001 3.823 -1.775 0.039999999
3.418 3.8269999 -1.772 0
3.4119999 3.845 -1.775 0.13
3.4170001 3.8629999 -1.781 0.18000001
3.404 3.872 -1.781 0.17
3.381 3.8699999 -1.774 0.16
3.375 3.888 -1.778 0.16
3.365 3.901 -1.779 0.16
3.3499999 3.9089999 -1.778 0.039999999
3.348 3.918 -1.78 0.07
3.3280001 3.9200001 -1.776 0.15000001
3.3110001 3.925 -1.773 0.039999999
3.316 3.957 -1.783 0.07
3.299 3.9619999 -1.781 0.039999999
3.28 3.9630001 -1.776 0.07
3.2739999 3.9820001 -1.781 0.14
3.273 3.993 -1.783 0.039999999
3.2579999 4 -1.7819999 0.07
3.253 4.0209999 -1.7869999 0.15000001
3.234 4.0219998 -1.783 0.16
3.214 4.0240002 -1.778 0.039999999
3.2079999 4.0430002 -1.783 0.079999998
3.1989999 4.0570002 -1.785 0.090000004
3.1889999 4.0580001 -1.783 0.039999999
3.1789999 4.0710001 -1.784 0.07
3.1630001 4.0760002 -1.7819999 0.079999998
3.1500001 4.086 -1.7819999 0.039999999
3.1389999 4.099 -1.783 0
3.1289999 4.112 -1.785 0.07
3.1240001 4.1199999 -1.786 0.079999998
3.1099999 4.1279998 -1.785 0.14
3.0940001 4.1329999 -1.783 0.039999999
3.0829999 4.1459999 -1.785 0.079999998
3.075 4.1620002 -1.7869999 0.14
3.049 4.1550002 -1.78 0.039999999
3.04 4.1690001 -1.7819999 0.07
3.0320001 4.1719999 -1.781 0.039999999
3.0239999 4.1890001 -1.785 0.079999998
3.01 4.197 -1.784 0.090000004
2.993 4.1999998 -1.781 0.079999998
2.9790001 4.21 -1.781 0.079999998
2.9749999 4.2309999 -1.7869999 0.079999998
2.9630001 4.244 -1.788 0.039999999
2.9530001 4.2420001 -1.785 0.07
2.9400001 4.2529998 -1.786 0.079999998
2.9349999 4.2750001 -1.7920001 0.039999999
2.9119999 4.27 -1.785 0.07
2.8970001 4.276 -1.784 0.16
2.8929999 4.2989998 -1.79 0.1
2.8710001 4.296 -1.785 0.079999998
2.868 4.3060002 -1.7869999 0.079999998
2.8640001 4.329 -1.794 0.090000004
2.8410001 4.3239999 -1.7869999 0.079999998
2.8280001 4.3330002 -1.7869999 0.079999998
2.8180001 4.348 -1.79 0.079999998
2.7980001 4.348 -1.786 0
2.7969999 4.3759999 -1.794 0.14
2.777 4.3590002 -1.785 0.050000001
2.7780001 4.3920002 -1.796 0.16
2.7490001 4.3769999 -1.785 0.050000001
2.7449999 4.4000001 -1.7920001 0.07
2.7279999 4.4029999 -1.79 0.16
2.723 4.4260001 -1.796 0.039999999
2.71 4.421 -1.7920001 0.07
2.694 4.4260001 -1.79 0.079999998
2.684 4.441 -1.793 0.079999998
2.6659999 4.4429998 -1.79 0.039999999
2.6600001 4.4640002 -1.796 0.07
2.6470001 4.474 -1.796 0.039999999
2.6359999 4.4879999 -1.799 0.079999998
2.619 4.4749999 -1.7920001 0.090000004
2.608 4.4889998 -1.794 0.090000004
2.596 4.5 -1.795 0.079999998
2.5799999 4.506 -1.794 0.039999999
2.569 4.5190001 -1.796 0.079999998
2.559 4.5359998 -1.8 0.039999999
2.546 4.5450001 -1.801 0.07
2.5339999 4.5409999 -1.7970001 0.039999999
2.5239999 4.5560002 -1.8 0.14
2.5090001 4.5640001 -1.8 0.18000001
2.4879999 4.5580001 -1.794 0.039999999
2.4779999 4.5739999 -1.798 0.14
2.4590001 4.5739999 -1.794 0.050000001
2.4460001 4.5830002 -1.795 0.14
2.447 4.6040001 -1.802 0.19
2.4230001 4.5929999 -1.794 0.090000004
2.4119999 4.6069999 -1.7970001 0.079999998
2.4000001 4.6199999 -1.799 0.15000001
2.3870001 4.6290002 -1.8 0.039999999
2.375 4.6430001 -1.803 0.16
2.3659999 4.6420002 -1.801 0.19
2.3529999 4.6529999 -1.802 0.039999999
2.3329999 4.6500001 -1.798 0.07
2.323 4.6659999 -1.801 0.090000004
2.306 4.6690001 -1.8 0.079999998
2.2920001 4.678 -1.801 0.15000001
2.279 4.6869998 -1.801 0.16
2.27 4.6869998 -1.8 0.16
2.257 4.6999998 -1.802 0.090000004
2.243 4.7080002 -1.803 0.090000004
2.2309999 4.7210002 -1.8049999 0.079999998
2.214 4.724 -1.803 0.15000001
2.201 4.7340002 -1.8049999 0.17
2.1889999 4.7459998 -1.807 0.1
2.178 4.743 -1.804 0.090000004
2.1559999 4.7340002 -1.798 0.15000001
2.152 4.7649999 -1.808 0.16
2.1340001 4.7649999 -1.8049999 0.17
2.1140001 4.7610002 -1.801 0.039999999
2.099 4.7659998 -1.8 0.15000001
2.0880001 4.783 -1.804 0.11
2.0769999 4.7779999 -1.801 0.079999998
2.063 4.7859998 -1.801 0.039999999
2.052 4.803 -1.8049999 0
2.04 4.816 -1.808 0.059999999
2.0280001 4.8309999 -1.812 0.15000001
2.0050001 4.8189998 -1.804 0.17
1.997 4.842 -1.811 0.17
1.988 4.842 -1.8099999 0.18000001
1.967 4.8330002 -1.803 0.090000004
1.954 4.8460002 -1.806 0.090000004
1.941 4.8569999 -1.808 0.090000004
1.928 4.868 -1.8099999 0.090000004
1.913 4.8759999 -1.811 0.090000004
1.895 4.8730001 -1.808 0.079999998
1.888 4.8800001 -1.809 0.15000001
1.874 4.8889999 -1.8099999 0.18000001
1.86 4.8969998 -1.811 0.18000001
1.842 4.8959999 -1.808 0.039999999
1.8279999 4.9070001 -1.8099999 0.07
1.816 4.9229999 -1.814 0.15000001
1.798 4.9219999 -1.812 0.17
1.7920001 4.928 -1.813 0.17
1.771 4.9180002 -1.807 0.039999999
1.763 4.9439998 -1.8150001 0.07
1.742 4.9359999 -1.8099999 0.039999999
1.732 4.9569998 -1.816 0.15000001
1.716 4.961 -1.8150001 0.18000001
1.7029999 4.973 -1.818 0.2
1.692 4.9650002 -1.814 0.27000001
1.679 4.9790001 -1.817 0.31
1.666 4.9920001 -1.8200001 0.28999999
1.653 5.0079999 -1.824 0.31
1.631 4.993 -1.817 0.31
1.615 4.9970002 -1.816 0.28999999
1.604 5.0159998 -1.821 0.28999999
1.596 5.0180001 -1.821 0.28999999
1.584 5.0359998 -1.826 0.31
1.564 5.0279999 -1.821 0.28999999
1.548 5.0300002 -1.8200001 0.31999999
1.533 5.0380001 -1.821 0.30000001
1.518 5.0450001 -1.822 0.30000001
1.511 5.0510001 -1.823 0.30000001
1.494 5.0539999 -1.823 0.28
1.482 5.0710001 -1.8279999 0.31999999
1.462 5.0630002 -1.823 0.28999999
1.442 5.0489998 -1.816 0.30000001
1.428 5.0630002 -1.819 0.27000001
1.418 5.0890002 -1.8279999 0.2
1.404 5.0679998 -1.819 0.13
1.3940001 5.0939999 -1.827 0.18000001
1.377 5.0949998 -1.826 0.2
1.36 5.0970001 -1.825 0.17
1.34 5.0869999 -1.819 0.16
1.329 5.1090002 -1.826 0.17
1.313 5.1129999 -1.826 0.16
1.307 5.1230001 -1.829 0.17
1.288 5.1160002 -1.825 0.17
1.271 5.1139998 -1.823 0.18000001
1.255 5.118 -1.823 0.039999999
1.24 5.1300001 -1.826 0.07
1.222 5.1240001 -1.822 0.15000001
1.2079999 5.1389999 -1.826 0.039999999
1.201 5.1430001 -1.827 0.079999998
1.1849999 5.1500001 -1.8279999 0.15000001
1.168 5.1500001 -1.827 0.17
1.153 5.158 -1.8279999 0.17
1.135 5.152 -1.825 0.17
1.12 5.1609998 -1.827 0.039999999
1.104 5.165 -1.827 0.15000001
1.0930001 5.1550002 -1.823 0.050000001
1.08 5.1750002 -1.829 0.14
1.062 5.1680002 -1.825 0.050000001
1.049 5.1869998 -1.831 0.079999998
1.034 5.198 -1.834 0.079999998
1.015 5.1880002 -1.829 0.15000001
1.007 5.1900001 -1.829 0.090000004
0.99000001 5.1890001 -1.8279999 0.090000004
0.972 5.1830001 -1.824 0.079999998
0.95999998 5.2119999 -1.834 0.079999998
0.94400001 5.2129998 -1.8329999 0.15000001
0.92500001 5.2049999 -1.829 0.16
0.91100001 5.2189999 -1.8329999 0.16
0.89999998 5.204 -1.827 0.17
0.88499999 5.2140002 -1.83 0.16
0.87199998 5.237 -1.837 0.16
0.85000002 5.2080002 -1.826 0.039999999
0.83499998 5.217 -1.8279999 0.07
0.81999999 5.2290001 -1.831 0.079999998
0.801 5.2160001 -1.826 0.039999999
0.79400003 5.2249999 -1.8279999 0.07
0.77999997 5.2420001 -1.834 0.079999998
0.764 5.2480001 -1.835 0.039999999
0.745 5.2360001 -1.83 0.07
0.73000002 5.2459998 -1.832 0.079999998
0.713 5.2459998 -1.832 0.079999998
0.69599998 5.243 -1.83 0.079999998
0.68900001 5.2529998 -1.8329999 0.039999999
0.671 5.2459998 -1.83 0
0.65399998 5.2459998 -1.829 0.13
0.639 5.256 -1.832 0.050000001
0.62099999 5.243 -1.826 0.15000001
0.60600001 5.2600002 -1.832 0.2
0.58999997 5.2690001 -1.834 0.18000001
0.58200002 5.27 -1.834 0.16
0.56400001 5.2620001 -1.831 0.18000001
0.54799998 5.2680001 -1.832 0.16
0.52999997 5.2490001 -1.825 0.039999999
0.514 5.2639999 -1.83 0.07
0.498 5.2729998 -1.832 0.14
0.48199999 5.2719998 -1.832 0.16
0.47299999 5.2690001 -1.83 0.16
0.45699999 5.2750001 -1.832 0.16
0.43900001 5.2610002 -1.826 0.039999999
0.42300001 5.2680001 -1.8279999 0.14
0.40700001 5.277 -1.831 0.19
0.38999999 5.276 -1.83 0.17
0.373 5.2659998 -1.826 0.039999999
0.366 5.2849998 -1.8329999 0.07
0.34900001 5.2849998 -1.832 0.079999998
0.333 5.2839999 -1.832 0.079999998
0.315 5.277 -1.829 0.090000004
0.29899999 5.2800002 -1.83 0.15000001
0.28299999 5.2909999 -1.8329999 0.16
0.266 5.276 -1.8279999 0.16
0.25799999 5.2839999 -1.83 0.039999999
0.241 5.276 -1.827 0.07
0.22499999 5.3049998 -1.837 0.15000001
0.20900001 5.3109999 -1.839 0.16
0.191 5.2849998 -1.83 0.039999999
0.175 5.2859998 -1.83 0.079999998
0.16599999 5.2839999 -1.829 0.039999999
0.15000001 5.29 -1.831 0.029999999
0.133 5.302 -1.835 0.07
0.117 5.3039999 -1.836 0.090000004
0.1 5.2859998 -1.829 0.079999998
0.082999997 5.2839999 -1.8279999 0.039999999
0.067000002 5.29 -1.83 0.07
0.057999998 5.296 -1.832 0.14
0.041999999 5.2789998 -1.826 0.18000001
0.025 5.3039999 -1.835 0.17
0.0080000004 5.2849998 -1.8279999 0.17
-0.0080000004 5.277 -1.826 0.039999999
-0.025 5.296 -1.832 0.07
-0.041999999 5.3000002 -1.834 0.079999998
-0.050000001 5.29 -1.83 0.090000004
-0.066 5.296 -1.832 0
-0.082999997 5.2810001 -1.827 0.14
-0.1 5.2969999 -1.8329999 0.2
-0.116 5.289 -1.83 0.16
-0.133 5.2849998 -1.829 0.16
-0.15000001 5.2940001 -1.832 0.039999999
-0.15800001 5.2979999 -1.834 0.079999998
-0.17399999 5.2820001 -1.8279999 0.039999999
-0.191 5.2950001 -1.8329999 0.07
-0.208 5.2859998 -1.83 0.15000001
-0.22400001 5.29 -1.832 0.090000004
-0.242 5.302 -1.837 0.15000001
-0.25799999 5.3010001 -1.837 0.20999999
-0.26499999 5.2779999 -1.8279999 0.18000001
-0.28299999 5.2870002 -1.832 0.16
-0.29800001 5.2690001 -1.826 0.18000001
-0.31600001 5.2810001 -1.83 0.16
-0.33199999 5.2779999 -1.83 0.17
-0.34900001 5.2880001 -1.834 0.090000004
-0.366 5.2870002 -1.834 0.090000004
-0.373 5.2740002 -1.829 0.16
-0.38999999 5.276 -1.83 0.039999999
-0.40700001 5.2750001 -1.83 0.14
-0.42300001 5.2740002 -1.83 0.039999999
-0.44 5.276 -1.832 0.079999998
-0.456 5.2670002 -1.829 0.14
-0.47400001 5.2789998 -1.834 0.16
-0.47999999 5.257 -1.826 0.039999999
-0.498 5.2690001 -1.831 0.079999998
-0.51499999 5.2690001 -1.832 0.079999998
-0.53100002 5.2659998 -1.831 0.079999998
-0.54799998 5.2639999 -1.831 0.16
-0.56300002 5.2490001 -1.826 0.039999999
-0.57999998 5.2550001 -1.829 0.07
-0.58700001 5.243 -1.825 0.15000001
-0.60500002 5.2579999 -1.831 0.17
-0.62199998 5.256 -1.831 0.18000001
-0.63800001 5.25 -1.83 0.18000001
-0.653 5.2389998 -1.826 0.039999999
-0.67000002 5.2389998 -1.827 0.15000001
-0.67699999 5.23 -1.824 0.19
-0.69499999 5.2350001 -1.827 0.090000004
-0.713 5.244 -1.831 0.079999998
-0.72799999 5.2329998 -1.8279999 0.079999998
-0.74299997 5.223 -1.825 0.090000004
-0.75999999 5.2220001 -1.826 0.079999998
-0.77600002 5.2199998 -1.826 0.090000004
-0.78600001 5.23 -1.83 0.079999998
-0.80199999 5.2220001 -1.8279999 0.079999998
-0.81699997 5.21 -1.824 0.090000004
-0.83399999 5.211 -1.826 0.090000004
-0.85299999 5.2249999 -1.832 0.079999998
-0.86500001 5.198 -1.823 0.039999999
-0.88599998 5.2199998 -1.832 0.14
-0.89399999 5.2220001 -1.8329999 0.2
-0.90600002 5.1929998 -1.823 0.18000001
-0.92199999 5.1890001 -1.823 0.1
-0.94199997 5.2020001 -1.829 0.14
-0.95599997 5.1880002 -1.825 0.23999999
-0.97500002 5.198 -1.83 0.20999999
-0.99199998 5.2010002 -1.832 0.25
-1.008 5.1960001 -1.831 0.28
-1.015 5.1900001 -1.83 0.28
-1.031 5.1830001 -1.8279999 0.28999999
-1.045 5.1690001 -1.824 0.27000001
-1.062 5.171 -1.826 0.28999999
-1.0829999 5.1900001 -1.834 0.31999999
-1.095 5.165 -1.826 0.30000001
-1.102 5.1609998 -1.826 0.28
-1.122 5.1700001 -1.83 0.31999999
-1.136 5.1589999 -1.8279999 0.28999999
-1.153 5.158 -1.8279999 0.31
-1.168 5.1490002 -1.826 0.31
-1.184 5.145 -1.826 0.30000001
-1.202 5.1479998 -1.829 0.31
-1.212 5.1539998 -1.832 0.30000001
-1.221 5.1209998 -1.821 0.12
-1.2410001 5.1350002 -1.8279999 0.079999998
-1.257 5.131 -1.8279999 0.14
-1.272 5.1220002 -1.826 0.039999999
-1.291 5.1269999 -1.829 0.07
-1.304 5.112 -1.825 0.090000004
-1.314 5.119 -1.8279999 0.079999998
-1.329 5.1110001 -1.827 0.079999998
-1.346 5.1090002 -1.8279999 0.090000004
-1.36 5.0970001 -1.825 0.15000001
-1.377 5.0970001 -1.826 0.16
-1.393 5.092 -1.826 0.039999999
-1.405 5.0749998 -1.821 0.079999998
-1.416 5.0819998 -1.825 0.090000004
-1.4299999 5.0700002 -1.822 0.079999998
-1.443 5.0549998 -1.818 0.039999999
-1.464 5.0679998 -1.825 0.07
-1.479 5.0599999 -1.823 0.079999998
-1.495 5.0570002 -1.824 0.090000004
-1.5089999 5.0469999 -1.822 0.090000004
-1.518 5.0479999 -1.823 0.079999998
-1.536 5.0489998 -1.826 0.079999998
-1.549 5.0370002 -1.823 0.090000004
-1.5650001 5.0300002 -1.822 0.079999998
-1.5779999 5.0159998 -1.819 0.079999998
-1.6 5.033 -1.827 0
-1.602 5.0110002 -1.819 0.14
-1.618 5.007 -1.8200001 0.19
-1.6390001 5.0180001 -1.826 0.18000001
-1.653 5.0079999 -1.824 0.18000001
-1.666 4.994 -1.821 0.039999999
-1.688 5.006 -1.8279999 0.07
-1.7029999 4.9990001 -1.827 0.079999998
-1.705 4.9809999 -1.821 0.090000004
-1.726 4.9889998 -1.826 0.079999998
-1.739 4.9770002 -1.823 0.15000001
-1.751 4.961 -1.819 0.039999999
-1.771 4.9689999 -1.825 0.14
-1.7819999 4.9499998 -1.819 0.18000001
-1.7970001 4.9439998 -1.819 0.039999999
-1.808 4.948 -1.822 0.14
-1.823 4.9429998 -1.822 0.2
-1.836 4.9299998 -1.819 0.039999999
-1.854 4.9289999 -1.821 0.07
-1.868 4.9200001 -1.8200001 0.090000004
-1.882 4.9099998 -1.819 0.079999998
-1.904 4.9219999 -1.826 0.090000004
-1.903 4.8959999 -1.817 0.090000004
-1.92 4.8959999 -1.819 0.079999998
-1.9400001 4.9000001 -1.823 0.090000004
-1.951 4.8829999 -1.819 0.15000001
-1.964 4.8720002 -1.817 0.090000004
-1.984 4.8779998 -1.821 0.079999998
-1.992 4.8530002 -1.814 0.090000004
-2.0009999 4.8530002 -1.8150001 0.15000001
-2.0190001 4.8540001 -1.818 0.039999999
-2.0309999 4.8390002 -1.814 0.14
-2.049 4.8390002 -1.817 0.2
-2.063 4.8309999 -1.817 0.17
-2.0780001 4.823 -1.816 0.090000004
-2.0940001 4.8179998 -1.817 0.090000004
-2.098 4.8080001 -1.814 0.090000004
-2.1140001 4.803 -1.814 0.079999998
-2.1270001 4.7930002 -1.813 0.079999998
-2.142 4.7839999 -1.812 0.16
-2.1559999 4.776 -1.812 0.17
-2.1760001 4.7789998 -1.816 0.16
-2.184 4.757 -1.8099999 0.16
-2.1889999 4.75 -1.808 0.17
-2.2 4.7350001 -1.8049999 0.039999999
-2.227 4.7519999 -1.814 0.07
-2.2360001 4.7329998 -1.8099999 0.079999998
-2.2479999 4.7210002 -1.808 0.15000001
-2.273 4.7340002 -1.816 0.16
-2.2839999 4.7179999 -1.812 0.17
-2.2839999 4.6989999 -1.806 0.16
-2.306 4.7069998 -1.812 0.16
-2.3139999 4.6869998 -1.807 0.16
-2.3299999 4.6830001 -1.808 0.17
-2.3499999 4.6849999 -1.812 0.16
-2.3559999 4.6609998 -1.8049999 0.17
-2.3729999 4.6589999 -1.808 0.16
-2.382 4.6570001 -1.808 0.16
-2.395 4.6479998 -1.808 0.18000001
-2.4100001 4.6399999 -1.808 0.090000004
-2.4189999 4.6230001 -1.803 0.090000004
-2.434 4.6149998 -1.803 0.090000004
-2.447 4.6059999 -1.803 0.079999998
-2.4679999 4.6090002 -1.808 0.16
-2.473 4.6020002 -1.806 0.17
-2.4909999 4.599 -1.808 0.18000001
-2.5 4.5819998 -1.804 0.17
-2.5190001 4.5840001 -1.808 0.18000001
-2.5239999 4.5580001 -1.801 0.18000001
-2.5469999 4.566 -1.808 0.17
-2.5550001 4.5469999 -1.803 0.039999999
-2.5539999 4.5279999 -1.796 0.14
-2.5840001 4.5479999 -1.808 0.19
-2.5840001 4.5149999 -1.798 0.17
-2.6059999 4.52 -1.803 0.17
-2.6170001 4.507 -1.801 0.039999999
-2.632 4.5 -1.802 0.15000001
-2.645 4.4889998 -1.801 0.19
-2.6570001 4.494 -1.8049999 0.18000001
-2.678 4.4970002 -1.8099999 0.18000001
-2.6830001 4.473 -1.803 0.16
-2.697 4.4640002 -1.803 0.17
-2.7090001 4.4530001 -1.801 0.16
-2.717 4.434 -1.7970001 0.039999999
-2.7279999 4.4369998 -1.8 0.07
-2.7479999 4.4369998 -1.804 0.079999998
-2.7550001 4.4180002 -1.799 0.079999998
-2.767 4.4070001 -1.799 0.079999998
-2.7869999 4.408 -1.803 0.090000004
-2.796 4.3920002 -1.799 0.090000004
-2.809 4.381 -1.799 0.079999998
-2.8169999 4.3779998 -1.799 0.15000001
-2.8380001 4.3800001 -1.804 0.090000004
-2.8429999 4.3590002 -1.799 0.090000004
-2.8559999 4.348 -1.798 0.079999998
-2.8610001 4.3270001 -1.7920001 0.079999998
-2.892 4.3439999 -1.804 0.079999998
-2.905 4.3340001 -1.803 0.079999998
-2.9189999 4.3249998 -1.803 0.079999998
-2.9119999 4.3000002 -1.794 0.079999998
-2.9260001 4.2919998 -1.795 0.14
-2.9460001 4.2919998 -1.799 0.1
-2.9649999 4.2909999 -1.803 0.079999998
-2.97 4.2690001 -1.7970001 0.079999998
-2.98 4.2550001 -1.795 0.079999998
-3.0020001 4.2579999 -1.801 0.079999998
-3.0020001 4.244 -1.796 0.079999998
-3.0190001 4.2389998 -1.799 0.079999998
-3.0320001 4.23 -1.799 0.079999998
-3.0480001 4.223 -1.8 0.090000004
-3.053 4.2030001 -1.795 0.090000004
-3.0650001 4.1919999 -1.794 0.16
-3.076 4.1929998 -1.7970001 0.090000004
-3.0799999 4.171 -1.7920001 0.079999998
-3.1010001 4.1719999 -1.796 0.079999998
-3.1099999 4.1560001 -1.794 0.039999999
-3.125 4.1500001 -1.795 0.07
-3.135 4.1350002 -1.793 0.079999998
-3.1440001 4.1209998 -1.791 0.090000004
-3.1500001 4.1149998 -1.79 0.079999998
-3.1719999 4.1170001 -1.796 0.16
-3.188 4.1110001 -1.798 0.17
-3.1849999 4.0799999 -1.788 0.039999999
-3.207 4.0819998 -1.794 0.07
-3.217 4.0689998 -1.7920001 0
-3.224 4.052 -1.789 0
-3.244 4.0630002 -1.796 0.059999999
-3.2679999 4.0669999 -1.803 0
-3.263 4.0349998 -1.793 0
-3.2909999 4.0430002 -1.802 0
-3.2969999 4.0240002 -1.798 0
-3.2909999 3.9920001 -1.7869999 0
-3.3099999 3.9890001 -1.791 0
-3.326 3.9960001 -1.796 0
-3.336 3.9820001 -1.795 0
-3.3499999 3.973 -1.796 0
-3.3610001 3.961 -1.795 0
-3.3759999 3.9530001 -1.796 0
-3.3859999 3.9400001 -1.795 0
-3.415 3.9489999 -1.8049999 0
-3.408 3.928 -1.7970001 0
-3.4170001 3.9130001 -1.795 0
-3.4300001 3.904 -1.796 0
-3.437 3.8870001 -1.793 0
-3.471 3.9000001 -1.8049999 0
-3.45 3.8529999 -1.7869999 0
-3.45 3.829 -1.78 0
-3.4549999 3.822 -1.779 0
-3.4909999 3.8369999 -1.7920001 0
-3.487 3.8099999 -1.784 0
-3.4990001 3.799 -1.784 0
-3.513 3.789 -1.785 0
-3.5090001 3.7620001 -1.776 0
-3.5350001 3.7650001 -1.784 0
-3.5439999 3.763 -1.785 0
-3.5539999 3.75 -1.785 0
-3.5539999 3.727 -1.778 0
-3.5669999 3.717 -1.779 0
-3.562 3.688 -1.77 0
-3.5840001 3.688 -1.776 0
-3.586 3.6670001 -1.771 0
-3.595 3.664 -1.772 0.029999999
-3.6110001 3.658 -1.775 0.029999999
-3.6140001 3.638 -1.77 0
-3.6300001 3.631 -1.773 0
-3.651 3.6289999 -1.778 0
-3.6370001 3.5929999 -1.765 0
-3.658 3.5910001 -1.77 0
-3.6559999 3.5780001 -1.766 0.029999999
-3.6730001 3.572 -1.7690001 0.029999999
-3.6800001 3.5569999 -1.767 0.039999999
-3.694 3.5480001 -1.768 0.07
-3.701 3.5320001 -1.766 0.079999998
-3.72 3.5280001 -1.77 0.16
-3.7249999 3.51 -1.767 0.039999999
-3.7219999 3.4960001 -1.763 0.07
-3.7379999 3.49 -1.765 0.079999998
-3.7490001 3.4779999 -1.765 0.14
-3.7520001 3.4590001 -1.761 0.17
-3.753 3.438 -1.756 0.18000001
-3.7690001 3.431 -1.7589999 0.039999999
-3.7920001 3.4400001 -1.767 0.079999998
-3.786 3.4130001 -1.7589999 0.16
-3.802 3.4070001 -1.762 0.090000004
-3.8069999 3.3900001 -1.7589999 0.079999998
-3.813 3.3740001 -1.757 0.15000001
-3.8310001 3.368 -1.761 0.039999999
-3.842 3.3559999 -1.761 0.07
-3.845 3.349 -1.76 0.15000001
-3.8570001 3.3380001 -1.761 0.16
-3.8729999 3.3310001 -1.763 0.18000001
-3.8740001 3.3099999 -1.758 0.16
-3.881 3.2950001 -1.757 0.17
-3.8870001 3.28 -1.755 0.18000001
-3.901 3.27 -1.756 0.18000001
-3.905 3.253 -1.7539999 0.16
-3.9059999 3.243 -1.752 0.039999999
-3.9319999 3.244 -1.7589999 0.15000001
-3.941 3.23 -1.758 0.19
-3.9519999 3.2190001 -1.7589999 0.16
-3.951 3.197 -1.7539999 0.16
-3.964 3.187 -1.755 0.090000004
-3.964 3.177 -1.753 0.090000004
-3.977 3.1670001 -1.7539999 0.090000004
-3.99 3.1570001 -1.756 0.079999998
-4.0040002 3.148 -1.758 0.079999998
-4.0040002 3.1270001 -1.753 0.079999998
-4.0209999 3.1199999 -1.756 0.079999998
-4.02 3.0999999 -1.752 0.15000001
-4.033 3.099 -1.755 0.16
-4.0320001 3.079 -1.75 0.039999999
-4.052 3.0739999 -1.755 0
-4.0619998 3.0610001 -1.755 0.059999999
-4.0819998 3.056 -1.76 0.14
-4.0840001 3.0380001 -1.756 0.18000001
-4.0900002 3.023 -1.755 0.090000004
-4.1009998 3.0209999 -1.758 0.090000004
-4.1149998 3.0109999 -1.76 0.090000004
-4.1110001 2.9879999 -1.7539999 0.079999998
-4.1399999 2.9890001 -1.763 0.079999998
-4.1339998 2.9660001 -1.756 0.079999998
-4.1370001 2.948 -1.753 0.039999999
-4.151 2.938 -1.755 0.039999999
-4.1529999 2.9300001 -1.7539999 0.079999998
-4.1529999 2.9100001 -1.749 0.039999999
-4.1799998 2.9100001 -1.758 0.079999998
-4.1880002 2.8959999 -1.757 0.090000004
-4.1880002 2.8759999 -1.753 0.079999998
-4.2059999 2.869 -1.757 0.079999998
-4.2030001 2.848 -1.752 0.16
-4.2210002 2.8510001 -1.758 0.18000001
-4.2210002 2.8310001 -1.7539999 0.039999999
-4.2360001 2.822 -1.756 0.079999998
-4.2379999 2.8050001 -1.7539999 0.079999998
-4.244 2.789 -1.752 0.079999998
-4.2610002 2.7809999 -1.756 0.15000001
-4.2659998 2.7650001 -1.7539999 0.039999999
-4.277 2.763 -1.757 0.07
-4.2820001 2.747 -1.756 0.16
-4.2930002 2.7349999 -1.756 0.16
-4.3039999 2.723 -1.758 0.039999999
-4.3130002 2.71 -1.758 0.07
-4.3200002 2.6949999 -1.757 0.14
-4.3299999 2.6830001 -1.758 0.18000001
-4.3319998 2.675 -1.757 0.039999999
-4.3410001 2.661 -1.757 0.079999998
-4.3559999 2.651 -1.76 0.14
-4.3509998 2.6300001 -1.7539999 0.039999999
-4.3660002 2.6199999 -1.757 0.15000001
-4.3740001 2.6070001 -1.757 0.050000001
-4.382 2.5929999 -1.757 0.07
-4.3829999 2.5840001 -1.756 0.079999998
-4.4099998 2.5810001 -1.7640001 0.079999998
-4.3969998 2.5550001 -1.755 0.15000001
-4.4169998 2.5480001 -1.76 0.18000001
-4.4260001 2.5350001 -1.761 0.039999999
-4.4310002 2.5190001 -1.7589999 0.14
-4.4349999 2.5120001 -1.7589999 0.19
-4.4450002 2.4990001 -1.76 0.17
-4.4569998 2.4879999 -1.762 0.17
-4.4549999 2.4690001 -1.758 0.17
-4.4710002 2.4590001 -1.761 0.18000001
-4.461 2.4349999 -1.7539999 0.039999999
-4.4819999 2.428 -1.7589999 0.07
-4.4829998 2.411 -1.756 0
-4.4899998 2.4059999 -1.758 0.12
-4.4920001 2.3889999 -1.756 0.050000001
-4.5 2.375 -1.756 0.07
-4.5170002 2.3659999 -1.76 0.079999998
-4.5209999 2.3499999 -1.758 0.15000001
-4.5339999 2.3380001 -1.761 0.039999999
-4.5240002 2.3239999 -1.755 0.15000001
-4.5279999 2.3080001 -1.7539999 0.19
-4.5380001 2.296 -1.755 0.039999999
-4.5510001 2.2839999 -1.757 0.07
-4.5479999 2.2650001 -1.753 0.039999999
-4.5560002 2.2509999 -1.7539999 0.07
-4.5689998 2.2390001 -1.756 0.039999999
-4.5619998 2.227 -1.752 0.079999998
-4.572 2.2149999 -1.753 0.079999998
-4.559 2.191 -1.745 0.039999999
-4.5879998 2.187 -1.7539999 0.07
-4.5900002 2.1700001 -1.752 0.039999999
-4.598 2.1559999 -1.752 0.07
-4.598 2.1389999 -1.749 0.079999998
-4.6030002 2.132 -1.75 0.090000004
-4.625 2.125 -1.756 0.090000004
-4.618 2.1040001 -1.751 0.079999998
-4.6279998 2.0910001 -1.752 0.039999999
-4.6479998 2.082 -1.758 0.07
-4.6360002 2.0599999 -1.75 0.16
-4.6370001 2.043 -1.748 0.039999999
-4.6469998 2.0380001 -1.751 0.07
-4.6739998 2.033 -1.7589999 0.079999998
-4.6690001 2.013 -1.7539999 0.15000001
-4.6799998 2 -1.756 0.17
-4.6830001 1.984 -1.755 0.18000001
-4.6810002 1.966 -1.752 0.039999999
-4.6880002 1.952 -1.752 0.07
-4.6830001 1.941 -1.749 0.079999998
-4.6919999 1.928 -1.75 0.039999999
-4.7160001 1.92 -1.757 0.07
-4.6989999 1.896 -1.748 0.039999999
-4.717 1.886 -1.753 0.07
-4.7199998 1.87 -1.752 0.039999999
-4.7309999 1.857 -1.7539999 0.07
-4.73 1.848 -1.752 0.039999999
-4.75 1.839 -1.758 0.07
-4.7540002 1.823 -1.757 0.16
-4.7420001 1.802 -1.75 0.050000001
-4.7639999 1.793 -1.756 0
-4.7550001 1.772 -1.751 0
-4.7670002 1.768 -1.7539999 0
-4.6799998 -2.175 -1.783 0
-4.658 -2.1819999 -1.776 0.02
-4.6350002 -2.1889999 -1.77 0.12
-4.6360002 -2.198 -1.772 0.039999999
-4.6360002 -2.2160001 -1.774 0.17
-4.631 -2.2320001 -1.775 0.11
-4.6290002 -2.2490001 -1.777 0.16
-4.6129999 -2.2590001 -1.774 0.20999999
-4.6129999 -2.277 -1.776 0.17
-4.592 -2.2850001 -1.771 0.23999999
-4.6020002 -2.299 -1.776 0.19
-4.5780001 -2.3050001 -1.77 0.12
-4.573 -2.3199999 -1.77 0.19
-4.5770001 -2.3399999 -1.775 0.11
-4.566 -2.3529999 -1.774 0.19
-4.5539999 -2.365 -1.772 0.11
-4.5679998 -2.3900001 -1.781 0.18000001
-4.5409999 -2.385 -1.771 0.20999999
-4.5479999 -2.4070001 -1.777 0.2
-4.527 -2.414 -1.772 0.22
-4.5349998 -2.437 -1.778 0.18000001
-4.5159998 -2.4449999 -1.773 0.25
-4.5240002 -2.4679999 -1.78 0.18000001
-4.5050001 -2.4760001 -1.775 0.23
-4.506 -2.4860001 -1.777 0.16
-4.4899998 -2.4949999 -1.774 0.23999999
-4.494 -2.516 -1.778 0.18000001
-4.4660001 -2.5190001 -1.77 0.25
-4.4809999 -2.546 -1.78 0.18000001
-4.4499998 -2.5469999 -1.77 0.23999999
-4.46 -2.5710001 -1.778 0.18000001
-4.4450002 -2.5710001 -1.773 0.23
-4.4299998 -2.5810001 -1.77 0.22
-4.4349999 -2.6029999 -1.776 0.17
-4.4200001 -2.6129999 -1.773 0.27000001
-4.4219999 -2.6329999 -1.777 0.19
-4.3959999 -2.6359999 -1.77 0.23999999
-4.3969998 -2.6559999 -1.774 0.23
-4.3930001 -2.6630001 -1.774 0.17
-4.381 -2.674 -1.772 0.28
-4.3889999 -2.698 -1.779 0.20999999
-4.3530002 -2.6949999 -1.767 0.12
-4.3509998 -2.7130001 -1.77 0.20999999
-4.3730001 -2.7449999 -1.783 0.18000001
-4.3429999 -2.7360001 -1.772 0.27000001
-4.3340001 -2.75 -1.772 0.22
-4.3319998 -2.767 -1.775 0.18000001
-4.309 -2.7720001 -1.7690001 0.27000001
-4.302 -2.786 -1.77 0.23
-4.3150001 -2.8139999 -1.779 0.18000001
-4.2779999 -2.809 -1.767 0.25999999
-4.2779999 -2.819 -1.7690001 0.23
-4.2820001 -2.8410001 -1.774 0.2
-4.2680001 -2.8510001 -1.772 0.13
-4.2579999 -2.8629999 -1.772 0.20999999
-4.2579999 -2.8829999 -1.776 0.18000001
-4.2350001 -2.8870001 -1.77 0.27000001
-4.2280002 -2.901 -1.77 0.23
-4.2309999 -2.9130001 -1.774 0.19
-4.2140002 -2.921 -1.77 0.27000001
-4.2059999 -2.9349999 -1.771 0.23
-4.2140002 -2.961 -1.778 0.23
-4.2010002 -2.9719999 -1.777 0.28999999
-4.1919999 -2.9849999 -1.777 0.28999999
-4.177 -2.994 -1.774 0.31
-4.1700001 -2.9990001 -1.774 0.33000001
-4.1560001 -3.0090001 -1.772 0.41
-4.1529999 -3.026 -1.774 0.41
-4.1329999 -3.0309999 -1.77 0.27000001
-4.1259999 -3.0469999 -1.771 0.36000001
-4.0970001 -3.0450001 -1.762 0.38999999
-4.0910001 -3.0599999 -1.763 0.31
-4.0809999 -3.063 -1.761 0.30000001
-4.0840001 -3.085 -1.767 0.40000001
-4.0689998 -3.0940001 -1.765 0.34
-4.0580001 -3.1059999 -1.7640001 0.44
-4.0380001 -3.1110001 -1.7589999 0.5
-4.0489998 -3.1400001 -1.7690001 0.34
-4.0110002 -3.1300001 -1.756 0.23999999
-3.9809999 -3.1170001 -1.744 0.15000001
-3.97 -3.128 -1.743 0.20999999
-3.954 -3.1359999 -1.74 0.17
-3.921 -3.1289999 -1.729 0.27000001
-3.902 -3.135 -1.725 0.22
-3.8940001 -3.148 -1.726 0.18000001
-3.8659999 -3.135 -1.715 0.25999999
-3.8410001 -3.135 -1.7079999 0.23
-3.819 -3.1359999 -1.702 0.17
-3.8 -3.141 -1.698 0.25999999
-3.779 -3.1429999 -1.692 0.16
-3.74 -3.131 -1.678 0.25999999
-3.73 -3.1429999 -1.678 0.22
-3.727 -3.1500001 -1.679 0.17
-3.6930001 -3.141 -1.6670001 0.27000001
-3.681 -3.151 -1.6670001 0.23
-3.654 -3.148 -1.658 0.17
-3.6500001 -3.164 -1.661 0.27000001
-3.6300001 -3.1670001 -1.656 0.22
-3.6300001 -3.187 -1.661 0.17
-3.608 -3.178 -1.653 0.27000001
-3.6070001 -3.197 -1.6569999 0.22
-3.599 -3.211 -1.658 0.18000001
-3.5780001 -3.2119999 -1.653 0.27000001
-3.5650001 -3.22 -1.651 0.16
-3.55 -3.227 -1.649 0.25999999
-3.5710001 -3.256 -1.6619999 0.18000001
-3.533 -3.2420001 -1.648 0.25
-3.53 -3.2590001 -1.651 0.22
-3.5090001 -3.26 -1.646 0.25
-3.5020001 -3.2750001 -1.648 0.31999999
-3.4890001 -3.2839999 -1.646 0.31
-3.471 -3.2869999 -1.642 0.28999999
-3.4679999 -3.2950001 -1.6440001 0.31
-3.4449999 -3.293 -1.637 0.28
-3.425 -3.2939999 -1.632 0.28
-3.414 -3.3050001 -1.632 0.28
