# .PCD v0.7 - Point Cloud Data file format
VERSION 0.7
FIELDS x y z intensity
SIZE 4 4 4 4
TYPE F F F F
COUNT 1 1 1 1
WIDTH 1425
HEIGHT 1
VIEWPOINT 0 0 0 1 0 0 0
POINTS 1425
DATA ascii
-0.26899999 -4.6149998 -1.744 0.33000001
-0.26100001 -4.6020002 -1.739 0.31999999
-0.24600001 -4.592 -1.734 0.40000001
-0.23199999 -4.5999999 -1.737 0.34999999
-0.21699999 -4.5970001 -1.7359999 0.34
-0.20299999 -4.6009998 -1.737 0.34
-0.189 -4.6059999 -1.739 0.33000001
-0.17399999 -4.6059999 -1.739 0.36000001
-0.167 -4.6009998 -1.7359999 0.31999999
-0.152 -4.5939999 -1.733 0.28999999
-0.138 -4.598 -1.735 0.34999999
-0.123 -4.5999999 -1.7359999 0.38999999
-0.109 -4.5970001 -1.734 0.31999999
-0.094999999 -4.6030002 -1.7359999 0.30000001
-0.079999998 -4.6160002 -1.742 0.37
-0.072999999 -4.6020002 -1.7359999 0.34
-0.057999998 -4.598 -1.734 0.31999999
-0.044 -4.5929999 -1.732 0.34
-0.028999999 -4.5960002 -1.733 0.36000001
-0.015 -4.5970001 -1.733 0.28999999
-0 -4.5999999 -1.735 0.34
0.014 -4.5910001 -1.7309999 0.34
0.021 -4.5910001 -1.7309999 0.38
0.035999998 -4.585 -1.729 0.34999999
0.050000001 -4.5939999 -1.733 0.36000001
0.064999998 -4.5960002 -1.733 0.33000001
0.079000004 -4.598 -1.734 0.34
0.093000002 -4.5939999 -1.733 0.36000001
0.108 -4.586 -1.73 0.30000001
0.115 -4.5879998 -1.73 0.38
0.13 -4.5970001 -1.734 0.36000001
0.14399999 -4.6020002 -1.7359999 0.36000001
0.15899999 -4.6139998 -1.742 0.36000001
0.17299999 -4.5929999 -1.733 0.31
0.18700001 -4.5960002 -1.735 0.33000001
0.20200001 -4.6090002 -1.74 0.25
0.20999999 -4.618 -1.744 0.22
0.22499999 -4.6259999 -1.748 0
0.23800001 -4.605 -1.739 0
0.25299999 -4.6009998 -1.738 0
0.266 -4.5799999 -1.73 0
0.28099999 -4.5809999 -1.73 0.029999999
0.294 -4.5570002 -1.722 0.07
0.30199999 -4.5760002 -1.729 0.090000004
0.31600001 -4.5760002 -1.73 0.15000001
0.331 -4.585 -1.733 0.20999999
0.34599999 -4.5910001 -1.7359999 0.039999999
0.36000001 -4.5819998 -1.733 0.079999998
0.375 -4.5830002 -1.734 0.039999999
0.389 -4.5780001 -1.733 0.07
0.396 -4.5739999 -1.7309999 0.039999999
0.41 -4.5749998 -1.732 0.07
0.426 -4.5840001 -1.7359999 0.039999999
0.43900001 -4.5760002 -1.733 0.14
0.45300001 -4.5700002 -1.732 0.050000001
0.465 -4.5409999 -1.721 0.16
0.48100001 -4.5560002 -1.728 0.2
0.486 -4.5339999 -1.719 0.22
0.50199997 -4.5539999 -1.728 0.25
0.51800001 -4.5599999 -1.73 0.28999999
0.52999997 -4.5450001 -1.725 0.2
0.54799998 -4.5689998 -1.7359999 0.30000001
0.56199998 -4.566 -1.735 0.22
0.56900001 -4.5630002 -1.734 0.050000001
0.58499998 -4.5760002 -1.74 0
0.59600002 -4.552 -1.7309999 0
0.61299998 -4.5700002 -1.739 0
2.1440001 -3.973 -1.701 0
2.1600001 -3.973 -1.704 0
2.1800001 -3.9809999 -1.71 0.059999999
2.1789999 -3.948 -1.698 0.18000001
2.204 -3.964 -1.709 0.23999999
2.2119999 -3.964 -1.71 0.25
2.2190001 -3.947 -1.706 0.31999999
2.23 -3.9389999 -1.705 0.30000001
2.2420001 -3.9300001 -1.704 0.25999999
2.2479999 -3.9130001 -1.7 0.36000001
2.2650001 -3.914 -1.704 0.31999999
2.28 -3.9119999 -1.706 0.31999999
2.2839999 -3.9030001 -1.704 0.33000001
2.2980001 -3.8989999 -1.705 0.31999999
2.312 -3.895 -1.707 0.31999999
2.3169999 -3.875 -1.701 0.31999999
2.3280001 -3.8659999 -1.7 0.28999999
2.3499999 -3.8770001 -1.7079999 0.36000001
2.3529999 -3.8529999 -1.701 0.31
2.358 -3.848 -1.7 0.28
2.3789999 -3.855 -1.707 0.38
2.388 -3.8429999 -1.704 0.36000001
2.3959999 -3.829 -1.701 0.28999999
2.4159999 -3.8340001 -1.707 0.30000001
2.4200001 -3.8139999 -1.701 0.28999999
2.434 -3.809 -1.7029999 0.36000001
2.4460001 -3.8150001 -1.707 0.34
2.441 -3.78 -1.6950001 0.27000001
2.464 -3.79 -1.7029999 0.36000001
2.477 -3.7839999 -1.704 0.28999999
2.493 -3.7820001 -1.707 0.38999999
2.494 -3.757 -1.698 0.25999999
2.516 -3.7650001 -1.706 0.38999999
2.513 -3.7490001 -1.7 0.30000001
2.526 -3.7420001 -1.701 0.34
2.54 -3.737 -1.702 0.31999999
2.5469999 -3.723 -1.699 0.31999999
2.5550001 -3.7090001 -1.696 0.34
2.5780001 -3.7179999 -1.704 0.33000001
2.5810001 -3.697 -1.698 0.30000001
2.586 -3.6919999 -1.698 0.36000001
2.6070001 -3.697 -1.704 0.34
2.6110001 -3.6789999 -1.699 0.34
2.6240001 -3.6719999 -1.7 0.31
2.6359999 -3.664 -1.7 0.31999999
2.6429999 -3.6489999 -1.697 0.33000001
2.6570001 -3.645 -1.699 0.34
2.665 -3.6440001 -1.701 0.31999999
2.6789999 -3.6389999 -1.702 0.37
2.6819999 -3.619 -1.696 0.28999999
2.7 -3.619 -1.701 0.28
2.6989999 -3.5940001 -1.692 0.31999999
2.71 -3.586 -1.692 0.31999999
2.7290001 -3.5869999 -1.698 0.36000001
2.7279999 -3.5739999 -1.693 0.34999999
2.7379999 -3.5639999 -1.692 0.38
2.756 -3.5639999 -1.697 0.40000001
2.7650001 -3.553 -1.6950001 0.40000001
2.7739999 -3.5409999 -1.694 0.40000001
2.7880001 -3.5369999 -1.696 0.38999999
2.799 -3.5280001 -1.696 0.36000001
2.803 -3.5209999 -1.6950001 0.38
2.8180001 -3.5179999 -1.698 0.38999999
2.8210001 -3.4990001 -1.692 0.38
2.836 -3.494 -1.6950001 0.38
2.8440001 -3.4820001 -1.693 0.38
2.858 -3.4760001 -1.6950001 0.38999999
2.8759999 -3.4760001 -1.699 0.34
2.8759999 -3.4660001 -1.696 0.40000001
2.882 -3.451 -1.693 0.38999999
2.8929999 -3.4419999 -1.693 0.38999999
2.9089999 -3.438 -1.696 0.38999999
2.9159999 -3.425 -1.694 0.38
2.928 -3.4170001 -1.6950001 0.38
2.9400001 -3.4089999 -1.6950001 0.36000001
2.938 -3.3959999 -1.691 0.38
2.9519999 -3.391 -1.693 0.38
2.9630001 -3.382 -1.693 0.38
2.971 -3.3699999 -1.692 0.37
2.9879999 -3.368 -1.6950001 0.40000001
3 -3.3599999 -1.696 0.36000001
3.0050001 -3.355 -1.696 0.38
3.0120001 -3.3410001 -1.694 0.37
3.0220001 -3.332 -1.694 0.38
3.0309999 -3.3210001 -1.693 0.37
3.0439999 -3.3139999 -1.6950001 0.33000001
3.0550001 -3.3039999 -1.6950001 0.41
3.0650001 -3.2950001 -1.6950001 0.34
3.072 -3.2909999 -1.6950001 0.49000001
3.089 -3.29 -1.7 0.38
3.0969999 -3.277 -1.698 0.33000001
3.109 -3.2690001 -1.699 0.31
3.122 -3.2620001 -1.701 0.36000001
3.1229999 -3.243 -1.6950001 0.27000001
3.1359999 -3.2360001 -1.697 0.38999999
3.138 -3.2279999 -1.6950001 0.28
3.1440001 -3.214 -1.693 0.31999999
3.1670001 -3.2179999 -1.701 0.37
3.1789999 -3.2090001 -1.701 0.34
3.1819999 -3.1919999 -1.698 0.31999999
3.191 -3.181 -1.697 0.28999999
3.2090001 -3.1789999 -1.701 0.36000001
3.2030001 -3.1630001 -1.6950001 0.33000001
3.2160001 -3.1559999 -1.697 0.28999999
3.2279999 -3.148 -1.698 0.31999999
3.237 -3.1370001 -1.698 0.33000001
3.2509999 -3.131 -1.7 0.37
3.2539999 -3.1140001 -1.696 0.27000001
3.273 -3.1129999 -1.701 0.34999999
3.2709999 -3.1010001 -1.698 0.33000001
3.289 -3.098 -1.702 0.34999999
3.2909999 -3.0799999 -1.698 0.34
3.2909999 -3.0610001 -1.692 0.28
3.3110001 -3.0610001 -1.698 0.36000001
3.3110001 -3.0420001 -1.693 0.30000001
3.326 -3.036 -1.696 0.36000001
3.3380001 -3.0369999 -1.7 0.30000001
3.342 -3.0220001 -1.697 0.37
3.3529999 -3.013 -1.698 0.34999999
3.365 -3.0050001 -1.699 0.34999999
3.369 -2.9890001 -1.696 0.31999999
3.381 -2.9809999 -1.698 0.38999999
3.3859999 -2.967 -1.6950001 0.31
3.3940001 -2.964 -1.697 0.37
3.395 -2.9460001 -1.692 0.30000001
3.4219999 -2.951 -1.702 0.38
3.4200001 -2.9300001 -1.696 0.34
3.434 -2.9230001 -1.698 0.28999999
3.444 -2.914 -1.699 0.34999999
3.4449999 -2.8959999 -1.6950001 0.28
3.4549999 -2.895 -1.698 0.31999999
3.464 -2.8840001 -1.698 0.34
3.4749999 -2.8740001 -1.698 0.37
3.4809999 -2.8610001 -1.697 0.28999999
3.494 -2.8540001 -1.699 0.34999999
3.497 -2.8380001 -1.696 0.37
3.51 -2.8299999 -1.698 0.31
3.5220001 -2.8310001 -1.702 0.38
3.5179999 -2.809 -1.6950001 0.25
3.5369999 -2.806 -1.701 0.38999999
3.5309999 -2.7839999 -1.693 0.27000001
3.546 -2.777 -1.696 0.40000001
3.553 -2.7650001 -1.6950001 0.31999999
3.5780001 -2.766 -1.704 0.36000001
3.5669999 -2.7490001 -1.696 0.25999999
3.582 -2.7420001 -1.699 0.36000001
3.6010001 -2.7390001 -1.704 0.33000001
3.5929999 -2.7149999 -1.696 0.27000001
3.6029999 -2.7049999 -1.697 0.38999999
3.615 -2.6960001 -1.698 0.27000001
3.619 -2.681 -1.696 0.38
3.6210001 -2.675 -1.6950001 0.33000001
3.6400001 -2.671 -1.701 0.36000001
3.641 -2.654 -1.697 0.34
3.6459999 -2.6400001 -1.6950001 0.27000001
3.6700001 -2.6400001 -1.7029999 0.43000001
3.6570001 -2.6129999 -1.692 0.25999999
3.675 -2.6170001 -1.699 0.36000001
3.6800001 -2.6029999 -1.698 0.28
3.6919999 -2.595 -1.7 0.41999999
3.704 -2.586 -1.701 0.28999999
3.71 -2.573 -1.701 0.34
3.714 -2.5580001 -1.698 0.30000001
3.7260001 -2.549 -1.701 0.36000001
3.724 -2.539 -1.698 0.28999999
3.7279999 -2.5250001 -1.6950001 0.36000001
3.7379999 -2.5150001 -1.697 0.30000001
3.7650001 -2.516 -1.706 0.38
3.757 -2.493 -1.698 0.28999999
3.77 -2.4849999 -1.701 0.28
3.77 -2.4679999 -1.697 0.36000001
3.786 -2.47 -1.7029999 0.37
3.7839999 -2.4519999 -1.698 0.25
3.7969999 -2.4430001 -1.701 0.34999999
3.8039999 -2.431 -1.701 0.31999999
3.8039999 -2.414 -1.697 0.33000001
3.812 -2.402 -1.697 0.28
3.8180001 -2.3889999 -1.696 0.31999999
3.8329999 -2.3900001 -1.701 0.37
3.8369999 -2.3759999 -1.7 0.31
3.8629999 -2.3759999 -1.709 0.38
3.8499999 -2.3510001 -1.699 0.30000001
3.8510001 -2.335 -1.696 0.28
3.8740001 -2.3329999 -1.704 0.38999999
3.8789999 -2.3180001 -1.702 0.28999999
3.881 -2.3110001 -1.701 0.34
3.8889999 -2.3 -1.702 0.34999999
3.8889999 -2.283 -1.698 0.28
3.9089999 -2.279 -1.704 0.40000001
3.9059999 -2.2609999 -1.7 0.28999999
3.915 -2.2490001 -1.701 0.31999999
3.9170001 -2.234 -1.698 0.34999999
3.924 -2.23 -1.7 0.34
3.931 -2.2179999 -1.7 0.28
3.941 -2.207 -1.701 0.40000001
3.948 -2.1949999 -1.701 0.28999999
3.961 -2.1860001 -1.704 0.31
3.974 -2.177 -1.707 0.33000001
3.9679999 -2.1570001 -1.701 0.25999999
3.973 -2.152 -1.702 0.38
3.9719999 -2.135 -1.698 0.25999999
3.987 -2.1270001 -1.702 0.34999999
3.993 -2.1140001 -1.702 0.28999999
3.9979999 -2.1010001 -1.701 0.34999999
4.013 -2.0929999 -1.705 0.34
4.013 -2.0769999 -1.702 0.30000001
4.0159998 -2.0699999 -1.702 0.34
4.0209999 -2.0569999 -1.701 0.31999999
4.0289998 -2.0450001 -1.702 0.34
4.0409999 -2.0350001 -1.704 0.31999999
4.0370002 -2.017 -1.7 0.34
4.0450001 -2.0050001 -1.701 0.28999999
4.0549998 -1.994 -1.702 0.38999999
4.0609999 -1.99 -1.704 0.34
4.0689998 -1.978 -1.704 0.30000001
4.0739999 -1.964 -1.704 0.28
4.0879998 -1.955 -1.707 0.34999999
4.086 -1.938 -1.704 0.34999999
4.085 -1.9220001 -1.701 0.28999999
4.1059999 -1.9170001 -1.707 0.41
4.1059999 -1.909 -1.706 0.28999999
4.1100001 -1.895 -1.705 0.31999999
4.1100001 -1.8789999 -1.702 0.28
4.1139998 -1.865 -1.701 0.36000001
4.118 -1.851 -1.701 0.28
4.1370001 -1.845 -1.707 0.34999999
4.1339998 -1.8279999 -1.7029999 0.28999999
4.1420002 -1.824 -1.705 0.38
4.158 -1.8150001 -1.71 0.37
4.152 -1.7970001 -1.704 0.30000001
4.1609998 -1.785 -1.706 0.34
4.1620002 -1.77 -1.704 0.31999999
4.1669998 -1.757 -1.704 0.31999999
4.1719999 -1.751 -1.704 0.27000001
4.1859999 -1.742 -1.7079999 0.38999999
4.1830001 -1.725 -1.704 0.30000001
4.1830001 -1.71 -1.702 0.28999999
4.1929998 -1.699 -1.704 0.38
4.197 -1.6849999 -1.704 0.27000001
4.2179999 -1.678 -1.71 0.38
4.2080002 -1.666 -1.705 0.28999999
4.2119999 -1.652 -1.704 0.31
4.2290001 -1.6440001 -1.71 0.31
4.2270002 -1.628 -1.707 0.34
4.2199998 -1.61 -1.701 0.30000001
4.2389998 -1.602 -1.707 0.38999999
4.2350001 -1.585 -1.704 0.31999999
4.2540002 -1.585 -1.71 0.38999999
4.2480001 -1.567 -1.706 0.25
4.2490001 -1.553 -1.704 0.36000001
4.2600002 -1.541 -1.707 0.31999999
4.2659998 -1.528 -1.707 0.31
4.2659998 -1.513 -1.705 0.34999999
4.2690001 -1.499 -1.704 0.34999999
4.2709999 -1.492 -1.704 0.30000001
4.27 -1.477 -1.702 0.28999999
4.277 -1.464 -1.7029999 0.33000001
4.3039999 -1.459 -1.7130001 0.38
4.2880001 -1.438 -1.704 0.34
4.289 -1.423 -1.702 0.30000001
4.2969999 -1.411 -1.704 0.31
4.3010001 -1.405 -1.704 0.34
4.303 -1.391 -1.704 0.34
4.3150001 -1.38 -1.707 0.31
4.303 -1.3609999 -1.7 0.31
4.3039999 -1.346 -1.698 0.28999999
4.322 -1.337 -1.704 0.36000001
4.3210001 -1.322 -1.702 0.31999999
4.3200002 -1.314 -1.701 0.30000001
4.3400002 -1.3049999 -1.707 0.34
4.3369999 -1.29 -1.704 0.34999999
4.3299999 -1.273 -1.7 0.28999999
4.3449998 -1.262 -1.704 0.34
4.3340001 -1.244 -1.698 0.28999999
4.3449998 -1.233 -1.701 0.31
4.3699999 -1.233 -1.711 0.36000001
4.3559999 -1.214 -1.704 0.31999999
4.355 -1.199 -1.701 0.28999999
4.3600001 -1.186 -1.702 0.34999999
4.362 -1.171 -1.701 0.28999999
4.368 -1.158 -1.702 0.36000001
4.3769999 -1.146 -1.704 0.31999999
4.3709998 -1.137 -1.701 0.34
4.3800001 -1.125 -1.704 0.31999999
4.382 -1.11 -1.7029999 0.28999999
4.3850002 -1.097 -1.7029999 0.31
4.3850002 -1.082 -1.701 0.31
4.4099998 -1.074 -1.71 0.34999999
4.3969998 -1.056 -1.704 0.30000001
4.4029999 -1.05 -1.705 0.31
4.4130001 -1.038 -1.7079999 0.28999999
4.4060001 -1.021 -1.704 0.31
4.4229999 -1.011 -1.71 0.36000001
4.4349999 -0.99900001 -1.7130001 0.30000001
4.4239998 -0.98199999 -1.707 0.22
4.4330001 -0.96899998 -1.71 0.30000001
4.4359999 -0.96200001 -1.71 0.25
4.4419999 -0.949 -1.712 0.11
4.4439998 -0.935 -1.711 0.13
4.4520001 -0.92199999 -1.7130001 0.039999999
4.4419999 -0.90499997 -1.7079999 0
4.461 -0.85799998 -1.712 0
4.3039999 1.161 -1.723 0
4.283 1.169 -1.716 0
4.2750001 1.182 -1.714 0.029999999
4.2729998 1.196 -1.715 0.039999999
4.2729998 1.21 -1.717 0
4.296 1.2309999 -1.728 0
4.2639999 1.2359999 -1.716 0
4.2579999 1.242 -1.714 0.029999999
4.2579999 1.256 -1.716 0.07
4.2519999 1.2690001 -1.715 0.079999998
4.2449999 1.281 -1.714 0.039999999
4.2490001 1.298 -1.717 0.07
4.2379999 1.309 -1.714 0.039999999
4.2480001 1.326 -1.72 0.13
4.2319999 1.329 -1.714 0.039999999
4.23 1.342 -1.715 0.039999999
4.2319999 1.358 -1.7180001 0.07
4.2319999 1.372 -1.72 0.14
4.2129998 1.381 -1.714 0.039999999
4.2210002 1.398 -1.719 0.17
4.2080002 1.402 -1.714 0.050000001
4.1989999 1.413 -1.712 0.15000001
4.2059999 1.4299999 -1.717 0.18000001
4.1999998 1.443 -1.717 0.1
4.1919999 1.455 -1.715 0.090000004
4.1929998 1.47 -1.717 0.15000001
4.1789999 1.48 -1.714 0.18000001
4.1810002 1.488 -1.715 0.17
4.1669998 1.498 -1.711 0.039999999
4.1690001 1.513 -1.714 0.17
4.165 1.526 -1.714 0.2
4.1630001 1.541 -1.716 0.1
4.1430001 1.548 -1.709 0.18000001
4.1550002 1.568 -1.717 0.050000001
4.1389999 1.569 -1.71 0.18000001
4.1430001 1.585 -1.714 0.050000001
4.1269999 1.594 -1.71 0.16
4.1339998 1.612 -1.715 0.050000001
4.1209998 1.6210001 -1.711 0.17
4.1329999 1.641 -1.719 0.050000001
4.1100001 1.647 -1.711 0.15000001
4.1329999 1.671 -1.723 0.19
4.1149998 1.6720001 -1.717 0.090000004
4.1079998 1.684 -1.716 0.2
4.1040001 1.697 -1.717 0.20999999
4.1090002 1.715 -1.721 0.090000004
4.092 1.722 -1.716 0.18000001
4.0999999 1.7410001 -1.722 0.11
4.0749998 1.738 -1.712 0.19
4.0830002 1.757 -1.7180001 0.11
4.0809999 1.771 -1.72 0.2
4.0739999 1.783 -1.719 0.11
4.0710001 1.7970001 -1.72 0.14
4.0770001 1.8150001 -1.726 0.090000004
4.0580001 1.822 -1.72 0.090000004
4.0650001 1.8329999 -1.724 0.19
4.046 1.84 -1.7180001 0.18000001
4.04 1.852 -1.7180001 0
4.0250001 1.86 -1.714 0.029999999
4.027 1.877 -1.717 0.13
4.0159998 1.887 -1.715 0.090000004
4 1.895 -1.71 0.18000001
4.0019999 1.904 -1.7130001 0.2
3.9979999 1.9170001 -1.714 0.1
3.984 1.926 -1.71 0.18000001
3.9890001 1.944 -1.715 0.11
3.9809999 1.956 -1.714 0.090000004
3.97 1.966 -1.712 0.16
3.9660001 1.979 -1.7130001 0.050000001
3.964 1.9859999 -1.714 0.17
3.951 1.995 -1.71 0.050000001
3.9530001 2.0120001 -1.714 0.17
3.944 2.0220001 -1.7130001 0.2
3.934 2.033 -1.711 0.1
3.9360001 2.05 -1.715 0.17
3.9260001 2.0599999 -1.714 0.20999999
3.9130001 2.0610001 -1.709 0.039999999
3.9130001 2.0769999 -1.712 0.17
3.905 2.0880001 -1.711 0.050000001
3.8929999 2.098 -1.709 0.18000001
3.8970001 2.1159999 -1.714 0.18000001
3.8900001 2.128 -1.714 0.17
3.872 2.1340001 -1.7079999 0.18000001
3.885 2.1489999 -1.716 0.16
3.8699999 2.1559999 -1.712 0.039999999
3.8469999 2.1589999 -1.704 0.15000001
3.8529999 2.1789999 -1.71 0.050000001
3.8540001 2.1960001 -1.714 0.16
3.8329999 2.1989999 -1.707 0.050000001
3.8340001 2.2160001 -1.711 0.17
3.835 2.2249999 -1.714 0.19
3.825 2.2349999 -1.712 0.16
3.8199999 2.2479999 -1.7130001 0.18000001
3.819 2.2639999 -1.716 0.18000001
3.793 2.2639999 -1.707 0.17
3.7980001 2.2839999 -1.7130001 0.039999999
3.796 2.299 -1.715 0.07
3.7809999 2.2980001 -1.71 0.14
3.78 2.3139999 -1.7130001 0.17
3.773 2.325 -1.7130001 0.17
3.7590001 2.3329999 -1.71 0.1
3.757 2.348 -1.712 0.15000001
3.757 2.365 -1.716 0.16
3.737 2.369 -1.71 0.16
3.743 2.381 -1.714 0.18000001
3.727 2.3870001 -1.71 0.16
3.7149999 2.3959999 -1.7079999 0.039999999
3.7090001 2.4089999 -1.709 0.16
3.7030001 2.421 -1.71 0.050000001
3.7019999 2.437 -1.7130001 0.079999998
3.694 2.4489999 -1.7130001 0.039999999
3.687 2.4519999 -1.711 0.079999998
3.6670001 2.4560001 -1.705 0.039999999
3.675 2.4779999 -1.7130001 0.039999999
3.665 2.4879999 -1.712 0.07
3.661 2.5020001 -1.714 0.039999999
3.6559999 2.5150001 -1.715 0.079999998
3.6429999 2.5239999 -1.7130001 0.039999999
3.641 2.53 -1.714 0.029999999
3.631 2.5409999 -1.7130001 0.079999998
3.6229999 2.552 -1.7130001 0.039999999
3.618 2.566 -1.714 0.07
3.6029999 2.572 -1.71 0.039999999
3.596 2.5840001 -1.711 0.039999999
3.5880001 2.595 -1.711 0.029999999
3.579 2.598 -1.709 0.039999999
3.579 2.6140001 -1.7130001 0.07
3.575 2.6289999 -1.715 0.039999999
3.5669999 2.6400001 -1.715 0.029999999
3.55 2.645 -1.71 0.13
3.543 2.6570001 -1.711 0.16
3.539 2.671 -1.714 0.090000004
3.529 2.6719999 -1.71 0.079999998
3.523 2.6860001 -1.712 0.039999999
3.5090001 2.6919999 -1.709 0.029999999
3.5050001 2.707 -1.711 0.039999999
3.4949999 2.717 -1.71 0.039999999
3.493 2.733 -1.714 0.079999998
3.4749999 2.7360001 -1.709 0.039999999
3.4760001 2.7460001 -1.712 0.07
3.457 2.7490001 -1.707 0.039999999
3.4560001 2.766 -1.71 0.029999999
3.457 2.7850001 -1.716 0.079999998
3.4360001 2.7850001 -1.709 0.15000001
3.4330001 2.8 -1.712 0.16
3.428 2.8150001 -1.714 0.16
3.4189999 2.8169999 -1.712 0.039999999
3.4130001 2.8299999 -1.714 0.029999999
3.3970001 2.8340001 -1.71 0
3.398 2.8540001 -1.715 0.07
3.3770001 2.8529999 -1.7079999 0.14
3.375 2.8699999 -1.712 0.039999999
3.3670001 2.882 -1.7130001 0
3.358 2.8829999 -1.71 0
3.3380001 2.8840001 -1.704 0.059999999
3.3429999 2.9070001 -1.712 0.079999998
3.3239999 2.9089999 -1.707 0.079999998
3.3269999 2.9300001 -1.714 0.039999999
3.325 2.947 -1.717 0.07
3.3099999 2.9519999 -1.714 0.14
3.302 2.954 -1.712 0.16
3.296 2.9679999 -1.714 0.039999999
3.283 2.9749999 -1.712 0.07
3.2780001 2.9890001 -1.714 0.039999999
3.267 2.9979999 -1.714 0.07
3.2520001 3.003 -1.71 0.039999999
3.2349999 3.0050001 -1.706 0.07
3.2390001 3.0190001 -1.711 0.039999999
3.223 3.023 -1.707 0.039999999
3.2190001 3.0380001 -1.71 0.039999999
3.2090001 3.049 -1.71 0.07
3.2049999 3.0639999 -1.714 0.090000004
3.1860001 3.0650001 -1.7079999 0.039999999
3.184 3.0829999 -1.7130001 0.079999998
3.177 3.085 -1.711 0.039999999
3.1659999 3.0940001 -1.71 0.039999999
3.1559999 3.1040001 -1.71 0.07
3.1500001 3.1170001 -1.7130001 0.090000004
3.1389999 3.1259999 -1.712 0.079999998
3.131 3.1370001 -1.7130001 0.090000004
3.118 3.1440001 -1.711 0.039999999
3.112 3.148 -1.71 0.079999998
3.102 3.158 -1.71 0.079999998
3.095 3.1700001 -1.712 0.039999999
3.0799999 3.174 -1.709 0.07
3.079 3.1930001 -1.714 0.090000004
3.0610001 3.1949999 -1.71 0.079999998
3.053 3.207 -1.711 0.079999998
3.0480001 3.2119999 -1.711 0.079999998
3.0420001 3.2260001 -1.714 0.16
3.036 3.2390001 -1.716 0.17
3.0150001 3.2379999 -1.71 0.16
3.0090001 3.2509999 -1.712 0.17
3 3.2620001 -1.7130001 0.17
2.9909999 3.273 -1.714 0.17
2.987 3.279 -1.714 0.17
2.9679999 3.279 -1.709 0.039999999
2.9630001 3.2939999 -1.712 0.16
2.9519999 3.303 -1.712 0.19
2.944 3.3150001 -1.714 0.18000001
2.927 3.316 -1.709 0.039999999
2.9189999 3.3280001 -1.71 0.16
2.9130001 3.332 -1.71 0.19
2.902 3.3399999 -1.71 0.1
2.8970001 3.3559999 -1.714 0.16
2.888 3.3670001 -1.714 0.18000001
2.875 3.3729999 -1.7130001 0.17
2.865 3.3829999 -1.714 0.090000004
2.8540001 3.391 -1.7130001 0.090000004
2.845 3.391 -1.71 0.18000001
2.8340001 3.4000001 -1.71 0.19
2.826 3.4119999 -1.712 0.16
2.8199999 3.4260001 -1.715 0.18000001
2.8050001 3.431 -1.7130001 0.039999999
2.79 3.434 -1.71 0.15000001
2.78 3.444 -1.71 0.050000001
2.776 3.45 -1.711 0.17
2.7639999 3.457 -1.71 0.2
2.753 3.4660001 -1.71 0.18000001
2.747 3.48 -1.714 0.18000001
2.7309999 3.483 -1.71 0.16
2.7219999 3.493 -1.711 0.039999999
2.7090001 3.5 -1.71 0.07
2.704 3.5050001 -1.71 0.079999998
2.6960001 3.517 -1.7130001 0.18000001
2.6760001 3.5139999 -1.707 0.17
2.665 3.5220001 -1.707 0.25
2.6589999 3.5369999 -1.71 0.34
2.6500001 3.5480001 -1.711 0.34
2.635 3.552 -1.709 0.41
2.628 3.566 -1.712 0.28999999
2.618 3.5639999 -1.709 0.41999999
2.612 3.5780001 -1.712 0.33000001
2.599 3.585 -1.711 0.44999999
2.5810001 3.5840001 -1.707 0.40000001
2.569 3.5910001 -1.706 0.28999999
2.563 3.6059999 -1.71 0.38999999
2.556 3.6210001 -1.7130001 0.43000001
2.5409999 3.6110001 -1.706 0.25999999
2.5380001 3.631 -1.712 0.31999999
2.5239999 3.6359999 -1.71 0.34999999
2.523 3.6589999 -1.7180001 0.34999999
2.506 3.658 -1.714 0.41
2.493 3.664 -1.7130001 0.41
2.4760001 3.664 -1.709 0.41
2.4809999 3.684 -1.717 0.38999999
2.4649999 3.6849999 -1.714 0.38
2.4549999 3.694 -1.714 0.38999999
2.4400001 3.698 -1.712 0.44999999
2.427 3.704 -1.711 0.40000001
2.415 3.71 -1.71 0.38
2.4059999 3.7219999 -1.7130001 0.40000001
2.4030001 3.73 -1.715 0.31999999
2.391 3.7360001 -1.714 0.41
2.382 3.7490001 -1.717 0.38999999
2.3659999 3.75 -1.714 0.41
2.349 3.7490001 -1.71 0.38
2.339 3.7579999 -1.71 0.38
2.326 3.7639999 -1.71 0.37
2.325 3.776 -1.714 0.41
2.3150001 3.786 -1.715 0.31999999
2.3039999 3.7950001 -1.716 0.31
2.289 3.7969999 -1.714 0.36000001
2.28 3.809 -1.716 0.40000001
2.2650001 3.812 -1.714 0.34
2.257 3.825 -1.717 0.31
2.2490001 3.825 -1.715 0.31
2.2409999 3.8399999 -1.719 0.090000004
2.2279999 3.8440001 -1.717 0.16
2.217 3.8540001 -1.719 0.16
2.2060001 3.8629999 -1.72 0.18000001
2.191 3.865 -1.717 0.090000004
2.1830001 3.878 -1.72 0.079999998
2.178 3.885 -1.722 0.090000004
2.1600001 3.881 -1.717 0.090000004
2.1470001 3.8859999 -1.716 0.19
2.135 3.892 -1.716 0.039999999
2.119 3.8929999 -1.7130001 0.16
2.1140001 3.914 -1.72 0.050000001
2.1029999 3.9219999 -1.72 0.07
2.099 3.9300001 -1.723 0.079999998
2.079 3.9219999 -1.716 0.039999999
2.069 3.9319999 -1.717 0.15000001
2.0610001 3.948 -1.722 0.18000001
2.0469999 3.9519999 -1.72 0.039999999
2.0350001 3.9579999 -1.72 0.07
2.0220001 3.9630001 -1.72 0.16
2.0150001 3.964 -1.719 0.16
2.0079999 3.9820001 -1.724 0.16
1.993 3.983 -1.722 0.16
1.979 3.9860001 -1.72 0.17
1.974 4.0089998 -1.728 0.17
1.955 4 -1.721 0.039999999
1.9400001 4.0029998 -1.72 0.079999998
1.936 4.0089998 -1.721 0.15000001
1.924 4.0170002 -1.722 0.039999999
1.913 4.027 -1.723 0.07
1.898 4.0279999 -1.721 0.039999999
1.886 4.0349998 -1.722 0.07
1.876 4.0479999 -1.725 0.079999998
1.86 4.0450001 -1.721 0.079999998
1.862 4.0669999 -1.73 0.079999998
1.839 4.0510001 -1.72 0.039999999
1.829 4.0609999 -1.722 0.07
1.821 4.079 -1.727 0.16
1.807 4.0809999 -1.726 0.039999999
1.7920001 4.0840001 -1.724 0.07
1.777 4.0819998 -1.721 0.039999999
1.767 4.0949998 -1.724 0.07
1.76 4.0960002 -1.723 0.079999998
1.748 4.105 -1.725 0.14
1.733 4.105 -1.723 0.16
1.722 4.1160002 -1.725 0.090000004
1.71 4.1230001 -1.726 0.090000004
1.694 4.1199999 -1.722 0.039999999
1.682 4.1279998 -1.723 0.07
1.675 4.1290002 -1.723 0.090000004
1.665 4.1430001 -1.726 0.14
1.65 4.1409998 -1.723 0.039999999
1.6390001 4.152 -1.726 0.07
1.626 4.1589999 -1.726 0.039999999
1.6109999 4.158 -1.724 0.07
1.599 4.165 -1.725 0.039999999
1.597 4.1799998 -1.73 0.07
1.581 4.178 -1.727 0.079999998
1.569 4.1849999 -1.728 0.039999999
1.554 4.184 -1.726 0.07
1.539 4.1859999 -1.724 0.039999999
1.527 4.1919999 -1.725 0.029999999
1.515 4.1999998 -1.726 0.07
1.508 4.2030001 -1.726 0.039999999
1.495 4.2090001 -1.727 0.07
1.482 4.2119999 -1.726 0.14
1.471 4.224 -1.73 0.039999999
1.455 4.2199998 -1.726 0.029999999
1.443 4.23 -1.728 0.07
1.427 4.2270002 -1.725 0.039999999
1.423 4.2360001 -1.728 0.039999999
1.408 4.2350001 -1.726 0
1.396 4.243 -1.727 0
1.383 4.2480001 -1.727 0.059999999
1.37 4.256 -1.729 0.039999999
1.357 4.2600002 -1.729 0.039999999
1.342 4.2610002 -1.727 0.039999999
1.325 4.2519999 -1.722 0.07
1.324 4.2740002 -1.73 0.039999999
1.306 4.2620001 -1.723 0
1.2970001 4.2800002 -1.73 0.059999999
1.284 4.2839999 -1.73 0.039999999
1.2690001 4.283 -1.727 0.039999999
1.255 4.2870002 -1.727 0.039999999
1.2410001 4.289 -1.726 0
1.235 4.2930002 -1.727 0
1.224 4.3060002 -1.7309999 0.059999999
1.2079999 4.3010001 -1.727 0.039999999
1.194 4.3039999 -1.727 0.029999999
1.178 4.2989998 -1.723 0.029999999
1.1670001 4.3099999 -1.726 0.029999999
1.159 4.3080001 -1.725 0.039999999
1.15 4.3280001 -1.732 0.029999999
1.1339999 4.3239999 -1.729 0
1.12 4.3239999 -1.727 0.029999999
1.107 4.3309999 -1.729 0.07
1.092 4.3299999 -1.726 0.039999999
1.08 4.3400002 -1.73 0
1.068 4.3470001 -1.7309999 0.059999999
1.062 4.3520002 -1.733 0.15000001
1.046 4.349 -1.73 0.039999999
1.033 4.3520002 -1.73 0.039999999
1.018 4.3530002 -1.729 0.07
1.0039999 4.3509998 -1.726 0.039999999
0.99199998 4.3629999 -1.73 0.07
0.97799999 4.3639998 -1.73 0.039999999
0.97000003 4.362 -1.728 0.07
0.958 4.3709998 -1.73 0
0.94199997 4.3649998 -1.726 0
0.92900002 4.3730001 -1.729 0.059999999
0.917 4.3850002 -1.733 0.039999999
0.903 4.3839998 -1.7309999 0.07
0.89099997 4.3940001 -1.734 0.079999998
0.88200003 4.3870001 -1.73 0.039999999
0.86900002 4.3909998 -1.7309999 0.07
0.85500002 4.3940001 -1.7309999 0.14
0.84100002 4.3979998 -1.732 0.16
0.82700002 4.3990002 -1.7309999 0.039999999
0.81400001 4.4039998 -1.732 0.07
0.79900002 4.4029999 -1.73 0.039999999
0.79299998 4.4060001 -1.7309999 0.07
0.77700001 4.401 -1.728 0.079999998
0.764 4.4050002 -1.729 0.039999999
0.75199997 4.4169998 -1.733 0.07
0.73799998 4.4190001 -1.733 0
0.72299999 4.4169998 -1.7309999 0.059999999
0.70899999 4.4180002 -1.73 0.039999999
0.70200002 4.415 -1.729 0.07
0.69099998 4.4380002 -1.737 0.039999999
0.676 4.4320002 -1.734 0.07
0.66100001 4.4330001 -1.733 0.039999999
0.64700001 4.4330001 -1.733 0.07
0.634 4.4400001 -1.735 0.14
0.62 4.4390001 -1.733 0.039999999
0.61400002 4.447 -1.7359999 0.079999998
0.59899998 4.4400001 -1.733 0.039999999
0.58499998 4.4489999 -1.7359999 0.079999998
0.56999999 4.4400001 -1.7309999 0.039999999
0.55800003 4.454 -1.7359999 0.079999998
0.54299998 4.4510002 -1.734 0.039999999
0.52899998 4.454 -1.735 0
0.52200001 4.4510002 -1.733 0.059999999
0.50800002 4.4549999 -1.734 0.14
0.49399999 4.4559999 -1.734 0.039999999
0.47999999 4.4580002 -1.734 0.039999999
0.46599999 4.4559999 -1.733 0.07
0.45199999 4.4590001 -1.733 0.039999999
0.43799999 4.4660001 -1.7359999 0.07
0.42399999 4.4650002 -1.735 0.039999999
0.41800001 4.4720001 -1.737 0.079999998
0.403 4.4689999 -1.7359999 0.039999999
0.389 4.4650002 -1.733 0.07
0.375 4.474 -1.7359999 0.039999999
0.361 4.4770002 -1.737 0.07
0.347 4.467 -1.733 0.039999999
0.333 4.4770002 -1.7359999 0.07
0.32600001 4.4790001 -1.737 0.039999999
0.31200001 4.4689999 -1.733 0
0.29899999 4.487 -1.739 0
0.28400001 4.48 -1.7359999 0.059999999
0.27000001 4.4850001 -1.738 0.039999999
0.25600001 4.4819999 -1.7359999 0.07
0.242 4.4850001 -1.737 0.079999998
0.235 4.4899998 -1.739 0.079999998
0.221 4.4889998 -1.739 0.15000001
0.207 4.4860001 -1.737 0.16
0.192 4.4850001 -1.7359999 0.039999999
0.17900001 4.493 -1.739 0.07
0.164 4.4860001 -1.7359999 0.090000004
0.15000001 4.487 -1.7359999 0.14
0.14300001 4.493 -1.739 0.16
0.12899999 4.4949999 -1.739 0.1
0.115 4.493 -1.739 0.039999999
0.101 4.494 -1.739 0.07
0.086999997 4.4899998 -1.737 0.039999999
0.072999999 4.5050001 -1.743 0.07
0.059 4.5040002 -1.743 0.079999998
0.052000001 4.4980001 -1.74 0.090000004
0.037 4.5019999 -1.742 0.090000004
0.023 4.5019999 -1.742 0.039999999
0.0089999996 4.5040002 -1.743 0.07
-0.0049999999 4.4980001 -1.74 0.079999998
-0.018999999 4.506 -1.743 0.039999999
-0.033 4.5019999 -1.742 0
-0.039999999 4.5040002 -1.743 0.059999999
-0.055 4.5040002 -1.743 0.14
-0.068999998 4.507 -1.744 0.16
-0.082999997 4.5050001 -1.743 0.039999999
-0.097000003 4.507 -1.744 0.079999998
-0.111 4.5100002 -1.7460001 0.15000001
-0.126 4.5149999 -1.748 0.17
-0.14 4.507 -1.745 0.039999999
-0.147 4.5089998 -1.7460001 0.07
-0.161 4.5120001 -1.747 0.15000001
-0.175 4.5079999 -1.7460001 0.039999999
-0.189 4.507 -1.7460001 0.039999999
-0.20299999 4.5029998 -1.744 0.07
-0.21799999 4.506 -1.7460001 0.14
-0.23199999 4.5110002 -1.748 0.16
-0.23899999 4.5089998 -1.747 0.17
-0.25299999 4.4970002 -1.743 0.039999999
-0.26800001 4.5089998 -1.748 0.07
-0.28099999 4.5009999 -1.745 0.039999999
-0.296 4.5089998 -1.749 0.07
-0.31 4.5029998 -1.7460001 0.079999998
-0.31600001 4.4910002 -1.742 0.079999998
-0.331 4.4970002 -1.745 0.090000004
-0.345 4.5 -1.7460001 0.15000001
-0.36000001 4.5029998 -1.748 0.16
-0.37400001 4.5050001 -1.749 0.17
-0.389 4.5100002 -1.752 0.17
-0.40200001 4.5050001 -1.75 0.039999999
-0.41600001 4.4980001 -1.748 0.07
-0.42300001 4.4970002 -1.748 0.14
-0.43700001 4.4980001 -1.749 0.039999999
-0.45100001 4.493 -1.747 0
-0.46599999 4.4949999 -1.749 0.029999999
-0.479 4.4840002 -1.745 0.14
-0.49399999 4.4920001 -1.749 0.050000001
-0.50700003 4.4850001 -1.7460001 0.039999999
-0.51700002 4.5040002 -1.755 0.079999998
-0.52899998 4.4879999 -1.749 0.090000004
-0.54400003 4.493 -1.752 0.15000001
-0.55800003 4.4860001 -1.749 0.039999999
-0.57099998 4.4790001 -1.747 0.039999999
-0.58600003 4.4829998 -1.749 0.07
-0.60100001 4.4860001 -1.752 0.039999999
-0.60799998 4.487 -1.752 0.079999998
-0.62099999 4.48 -1.75 0.079999998
-0.63499999 4.4759998 -1.749 0.039999999
-0.64999998 4.4770002 -1.751 0.07
-0.66299999 4.4720001 -1.749 0.079999998
-0.68000001 4.4860001 -1.756 0.079999998
-0.69199997 4.4710002 -1.751 0.079999998
-0.69800001 4.4629998 -1.748 0.039999999
-0.71200001 4.4640002 -1.749 0.029999999
-0.72600001 4.4580002 -1.748 0.07
-0.741 4.4629998 -1.751 0.14
-0.755 4.461 -1.751 0.039999999
-0.76999998 4.4660001 -1.7539999 0.07
-0.78299999 4.4559999 -1.751 0.14
-0.796 4.4460001 -1.748 0.039999999
-0.80400002 4.4520001 -1.751 0.07
-0.81699997 4.4439998 -1.749 0.090000004
-0.83399999 4.4559999 -1.755 0.15000001
-0.847 4.448 -1.752 0.039999999
-0.86000001 4.4419999 -1.751 0.029999999
-0.87300003 4.4369998 -1.75 0.07
-0.89099997 4.4549999 -1.7589999 0.039999999
-0.89399999 4.4330001 -1.75 0.07
-0.90899998 4.4320002 -1.751 0.039999999
-0.92199999 4.428 -1.75 0.07
-0.935 4.421 -1.749 0.039999999
-0.95099998 4.4250002 -1.752 0.079999998
-0.96499997 4.4260001 -1.753 0.13
-0.977 4.414 -1.749 0.039999999
-0.986 4.4190001 -1.752 0.029999999
-0.99800003 4.4070001 -1.749 0.029999999
-1.012 4.408 -1.75 0.07
-1.025 4.3990002 -1.748 0.039999999
-1.041 4.4050002 -1.752 0
-1.052 4.3909998 -1.747 0.050000001
-1.068 4.3959999 -1.751 0.039999999
-1.0779999 4.4060001 -1.755 0.07
-1.0880001 4.388 -1.749 0.039999999
-1.103 4.388 -1.751 0.07
-1.114 4.3759999 -1.747 0.039999999
-1.131 4.3829999 -1.752 0.07
-1.147 4.388 -1.755 0.079999998
-1.158 4.3740001 -1.751 0.039999999
-1.165 4.3740001 -1.752 0.14
-1.178 4.368 -1.751 0.050000001
-1.1950001 4.3769999 -1.756 0.07
-1.207 4.3639998 -1.752 0.039999999
-1.221 4.3639998 -1.7539999 0.07
-1.235 4.3579998 -1.753 0.039999999
-1.248 4.3530002 -1.752 0.039999999
-1.263 4.3520002 -1.7539999 0.07
-1.268 4.3470001 -1.752 0.039999999
-1.285 4.3520002 -1.756 0.07
-1.296 4.3410001 -1.753 0
-1.3099999 4.3379998 -1.7539999 0.059999999
-1.322 4.3270001 -1.751 0.039999999
-1.339 4.3330002 -1.755 0.029999999
-1.349 4.3189998 -1.751 0.039999999
-1.358 4.3249998 -1.755 0.07
-1.3710001 4.3169999 -1.753 0.039999999
-1.386 4.3169999 -1.755 0.07
-1.399 4.3109999 -1.7539999 0.090000004
-1.413 4.3099999 -1.755 0.039999999
-1.4299999 4.316 -1.76 0.079999998
-1.4400001 4.2989998 -1.755 0.039999999
-1.447 4.2979999 -1.755 0.07
-1.46 4.2919998 -1.755 0.079999998
-1.477 4.2979999 -1.7589999 0.079999998
-1.485 4.2779999 -1.752 0.039999999
-1.5039999 4.2870002 -1.7589999 0.039999999
-1.518 4.2839999 -1.7589999 0.07
-1.531 4.2789998 -1.7589999 0.039999999
-1.5369999 4.2750001 -1.7589999 0.07
-1.549 4.2670002 -1.757 0.039999999
-1.564 4.2649999 -1.7589999 0.07
-1.575 4.2550001 -1.756 0.090000004
-1.591 4.257 -1.7589999 0.039999999
-1.605 4.2519999 -1.7589999 0.07
-1.615 4.2399998 -1.756 0.14
-1.627 4.2509999 -1.762 0.18000001
-1.638 4.2389998 -1.7589999 0.090000004
-1.649 4.2270002 -1.756 0.079999998
-1.665 4.2290001 -1.7589999 0.039999999
-1.677 4.2199998 -1.758 0.07
-1.691 4.2179999 -1.7589999 0.039999999
-1.705 4.2150002 -1.76 0.07
-1.7079999 4.2020001 -1.755 0.039999999
-1.722 4.1999998 -1.757 0.07
-1.735 4.1939998 -1.757 0.079999998
-1.751 4.1960001 -1.76 0.039999999
-1.765 4.1919999 -1.761 0.07
-1.781 4.1929998 -1.7640001 0.079999998
-1.79 4.177 -1.7589999 0.079999998
-1.801 4.1849999 -1.7640001 0.090000004
-1.813 4.1760001 -1.762 0.090000004
-1.825 4.1680002 -1.762 0.039999999
-1.836 4.1570001 -1.7589999 0.039999999
-1.853 4.1599998 -1.763 0.07
-1.862 4.1459999 -1.7589999 0.039999999
-1.876 4.1420002 -1.76 0.15000001
-1.89 4.1370001 -1.761 0.2
-1.905 4.1529999 -1.7690001 0.18000001
-1.91 4.1300001 -1.762 0.039999999
-1.924 4.1259999 -1.762 0.07
-1.936 4.118 -1.762 0.079999998
-1.949 4.112 -1.762 0.16
-1.964 4.1110001 -1.7640001 0.039999999
-1.979 4.1079998 -1.765 0.039999999
-1.984 4.1030002 -1.765 0.07
-1.997 4.0970001 -1.765 0.039999999
-2.0109999 4.092 -1.765 0.13
-2.023 4.0840001 -1.765 0.16
-2.039 4.0840001 -1.768 0.18000001
-2.053 4.0799999 -1.768 0.17
-2.056 4.0549998 -1.76 0.039999999
-2.0680001 4.0619998 -1.765 0.07
-2.0799999 4.0549998 -1.765 0.039999999
-2.0929999 4.0489998 -1.765 0.079999998
-2.1029999 4.0370002 -1.762 0.039999999
-2.1210001 4.04 -1.767 0.07
-2.1300001 4.027 -1.7640001 0.090000004
-2.1429999 4.02 -1.7640001 0.090000004
-2.1530001 4.0229998 -1.767 0.079999998
-2.1619999 4.0100002 -1.7640001 0.079999998
-2.1800001 4.013 -1.768 0.090000004
-2.1900001 4.0009999 -1.766 0.079999998
-2.2 3.99 -1.7640001 0.039999999
-2.21 3.98 -1.762 0.079999998
-2.2290001 3.984 -1.768 0.079999998
-2.23 3.971 -1.763 0.079999998
-2.243 3.9649999 -1.7640001 0.090000004
-2.257 3.96 -1.765 0.079999998
-2.2679999 3.951 -1.7640001 0.090000004
-2.286 3.9530001 -1.768 0.090000004
-2.2969999 3.9430001 -1.767 0.079999998
-2.306 3.931 -1.765 0.079999998
-2.3169999 3.921 -1.763 0.039999999
-2.322 3.915 -1.762 0.14
-2.3410001 3.9189999 -1.768 0.2
-2.3499999 3.9070001 -1.765 0.090000004
-2.365 3.904 -1.768 0.090000004
-2.378 3.8970001 -1.768 0.090000004
-2.3940001 3.8959999 -1.771 0.14
-2.405 3.8870001 -1.77 0.18000001
-2.4100001 3.881 -1.7690001 0.16
-2.421 3.872 -1.768 0.17
-2.431 3.8599999 -1.766 0.090000004
-2.4489999 3.862 -1.771 0.090000004
-2.4590001 3.8510001 -1.7690001 0.18000001
-2.471 3.8429999 -1.7690001 0.039999999
-2.483 3.835 -1.7690001 0.13
-2.4879999 3.8299999 -1.768 0.050000001
-2.5 3.822 -1.768 0.17
-2.517 3.822 -1.772 0.19
-2.5250001 3.8080001 -1.7690001 0.18000001
-2.5420001 3.8069999 -1.773 0.090000004
-2.5539999 3.799 -1.773 0.18000001
-2.5610001 3.7839999 -1.7690001 0.2
-2.5669999 3.78 -1.7690001 0.039999999
-2.573 3.7639999 -1.765 0.15000001
-2.5910001 3.7650001 -1.77 0.19
-2.602 3.7550001 -1.7690001 0.039999999
-2.6059999 3.737 -1.7640001 0.15000001
-2.6259999 3.7390001 -1.7690001 0.18000001
-2.6359999 3.7290001 -1.768 0.17
-2.6500001 3.7349999 -1.774 0.1
-2.6570001 3.721 -1.771 0.039999999
-2.674 3.72 -1.775 0.07
-2.6830001 3.707 -1.772 0.090000004
-2.6949999 3.7 -1.773 0.090000004
-2.7049999 3.6889999 -1.772 0.079999998
-2.7190001 3.6830001 -1.773 0.079999998
-2.72 3.6730001 -1.77 0.079999998
-2.737 3.6719999 -1.774 0.090000004
-2.744 3.658 -1.771 0.079999998
-2.7520001 3.6440001 -1.768 0.039999999
-2.7639999 3.6359999 -1.768 0
-2.783 3.6370001 -1.774 0
-2.79 3.6229999 -1.771 0
-2.8150001 3.631 -1.78 0
-1.176 1.415 -0.64300001 0
-3.425 3.178 -1.812 0
-3.4030001 3.1470001 -1.7970001 0
-3.3989999 3.1240001 -1.789 0.029999999
-3.392 3.099 -1.78 0.029999999
-3.405 3.0910001 -1.781 0.07
-3.408 3.0739999 -1.778 0.039999999
-3.4200001 3.0650001 -1.779 0.07
-3.4260001 3.0510001 -1.777 0.039999999
-3.441 3.0450001 -1.78 0.07
-3.4449999 3.04 -1.78 0.039999999
-3.4619999 3.0350001 -1.784 0.079999998
-3.464 3.0179999 -1.78 0.039999999
-3.477 3.0090001 -1.781 0.079999998
-3.4860001 2.9979999 -1.781 0.079999998
-3.49 2.983 -1.778 0.090000004
-3.4990001 2.9719999 -1.778 0.039999999
-3.5179999 2.9779999 -1.786 0.07
-3.5120001 2.954 -1.778 0.039999999
-3.5309999 2.951 -1.783 0.07
-3.526 2.928 -1.775 0.039999999
-3.5409999 2.9219999 -1.778 0.07
-3.553 2.9130001 -1.78 0.14
-3.5639999 2.9030001 -1.781 0.039999999
-3.5610001 2.892 -1.777 0.029999999
-3.5710001 2.882 -1.778 0.07
-3.582 2.872 -1.778 0.039999999
-3.6029999 2.8699999 -1.784 0.07
-3.5969999 2.8469999 -1.777 0.039999999
-3.6129999 2.8410001 -1.781 0.029999999
-3.619 2.8280001 -1.779 0.07
-3.6289999 2.826 -1.7819999 0.16
-3.6340001 2.812 -1.78 0.039999999
-3.6440001 2.8010001 -1.781 0
-3.6530001 2.79 -1.781 0.029999999
-3.6600001 2.777 -1.78 0.07
-3.665 2.7620001 -1.778 0.039999999
-3.684 2.7590001 -1.783 0.07
-3.688 2.753 -1.783 0.13
-3.7 2.743 -1.784 0.039999999
-3.6960001 2.723 -1.778 0.07
-3.714 2.7179999 -1.783 0.079999998
-3.724 2.707 -1.784 0.079999998
-3.7309999 2.6949999 -1.783 0.079999998
-3.73 2.6760001 -1.778 0.039999999
-3.7520001 2.6830001 -1.788 0.07
-3.7550001 2.6670001 -1.784 0.039999999
-3.76 2.6530001 -1.783 0.07
-3.7709999 2.6440001 -1.784 0.15000001
-3.777 2.6300001 -1.783 0.039999999
-3.779 2.6140001 -1.78 0.029999999
-3.7980001 2.609 -1.785 0.07
-3.7939999 2.598 -1.781 0.039999999
-3.8099999 2.5910001 -1.785 0.07
-3.823 2.582 -1.788 0.039999999
-3.8280001 2.5680001 -1.786 0.07
-3.8299999 2.552 -1.783 0.039999999
-3.8380001 2.54 -1.783 0.029999999
-3.8440001 2.527 -1.7819999 0.039999999
-3.8540001 2.5250001 -1.785 0.079999998
-3.865 2.5150001 -1.7869999 0.039999999
-3.881 2.5079999 -1.791 0.079999998
-3.8729999 2.4849999 -1.783 0.079999998
-3.8870001 2.477 -1.786 0.039999999
-3.892 2.4630001 -1.784 0.079999998
-3.9089999 2.457 -1.789 0.079999998
-3.9189999 2.454 -1.7920001 0.090000004
-3.9189999 2.437 -1.788 0.079999998
-3.9189999 2.4200001 -1.784 0.039999999
-3.934 2.4130001 -1.788 0.079999998
-3.9389999 2.398 -1.7869999 0.039999999
-3.944 2.385 -1.786 0.14
-3.9690001 2.3829999 -1.794 0.2
-3.967 2.3729999 -1.791 0.039999999
-3.961 2.3529999 -1.785 0.039999999
-3.97 2.3410001 -1.786 0.16
-3.9890001 2.335 -1.791 0.19
-3.9949999 2.322 -1.791 0.039999999
-4.007 2.312 -1.793 0.16
-4.0159998 2.3 -1.794 0.19
-4.0159998 2.2839999 -1.791 0.090000004
-4.0279999 2.2820001 -1.794 0.090000004
-4.0300002 2.267 -1.7920001 0.079999998
-4.0419998 2.257 -1.794 0.090000004
-4.0479999 2.243 -1.794 0.039999999
-4.0450001 2.2249999 -1.789 0.17
-4.0669999 2.221 -1.796 0.2
-4.0700002 2.2060001 -1.794 0.18000001
-4.0749998 2.201 -1.795 0.18000001
-4.0840001 2.1889999 -1.796 0.039999999
-4.0879998 2.174 -1.794 0.17
-4.0939999 2.161 -1.794 0.039999999
-4.098 2.1470001 -1.793 0.17
-4.1129999 2.138 -1.7970001 0.050000001
-4.1030002 2.1170001 -1.789 0.14
-4.1240001 2.119 -1.7970001 0.19
-4.1279998 2.105 -1.796 0.16
-4.1339998 2.092 -1.796 0.090000004
-4.1409998 2.079 -1.796 0.16
-4.1490002 2.0669999 -1.7970001 0.090000004
-4.1570001 2.0539999 -1.7970001 0.16
-4.1700001 2.0439999 -1.801 0.19
-4.1599998 2.0309999 -1.794 0.25
-4.1669998 2.0179999 -1.794 0.33000001
-4.1830001 2.01 -1.799 0.25
-4.1890001 1.997 -1.799 0
-4.1900001 1.9809999 -1.7970001 0
-4.2030001 1.971 -1.8 0
-4.2080002 1.965 -1.801 0
-4.2179999 1.954 -1.802 0
-4.0760002 -2.1559999 -1.7869999 0
-4.0679998 -2.168 -1.786 0
-4.0539999 -2.178 -1.783 0.059999999
-4.0339999 -2.1830001 -1.777 0.16
-4.0310001 -2.198 -1.778 0.039999999
-4.0170002 -2.207 -1.775 0.15000001
-4.0149999 -2.214 -1.776 0.19
-4.0180001 -2.2320001 -1.781 0.17
-4.0100002 -2.244 -1.78 0.18000001
-3.99 -2.2490001 -1.774 0.090000004
-3.984 -2.2620001 -1.775 0.2
-3.9849999 -2.28 -1.778 0.050000001
-3.97 -2.2869999 -1.775 0.17
-3.9690001 -2.2950001 -1.776 0.050000001
-3.964 -2.309 -1.777 0.18000001
-3.957 -2.3210001 -1.777 0.19
-3.957 -2.3380001 -1.781 0.19
-3.9430001 -2.3469999 -1.778 0.20999999
-3.9360001 -2.359 -1.778 0.090000004
-3.9219999 -2.368 -1.775 0.2
-3.928 -2.3800001 -1.779 0.050000001
-3.9059999 -2.3829999 -1.772 0.16
-3.911 -2.404 -1.778 0.11
-3.901 -2.414 -1.777 0.17
-3.888 -2.4230001 -1.775 0.22
-3.881 -2.4349999 -1.775 0.1
-3.868 -2.4449999 -1.772 0.19
-3.872 -2.4560001 -1.776 0.050000001
-3.862 -2.4660001 -1.775 0.18000001
-3.8510001 -2.4760001 -1.773 0.2
-3.846 -2.49 -1.775 0.1
-3.8410001 -2.5039999 -1.776 0.16
-3.8299999 -2.5139999 -1.775 0.20999999
-3.825 -2.5280001 -1.776 0.1
-3.809 -2.526 -1.77 0.19
-3.806 -2.5409999 -1.772 0.2
-3.799 -2.5539999 -1.773 0.17
-3.7939999 -2.5680001 -1.775 0.19
-3.786 -2.5799999 -1.775 0.23999999
-3.7739999 -2.589 -1.772 0.1
-3.77 -2.6040001 -1.775 0.16
-3.7539999 -2.6010001 -1.768 0.20999999
-3.7490001 -2.615 -1.77 0.20999999
-3.7420001 -2.628 -1.771 0.11
-3.7309999 -2.6370001 -1.7690001 0.18000001
-3.727 -2.652 -1.772 0.050000001
-3.7119999 -2.6600001 -1.768 0.17
-3.704 -2.671 -1.768 0.2
-3.71 -2.6849999 -1.774 0.18000001
-3.6989999 -2.694 -1.772 0.17
-3.6919999 -2.707 -1.773 0.23
-3.6819999 -2.717 -1.772 0.2
-3.6700001 -2.727 -1.771 0.20999999
-3.654 -2.733 -1.767 0.090000004
-3.6440001 -2.743 -1.766 0.19
-3.642 -2.75 -1.767 0.18000001
-3.642 -2.7679999 -1.772 0.1
-3.6270001 -2.7750001 -1.768 0.18000001
-3.6259999 -2.7920001 -1.772 0.11
-3.608 -2.7969999 -1.768 0.18000001
-3.608 -2.8150001 -1.772 0.12
-3.595 -2.823 -1.77 0.18000001
-3.589 -2.8269999 -1.7690001 0.050000001
-3.5710001 -2.8310001 -1.765 0.16
-3.5739999 -2.852 -1.771 0.11
-3.552 -2.8529999 -1.7640001 0.2
-3.552 -2.8710001 -1.768 0.11
-3.5469999 -2.8859999 -1.771 0.19
-3.5320001 -2.892 -1.768 0.19
-3.53 -2.9000001 -1.7690001 0.2
-3.5190001 -2.9089999 -1.768 0.20999999
-3.5079999 -2.918 -1.767 0.18000001
-3.4960001 -2.927 -1.765 0.1
-3.4879999 -2.9389999 -1.766 0.19
-3.487 -2.957 -1.771 0.1
-3.467 -2.9590001 -1.765 0.18000001
-3.4760001 -2.9760001 -1.772 0.11
-3.4400001 -2.964 -1.758 0.19
-3.4449999 -2.987 -1.765 0.2
-3.444 -3.0050001 -1.77 0.1
-3.4289999 -3.0109999 -1.767 0.19
-3.418 -3.0209999 -1.766 0.2
-3.414 -3.036 -1.7690001 0.090000004
-3.391 -3.0250001 -1.7589999 0.079999998
-3.395 -3.049 -1.767 0.16
-3.3840001 -3.0580001 -1.766 0.12
-3.3800001 -3.0739999 -1.7690001 0.17
-3.3599999 -3.0739999 -1.763 0.050000001
-3.3540001 -3.0880001 -1.765 0.16
-3.342 -3.096 -1.7640001 0.1
-3.336 -3.0999999 -1.763 0.090000004
-3.3340001 -3.119 -1.768 0.18000001
-3.3199999 -3.125 -1.765 0.20999999
-3.3099999 -3.1359999 -1.765 0.2
-3.299 -3.145 -1.765 0.050000001
-3.2739999 -3.141 -1.756 0.18000001
-3.277 -3.1630001 -1.763 0.11
-3.2690001 -3.165 -1.762 0.2
-3.2639999 -3.181 -1.765 0.11
-3.2479999 -3.184 -1.761 0.19
-3.24 -3.197 -1.762 0.050000001
-3.234 -3.211 -1.765 0.18000001
-3.217 -3.2149999 -1.761 0.11
-3.224 -3.2420001 -1.771 0.16
-3.2130001 -3.2409999 -1.767 0.20999999
-3.1960001 -3.244 -1.763 0.1
-3.1860001 -3.2539999 -1.763 0.19
-3.174 -3.263 -1.762 0.18000001
-3.1589999 -3.267 -1.7589999 0.090000004
-3.154 -3.283 -1.762 0.15000001
-3.1400001 -3.289 -1.76 0.23
-3.1300001 -3.3 -1.761 0.1
-3.1240001 -3.303 -1.76 0.2
-3.1140001 -3.313 -1.76 0.11
-3.0969999 -3.316 -1.756 0.19
-3.0929999 -3.3329999 -1.76 0.2
-3.0869999 -3.348 -1.763 0.18000001
-3.0669999 -3.346 -1.757 0.16
-3.0650001 -3.355 -1.7589999 0.17
-3.0769999 -3.3900001 -1.773 0
-3.049 -3.3800001 -1.762 0
-3.04 -3.391 -1.763 0
-1.026 -1.501 -0.63300002 0
-2.5339999 -3.9230001 -1.811 0
-2.5020001 -3.9000001 -1.796 0
-2.47 -3.8759999 -1.781 0.02
-2.4530001 -3.8759999 -1.777 0.029999999
-2.4219999 -3.852 -1.762 0.07
-2.4089999 -3.8599999 -1.762 0.18000001
-2.3989999 -3.8570001 -1.7589999 0.20999999
-2.391 -3.8710001 -1.762 0.1
-2.3710001 -3.8659999 -1.755 0.18000001
-2.358 -3.872 -1.755 0.2
-2.3499999 -3.8859999 -1.758 0.090000004
-2.3440001 -3.904 -1.763 0.090000004
-2.322 -3.8940001 -1.755 0.2
-2.3180001 -3.902 -1.757 0.20999999
-2.309 -3.915 -1.7589999 0.1
-2.2880001 -3.9070001 -1.752 0.090000004
-2.273 -3.9100001 -1.75 0.18000001
-2.2739999 -3.9389999 -1.761 0.20999999
-2.2520001 -3.9300001 -1.753 0.090000004
-2.2409999 -3.9389999 -1.7539999 0.2
-2.23 -3.9489999 -1.755 0.2
-2.23 -3.964 -1.761 0.1
-2.211 -3.9579999 -1.755 0.19
-2.2049999 -3.9779999 -1.761 0.11
-2.1930001 -3.9849999 -1.761 0.18000001
-2.174 -3.98 -1.755 0.050000001
-2.1589999 -3.9820001 -1.753 0.16
-2.1600001 -3.9990001 -1.7589999 0.19
-2.145 -4.0009999 -1.757 0.17
-2.132 -4.007 -1.757 0.23999999
-2.122 -4.0190001 -1.7589999 0.090000004
-2.109 -4.026 -1.7589999 0.17
-2.0940001 -4.027 -1.757 0.20999999
-2.079 -4.0289998 -1.755 0.18000001
-2.073 -4.0339999 -1.755 0.23999999
-2.062 -4.0440001 -1.757 0.19
-2.049 -4.0479999 -1.756 0.22
-2.0380001 -4.0580001 -1.758 0.1
-2.017 -4.0479999 -1.75 0.2
-2.0079999 -4.0630002 -1.7539999 0.11
-1.995 -4.0669999 -1.753 0.2
-1.988 -4.0700002 -1.753 0.11
-1.979 -4.085 -1.757 0.2
-1.966 -4.0890002 -1.756 0.2
-1.948 -4.085 -1.752 0.18000001
-1.941 -4.1030002 -1.757 0.23
-1.926 -4.1059999 -1.755 0.20999999
-1.9119999 -4.1090002 -1.7539999 0.22
-1.905 -4.112 -1.7539999 0.1
-1.893 -4.118 -1.7539999 0.20999999
-1.877 -4.1170001 -1.751 0.11
-1.8710001 -4.1399999 -1.7589999 0.18000001
-1.857 -4.1420002 -1.757 0.22
-1.84 -4.1389999 -1.753 0.18000001
-1.829 -4.1500001 -1.755 0.23
-1.818 -4.1430001 -1.751 0.18000001
-1.809 -4.1570001 -1.755 0.23999999
-1.793 -4.1560001 -1.752 0.18000001
-1.783 -4.1680002 -1.755 0.25
-1.766 -4.165 -1.751 0.18000001
-1.755 -4.1760001 -1.753 0.050000001
-1.74 -4.178 -1.752 0.17
-1.734 -4.1810002 -1.752 0.1
-1.722 -4.1900001 -1.753 0.17
-1.71 -4.197 -1.7539999 0.12
-1.6900001 -4.1849999 -1.7460001 0.18000001
-1.683 -4.2059999 -1.753 0.11
-1.669 -4.2090001 -1.752 0.19
-1.654 -4.211 -1.751 0.2
-1.653 -4.2280002 -1.757 0.19
-1.636 -4.224 -1.753 0.22
-1.622 -4.2270002 -1.752 0.18000001
-1.613 -4.243 -1.757 0.23
-1.594 -4.2340002 -1.751 0.16
-1.5829999 -4.244 -1.753 0.23
-1.577 -4.2680001 -1.762 0.19
-1.567 -4.2639999 -1.7589999 0.12
-1.548 -4.2529998 -1.752 0.18000001
-1.539 -4.2680001 -1.756 0.2
-1.528 -4.2820001 -1.76 0.20999999
-1.5089999 -4.2709999 -1.753 0.22
-1.498 -4.2810001 -1.755 0.19
-1.487 -4.2930002 -1.7589999 0.23
-1.478 -4.29 -1.756 0.23
-1.466 -4.2979999 -1.758 0.11
-1.454 -4.3060002 -1.7589999 0.18000001
-1.439 -4.309 -1.7589999 0.23
-1.428 -4.3200002 -1.762 0.18000001
-1.415 -4.3270001 -1.762 0.23
-1.398 -4.3200002 -1.758 0.2
-1.395 -4.335 -1.763 0.23
-1.381 -4.3379998 -1.762 0.19
-1.37 -4.349 -1.765 0.20999999
-1.358 -4.3579998 -1.768 0.16
-1.342 -4.3559999 -1.765 0.23
-1.3279999 -4.3600001 -1.765 0.19
-1.3150001 -4.3660002 -1.765 0.23999999
-1.308 -4.3660002 -1.765 0.090000004
-1.293 -4.3670001 -1.763 0.2
-1.284 -4.388 -1.771 0.2
-1.266 -4.3779998 -1.765 0.25
-1.257 -4.3959999 -1.771 0.19
-1.24 -4.3909998 -1.767 0.22
-1.224 -4.3860002 -1.763 0.22
-1.22 -4.3990002 -1.768 0.11
-1.204 -4.3940001 -1.7640001 0.19
-1.191 -4.401 -1.765 0.2
-1.181 -4.421 -1.772 0.19
-1.165 -4.414 -1.768 0.22
-1.149 -4.4120002 -1.765 0.2
-1.136 -4.4159999 -1.765 0.22
-1.127 -4.4099998 -1.762 0.19
-1.1160001 -4.427 -1.768 0.23
-1.103 -4.434 -1.7690001 0.19
-1.086 -4.4239998 -1.7640001 0.22
-1.072 -4.4260001 -1.763 0.2
-1.058 -4.4310002 -1.7640001 0.12
-1.044 -4.4330001 -1.763 0.2
-1.0369999 -4.4359999 -1.7640001 0.11
-1.025 -4.448 -1.768 0.18000001
-1.0089999 -4.441 -1.763 0.22
-0.995 -4.4439998 -1.763 0.2
-0.98000002 -4.4429998 -1.762 0.20999999
-0.96799999 -4.4520001 -1.7640001 0.20999999
-0.95300001 -4.4530001 -1.763 0.12
-0.94700003 -4.4580002 -1.765 0.2
-0.93099999 -4.4520001 -1.761 0.11
-0.91500002 -4.4460001 -1.757 0.2
-0.903 -4.4580002 -1.761 0.11
-0.89099997 -4.4679999 -1.7640001 0.2
-0.87599999 -4.4710002 -1.7640001 0.2
-0.86199999 -4.4699998 -1.762 0.23999999
-0.85399997 -4.467 -1.761 0.2
-0.84100002 -4.474 -1.762 0.12
-0.82599998 -4.4749999 -1.762 0.20999999
-0.81099999 -4.4699998 -1.7589999 0.20999999
-0.79699999 -4.4710002 -1.758 0.23
-0.78500003 -4.4889998 -1.765 0.20999999
-0.76800001 -4.4720001 -1.756 0.22
-0.76200002 -4.4790001 -1.7589999 0.2
-0.74800003 -4.4809999 -1.7589999 0.22
-0.736 -4.4959998 -1.7640001 0.2
-0.71799999 -4.4780002 -1.755 0.23
-0.70700002 -4.5009999 -1.7640001 0.20999999
-0.69 -4.4840002 -1.756 0.22
-0.676 -4.4850001 -1.755 0.20999999
-0.66900003 -4.4860001 -1.755 0.22
-0.65499997 -4.4899998 -1.756 0.18000001
-0.63999999 -4.4860001 -1.7539999 0.23999999
