# .PCD v0.7 - Point Cloud Data file format
VERSION 0.7
FIELDS x y z intensity
SIZE 4 4 4 4
TYPE F F F F
COUNT 1 1 1 1
WIDTH 1397
HEIGHT 1
VIEWPOINT 0 0 0 1 0 0 0
POINTS 1397
DATA ascii
-10.156 1.383 -1.86 0
-10.156 1.351 -1.859 0
-10.162 1.319 -1.86 0
-10.174 1.288 -1.8609999 0
-10.17 1.272 -1.86 0
-10.161 1.238 -1.857 0
-10.155 1.205 -1.855 0
-10.155 1.173 -1.855 0
-10.154 1.14 -1.854 0
-10.177 1.1109999 -1.858 0
-10.175 1.0779999 -1.857 0
-10.167 1.061 -1.855 0
-10.18 1.03 -1.857 0
-10.185 0.99800003 -1.857 0
-10.184 0.96600002 -1.8559999 0
-10.199 0.935 -1.858 0
-10.196 0.90200001 -1.857 0
-10.189 0.86900002 -1.855 0
-10.2 0.85399997 -1.857 0
-10.197 0.82200003 -1.8559999 0
-10.213 0.79100001 -1.859 0
-10.214 0.759 -1.858 0
-10.208 0.72600001 -1.857 0
-10.226 0.69499999 -1.86 0
-10.232 0.66299999 -1.8609999 0
-10.231 0.64700001 -1.86 0
-10.225 0.61400002 -1.859 0
-10.239 0.583 -1.8609999 0
-10.223 0.55000001 -1.858 0
-10.244 0.51800001 -1.8609999 0
-10.262 0.48699999 -1.864 0
-10.243 0.454 -1.8609999 0
-10.255 0.42199999 -1.863 0
-10.257 0.40599999 -1.863 0
-10.245 0.373 -1.86 0
-10.248 0.34099999 -1.8609999 0
-10.263 0.30899999 -1.863 0
-10.244 0.27700001 -1.86 0
-10.256 0.245 -1.862 0
-10.269 0.229 -1.864 0
-10.256 0.19599999 -1.8609999 0
-10.282 0.16500001 -1.8660001 0
-10.298 0.132 -1.869 0
-10.28 0.1 -1.8660001 0
-10.293 0.068000004 -1.868 0
-10.301 0.035 -1.87 0
-10.293 0.018999999 -1.868 0
-10.299 -0.013 -1.869 0
-10.271 -0.045000002 -1.864 0
-10.292 -0.078000002 -1.868 0
-10.271 -0.11 -1.864 0
-10.313 -0.14300001 -1.872 0
-10.272 -0.17399999 -1.864 0
-10.261 -0.206 -1.863 0
-10.273 -0.223 -1.865 0
-10.262 -0.255 -1.863 0
-10.263 -0.287 -1.863 0
-10.27 -0.31999999 -1.865 0
-10.265 -0.352 -1.864 0
-10.252 -0.384 -1.862 0
-10.271 -0.417 -1.8660001 0
-10.26 -0.43200001 -1.864 0
-10.265 -0.465 -1.865 0
-10.277 -0.498 -1.868 0
-10.273 -0.52999997 -1.867 0
-10.258 -0.56099999 -1.864 0
-10.254 -0.59399998 -1.864 0
-10.256 -0.62599999 -1.865 0
-10.263 -0.64300001 -1.8660001 0
-10.267 -0.67500001 -1.868 0
-10.255 -0.70700002 -1.8660001 0
-10.258 -0.73900002 -1.867 0
-10.262 -0.77200001 -1.868 0
-10.251 -0.80400002 -1.8660001 0
-10.253 -0.83600003 -1.867 0
-10.261 -0.85299999 -1.869 0
-10.253 -0.88499999 -1.868 0
-10.256 -0.91799998 -1.869 0
-10.249 -0.94999999 -1.868 0
-10.248 -0.98199999 -1.869 0
-10.245 -1.0140001 -1.869 0
-10.249 -1.0470001 -1.87 0
-10.238 -1.062 -1.868 0
-10.236 -1.095 -1.869 0
-10.237 -1.127 -1.869 0
-10.227 -1.159 -1.868 0
-10.228 -1.191 -1.869 0
-10.222 -1.223 -1.869 0
-10.228 -1.256 -1.8710001 0
-10.249 -1.275 -1.875 0
-10.245 -1.308 -1.875 0
-10.188 -1.3329999 -1.865 0
-10.178 -1.364 -1.864 0
-10.176 -1.396 -1.864 0
-10.17 -1.4119999 -1.863 0
-10.169 -1.444 -1.864 0
-10.159 -1.475 -1.863 0
-10.135 -1.5039999 -1.859 0
-10.155 -1.54 -1.864 0
-10.127 -1.568 -1.86 0
-10.139 -1.603 -1.863 0
-10.104 -1.613 -1.857 0
-10.11 -1.647 -1.859 0
-10.117 -1.681 -1.8609999 0
-10.108 -1.712 -1.86 0
-10.102 -1.744 -1.86 0
-10.106 -1.777 -1.862 0
-10.095 -1.808 -1.8609999 0
-10.092 -1.824 -1.8609999 0
-10.098 -1.857 -1.863 0
-10.078 -1.887 -1.8609999 0
-10.074 -1.919 -1.8609999 0
-10.076 -1.952 -1.863 0.059999999
-10.091 -1.988 -1.867 0.14
-10.079 -2.0179999 -1.8660001 0.14
-10.072 -2.033 -1.865 0.25
-10.023 -2.056 -1.857 0.38
-10.011 -2.086 -1.855 0.38999999
-10.004 -2.118 -1.855 0.36000001
-9.9940004 -2.148 -1.855 0.15000001
-10.027 -2.1889999 -1.863 0.039999999
-10.057 -2.2279999 -1.87 0.07
-10.111 -2.257 -1.881 0.079999998
-10.125 -2.2939999 -1.885 0.18000001
-10.079 -2.3169999 -1.878 0.18000001
-10.049 -2.3429999 -1.873 0.25999999
-9.927 -2.3469999 -1.85 0.16
-9.8540001 -2.362 -1.837 0.25999999
-9.8360004 -2.391 -1.835 0.22
-9.7589998 -2.388 -1.821 0.16
-9.7229996 -2.4119999 -1.8150001 0.28999999
-9.7229996 -2.444 -1.817 0.22
-9.7159996 -2.4749999 -1.817 0.18000001
-9.7650003 -2.52 -1.8279999 0.27000001
-9.7639999 -2.553 -1.83 0.25
-9.7299995 -2.576 -1.824 0.16
-9.8529997 -2.6259999 -1.85 0.28
-9.8610001 -2.661 -1.853 0.23999999
-9.849 -2.691 -1.852 0.18000001
-9.8710003 -2.7309999 -1.858 0.25999999
-9.7659998 -2.734 -1.839 0.19
-9.8590002 -2.7939999 -1.86 0.25
-10.026 -2.8759999 -1.895 0.18000001
-9.9189997 -2.8789999 -1.875 0.13
-9.9580002 -2.9070001 -1.8839999 0.2
-10.027 -2.9619999 -1.9 0.25999999
-10.043 -3.0009999 -1.905 0.27000001
-9.9639997 -3.0109999 -1.891 0.27000001
-9.8920002 -3.023 -1.878 0.28
-9.8789997 -3.053 -1.877 0.25999999
-9.8170004 -3.0680001 -1.867 0.17
-9.8640003 -3.0999999 -1.877 0.31
-9.8299999 -3.1229999 -1.872 0.25
-9.7550001 -3.132 -1.859 0.25
-9.7320004 -3.1589999 -1.857 0.23
-9.6960001 -3.181 -1.851 0.27000001
-9.6599998 -3.2019999 -1.846 0.23
-9.6400003 -3.23 -1.844 0.28
-9.5670004 -3.221 -1.83 0.25
-9.5640001 -3.2539999 -1.831 0.2
-9.5979996 -3.3 -1.841 0.28
-9.5249996 -3.3080001 -1.8279999 0.18000001
-7.724 -2.704 -1.46 0.2
-7.7059999 -2.7249999 -1.4579999 0.36000001
-7.6960001 -2.7490001 -1.4579999 0.36000001
-7.6900001 -2.76 -1.457 0.31999999
-7.6919999 -2.7880001 -1.46 0.44999999
-7.6799998 -2.8110001 -1.459 0.28999999
-9.5030003 -3.5190001 -1.837 0.28999999
-9.4289999 -3.526 -1.825 0.25
-9.4160004 -3.5539999 -1.824 0.17
-9.4490004 -3.6010001 -1.8329999 0.25999999
-9.4549999 -3.6199999 -1.836 0.23
-9.4429998 -3.6500001 -1.836 0.25
-9.4300003 -3.6789999 -1.835 0.19
-9.4569998 -3.723 -1.8430001 0.27000001
-9.5089998 -3.779 -1.857 0.16
-9.5059996 -3.812 -1.858 0.25
-9.7370005 -3.941 -1.909 0.17
-9.7279997 -3.9549999 -1.909 0.23999999
-9.6949997 -3.977 -1.904 0.22
-9.6719999 -4.0029998 -1.902 0.25
-9.6099997 -4.013 -1.892 0.20999999
-9.6590004 -4.0689998 -1.905 0.30000001
-9.6149998 -4.0869999 -1.898 0.23
-9.6870003 -4.1529999 -1.916 0.25999999
-9.6949997 -4.1750002 -1.919 0.28
-9.6859999 -4.2069998 -1.92 0.28999999
-9.6689997 -4.2360001 -1.919 0.28999999
-9.6070004 -4.244 -1.909 0.27000001
-9.5059996 -4.2350001 -1.89 0.18000001
-9.4049997 -4.2249999 -1.872 0.27000001
-9.3649998 -4.243 -1.8660001 0.23
-9.2810001 -4.2220001 -1.85 0.27000001
-9.3299999 -4.2800002 -1.863 0.25999999
-9.3129997 -4.3080001 -1.862 0.30000001
-9.3170004 -4.3449998 -1.8660001 0.25999999
-9.3039999 -4.375 -1.8660001 0.2
-9.2740002 -4.3959999 -1.863 0.30000001
-9.2139997 -4.4029999 -1.853 0.25
-9.2370005 -4.4320002 -1.859 0.27000001
-9.2069998 -4.454 -1.8559999 0.25999999
-9.059 -4.4169998 -1.827 0.16
-8.9729996 -4.4089999 -1.811 0.30000001
-8.9790001 -4.447 -1.8150001 0.23
-8.9449997 -4.4660001 -1.811 0.25999999
-8.9650002 -4.5110002 -1.818 0.18000001
-9.0100002 -4.5510001 -1.83 0.25999999
-8.9709997 -4.5669999 -1.825 0.23
-8.915 -4.5739999 -1.8150001 0.16
-8.8780003 -4.5900002 -1.811 0.28999999
-8.8360004 -4.6030002 -1.804 0.23
-8.823 -4.632 -1.8049999 0.12
-8.7600002 -4.6339998 -1.794 0.20999999
-8.783 -4.6820002 -1.803 0.18000001
-8.7969999 -4.7069998 -1.807 0.28
-8.651 -4.6630001 -1.778 0.23
-8.6599998 -4.7030001 -1.784 0.16
-8.7209997 -4.7719998 -1.8 0.30000001
-8.7250004 -4.8099999 -1.804 0.25
-8.698 -4.8309999 -1.802 0.27000001
-8.6499996 -4.8400002 -1.795 0.27000001
-8.5979996 -4.8280001 -1.785 0.27000001
-8.54 -4.8309999 -1.775 0.27000001
-8.526 -4.8590002 -1.776 0.27000001
-8.5229998 -4.8920002 -1.778 0.27000001
-8.5360003 -4.9359999 -1.785 0.25
-8.526 -4.9660001 -1.786 0.27000001
-8.4359999 -4.9489999 -1.7690001 0.30000001
-8.4619999 -4.9819999 -1.777 0.28999999
-8.382 -4.9699998 -1.762 0.25999999
-8.3059998 -4.96 -1.749 0.31
-8.2629995 -4.9699998 -1.742 0.27000001
-8.2040005 -4.9689999 -1.733 0.28999999
-8.125 -4.9559999 -1.7180001 0.27000001
-8.073 -4.9590001 -1.71 0.28999999
-8.1070004 -4.9970002 -1.719 0.33000001
-8.1020002 -5.0300002 -1.722 0.30000001
-8.0179996 -5.013 -1.706 0.28999999
-7.901 -4.974 -1.683 0.27000001
-7.9109998 -5.0139999 -1.689 0.27000001
-7.8769999 -5.027 -1.6849999 0.27000001
-7.8130002 -5.0209999 -1.674 0.28999999
-7.8449998 -5.059 -1.683 0.30000001
-7.8319998 -5.086 -1.684 0.30000001
-7.7930002 -5.0949998 -1.678 0.30000001
-7.7880001 -5.1269999 -1.681 0.28
-7.7670002 -5.1490002 -1.6799999 0.30000001
-7.691 -5.132 -1.666 0.30000001
-7.665 -5.1500001 -1.663 0.27000001
-7.6570001 -5.1620002 -1.663 0.30000001
-7.6500001 -5.1929998 -1.666 0.27000001
-7.605 -5.197 -1.659 0.17
-7.5370002 -5.1849999 -1.647 0.28999999
-7.474 -5.1760001 -1.636 0.25
-7.421 -5.1729999 -1.627 0.25999999
-7.4559999 -5.2329998 -1.6390001 0.27000001
-7.3930001 -5.2059999 -1.626 0.28999999
-7.2919998 -5.1690001 -1.6059999 0.28
-7.3109999 -5.217 -1.614 0.27000001
-7.2880001 -5.2350001 -1.613 0.28999999
-7.2600002 -5.25 -1.61 0.28
-7.2199998 -5.2550001 -1.604 0.25999999
-7.2020001 -5.277 -1.604 0.31
-7.1760001 -5.2750001 -1.6 0.30000001
-7.0960002 -5.2509999 -1.585 0.25999999
-7.0739999 -5.2690001 -1.5829999 0.28999999
-7.007 -5.2529998 -1.571 0.27000001
-6.9619999 -5.2529998 -1.564 0.28999999
-6.9629998 -5.2880001 -1.568 0.31999999
-6.9619999 -5.322 -1.572 0.28999999
-6.9359999 -5.3200002 -1.568 0.28
-6.941 -5.3590002 -1.573 0.31999999
-6.921 -5.3779998 -1.573 0.28999999
-6.9260001 -5.4169998 -1.5779999 0.28999999
-6.8800001 -5.415 -1.571 0.27000001
-6.895 -5.4629998 -1.579 0.34999999
-6.8439999 -5.4569998 -1.5700001 0.27000001
-6.8169999 -5.4530001 -1.566 0.27000001
-6.7880001 -5.4650002 -1.563 0.30000001
-6.7509999 -5.4699998 -1.558 0.27000001
-6.6329999 -5.4089999 -1.533 0.28999999
-6.5999999 -5.4159999 -1.528 0.28999999
-6.5580001 -5.4159999 -1.522 0.20999999
-6.5139999 -5.414 -1.516 0.23999999
-6.3959999 -5.3319998 -1.488 0.20999999
-6.2680001 -5.2589998 -1.46 0.22
-6.256 -5.2820001 -1.461 0.15000001
-6.3299999 -5.3800001 -1.484 0.14
-6.2639999 -5.3569999 -1.471 0.18000001
-6.348 -5.4640002 -1.497 0.25
-6.3000002 -5.4569998 -1.489 0.30000001
-6.2620001 -5.441 -1.482 0.27000001
-6.1960001 -5.4180002 -1.469 0.28
-6.1919999 -5.4489999 -1.473 0.31
-6.1960001 -5.487 -1.478 0.30000001
-6.145 -5.4759998 -1.469 0.28999999
-6.1279998 -5.4959998 -1.469 0.31
-6.1209998 -5.5240002 -1.472 0.28999999
-6.0650001 -5.5089998 -1.462 0.30000001
-5.9770002 -5.4450002 -1.441 0.19
-5.9120002 -5.4200001 -1.428 0.27000001
-5.823 -5.3720002 -1.409 0.23
-5.6729999 -5.2649999 -1.374 0.23
-5.6350002 -5.263 -1.368 0.28
-5.599 -5.2620001 -1.363 0.28
-5.5380001 -5.237 -1.351 0.28
-5.5500002 -5.2649999 -1.357 0.31
-5.5430002 -5.2919998 -1.359 0.27000001
-5.4970002 -5.2810001 -1.351 0.27000001
-5.5 -5.3169999 -1.357 0.31999999
-5.4720001 -5.323 -1.354 0.25999999
-5.4089999 -5.2950001 -1.341 0.31
-5.3920002 -5.2950001 -1.339 0.31999999
-5.402 -5.3390002 -1.346 0.31
-5.3639998 -5.335 -1.34 0.28999999
-5.3390002 -5.3429999 -1.3380001 0.31
-5.3099999 -5.3470001 -1.335 0.28999999
-5.2839999 -5.3540001 -1.332 0.28999999
-5.276 -5.381 -1.335 0.31999999
-5.2579999 -5.3959999 -1.334 0.28999999
-5.2319999 -5.3860002 -1.329 0.28
-5.2080002 -5.395 -1.327 0.28999999
-5.1939998 -5.414 -1.3279999 0.31999999
-5.1810002 -5.4349999 -1.329 0.31
-5.1440001 -5.4289999 -1.324 0.31
-5.1040001 -5.421 -1.317 0.28
-5.0799999 -5.4299998 -1.3150001 0.31999999
-5.0770001 -5.4439998 -1.317 0.31
-5.0489998 -5.448 -1.314 0.28999999
-5.0279999 -5.46 -1.313 0.30000001
-5.0120001 -5.4770002 -1.313 0.28
-5.0040002 -5.5029998 -1.316 0.28999999
-4.9390001 -5.4660001 -1.302 0.30000001
-4.9260001 -5.4860001 -1.303 0.31999999
-4.9289999 -5.507 -1.306 0.30000001
-4.9000001 -5.5089998 -1.303 0.25
-4.8530002 -5.4899998 -1.294 0.34999999
-4.8379998 -5.5079999 -1.295 0.34
-4.789 -5.487 -1.286 0.28999999
-4.7459998 -5.4720001 -1.278 0.28999999
-4.7340002 -5.493 -1.279 0.25
-4.7140002 -5.487 -1.276 0.36000001
-4.6989999 -5.5040002 -1.277 0.27000001
-4.7129998 -5.5570002 -1.286 0.28999999
-4.7049999 -5.5819998 -1.289 0.34
-4.6729999 -5.5799999 -1.285 0.27000001
-4.6360002 -5.5710001 -1.279 0.27000001
-4.645 -5.6170001 -1.2869999 0.31
-4.5250001 -5.4889998 -1.253 0.31
-4.5209999 -5.52 -1.257 0.28
-4.5159998 -5.5489998 -1.261 0.23
-4.46 -5.5149999 -1.249 0.31999999
-4.4569998 -5.5469999 -1.253 0.27000001
-4.402 -5.513 -1.2410001 0.27000001
-4.3790002 -5.5209999 -1.24 0.31
-4.3790002 -5.539 -1.243 0.36000001
-4.3720002 -5.5650001 -1.2460001 0.27000001
-4.3610001 -5.5879998 -1.248 0.17
-4.3930001 -5.665 -1.263 0.28
-4.349 -5.645 -1.255 0.23
-4.2480001 -5.5489998 -1.229 0.16
-4.1880002 -5.506 -1.215 0.30000001
-4.2150002 -5.559 -1.226 0.18000001
-4.2420001 -5.632 -1.2410001 0.050000001
-4.355 -5.822 -1.283 0.16
-4.1890001 -5.6350002 -1.235 0.14
-4.1729999 -5.651 -1.2359999 0.28999999
-4.335 -5.9109998 -1.295 0.17
-4.283 -5.8779998 -1.284 0.25
-4.2800002 -5.8940001 -1.286 0.20999999
-4.1690001 -5.7779999 -1.255 0.16
-4.191 -5.848 -1.268 0.28
-4.2129998 -5.9180002 -1.2819999 0.22
-4.1329999 -5.8429999 -1.261 0.23
-4.0900002 -5.8210001 -1.253 0.31999999
-4.0570002 -5.8130002 -1.248 0.36000001
-4.0640001 -5.8429999 -1.2539999 0.25
-4.0050001 -5.796 -1.24 0.31
-4.0289998 -5.8699999 -1.2539999 0.28999999
-4 -5.868 -1.251 0.28999999
-3.9820001 -5.881 -1.251 0.28
-3.9590001 -5.8870001 -1.249 0.28999999
-3.9489999 -5.9120002 -1.252 0.30000001
-3.95 -5.9330001 -1.256 0.31999999
-3.905 -5.9060001 -1.2460001 0.25999999
-3.826 -5.8260002 -1.225 0.25999999
-3.823 -5.8610001 -1.23 0.34999999
-3.803 -5.8699999 -1.23 0.34999999
-3.793 -5.895 -1.233 0.30000001
-3.7950001 -5.9400001 -1.24 0.28999999
-3.757 -5.901 -1.23 0.30000001
-3.7420001 -5.9180002 -1.2309999 0.30000001
-3.734 -5.9460001 -1.235 0.31999999
-3.7019999 -5.9359999 -1.23 0.28999999
-3.677 -5.9380002 -1.228 0.27000001
-3.6889999 -6 -1.239 0.28999999
-3.6830001 -6.033 -1.244 0.30000001
-3.6600001 -6.0380001 -1.243 0.28999999
-3.6489999 -6.04 -1.242 0.28999999
-3.625 -6.0430002 -1.24 0.28
-3.5929999 -6.033 -1.235 0.30000001
-3.569 -6.0359998 -1.233 0.28999999
-3.533 -6.0180001 -1.227 0.27000001
-3.506 -6.0149999 -1.224 0.22
-3.3670001 -5.796 -1.173 0.23
-3.3989999 -5.8940001 -1.193 0.22
-3.309 -5.7779999 -1.165 0.12
-3.2909999 -5.79 -1.165 0.18000001
-3.3329999 -5.9070001 -1.189 0.13
-3.194 -5.7010002 -1.141 0.30000001
-3.1689999 -5.6989999 -1.138 0.23
-3.1440001 -5.6739998 -1.132 0.13
-3.086 -5.6100001 -1.115 0.30000001
-3.0799999 -5.6409998 -1.12 0.23
-2.987 -5.5100002 -1.089 0.20999999
-2.9400001 -5.4640002 -1.077 0.19
-2.9300001 -5.487 -1.08 0.33000001
-2.9779999 -5.6199999 -1.107 0.23
-3.0799999 -5.8369999 -1.153 0.2
-3.0220001 -5.7709999 -1.137 0.30000001
-2.9389999 -5.6529999 -1.109 0.18000001
-2.947 -5.7129998 -1.12 0.33000001
-2.97 -5.803 -1.138 0.25
-2.927 -5.763 -1.127 0.22
-2.868 -5.6919999 -1.11 0.34
-2.8659999 -5.71 -1.113 0.28
-2.836 -5.6950002 -1.107 0.28999999
-2.816 -5.698 -1.1059999 0.36000001
-2.8299999 -5.7719998 -1.12 0.31999999
-2.9849999 -6.1420002 -1.198 0.31
-2.95 -6.118 -1.1900001 0.25
-2.9289999 -6.1230001 -1.1900001 0.28999999
-2.8959999 -6.0780001 -1.179 0.12
-2.5380001 -5.3639998 -1.024 0.090000004
-2.4519999 -5.2220001 -0.99199998 0.20999999
-2.48 -5.3280001 -1.013 0.23
-2.4219999 -5.244 -0.99400002 0.28999999
-2.4779999 -5.4109998 -1.028 0.30000001
-2.4489999 -5.3940001 -1.022 0.33000001
-2.381 -5.263 -0.99400002 0.28999999
-2.4920001 -5.5580001 -1.0549999 0.14
-2.2449999 -5.0440001 -0.94499999 0.28999999
-2.3199999 -5.2600002 -0.98900002 0.23999999
-2.316 -5.296 -0.995 0.2
-2.1889999 -5.0450001 -0.94 0.31999999
-2.1889999 -5.0900002 -0.94800001 0.18000001
-2.168 -5.0630002 -0.94199997 0.31
-2.418 -5.704 -1.075 0.23999999
-2.4000001 -5.711 -1.075 0.25
-2.3599999 -5.6659999 -1.064 0.23999999
-2.339 -5.664 -1.062 0.27000001
-2.3329999 -5.7010002 -1.068 0.25
-2.3150001 -5.7080002 -1.068 0.43000001
-2.2609999 -5.599 -1.045 0.20999999
-2.2809999 -5.7020001 -1.0650001 0.2
-2.2579999 -5.6950002 -1.062 0.31
-2.2379999 -5.698 -1.061 0.23999999
-2.184 -5.6100001 -1.041 0.20999999
-2.1110001 -5.4720001 -1.011 0.31999999
-2.0650001 -5.401 -0.995 0.25999999
-2.029 -5.3309999 -0.98000002 0.25999999
-2.01 -5.3340001 -0.97899997 0.28
-1.9859999 -5.3200002 -0.97500002 0.31999999
-1.982 -5.3590002 -0.98199999 0.41999999
-2.0050001 -5.4780002 -1.005 0.28
-1.9960001 -5.5050001 -1.0089999 0.28
-1.956 -5.448 -0.99599999 0.20999999
-1.966 -5.5050001 -1.007 0.34
-1.932 -5.4629998 -0.99699998 0.31
-1.95 -5.5689998 -1.018 0.34
-1.961 -5.6599998 -1.035 0.28
-1.961 -5.7189999 -1.046 0.27000001
-1.911 -5.6279998 -1.026 0.28999999
-1.906 -5.6729999 -1.034 0.28
-1.9299999 -5.777 -1.0549999 0.25
-1.785 -5.3930001 -0.97500002 0.28999999
-1.709 -5.2150002 -0.93800002 0.23
-1.673 -5.1589999 -0.926 0.34
-1.661 -5.1789999 -0.92900002 0.25999999
-1.642 -5.1750002 -0.92699999 0.38
-1.612 -5.1350002 -0.91799998 0.23999999
-1.949 -6.2620001 -1.145 0.27000001
-1.939 -6.3000002 -1.152 0.23
-1.857 -6.099 -1.11 0.20999999
-1.807 -6.0009999 -1.089 0.30000001
-1.768 -5.9369998 -1.075 0.22
-1.749 -5.941 -1.075 0.40000001
-1.739 -5.9759998 -1.081 0.30000001
-1.734 -5.994 -1.084 0.27000001
-1.641 -5.7389998 -1.031 0.13
-1.5930001 -5.6360002 -1.01 0.2
-1.501 -5.368 -0.95499998 0.23
-1.373 -4.9640002 -0.87300003 0.13
-1.3710001 -5.0170002 -0.88300002 0.18000001
-1.293 -4.7859998 -0.83499998 0.27000001
-1.291 -4.8109999 -0.83999997 0.28
-1.28 -4.8299999 -0.84299999 0.28
-1.266 -4.8379998 -0.84399998 0.31999999
-1.258 -4.8730001 -0.85000002 0.30000001
-1.255 -4.9260001 -0.86000001 0.25
-1.3609999 -5.4239998 -0.958 0.11
-1.3710001 -5.539 -0.98000002 0.07
-1.442 -5.8709998 -1.046 0.07
-1.314 -5.4130001 -0.954 0.15000001
-1.293 -5.402 -0.95099998 0.28
-1.276 -5.408 -0.95099998 0.23
-1.251 -5.3759999 -0.94400001 0.12
-1.233 -5.3720002 -0.94300002 0.16
-1.461 -6.4840002 -1.1619999 0.14
-1.466 -6.5570002 -1.176 0.14
-1.427 -6.4770002 -1.16 0.20999999
-1.347 -6.2010002 -1.104 0.25999999
-1.169 -5.448 -0.954 0.22
-1.147 -5.427 -0.949 0.34
-1.1289999 -5.427 -0.949 0.34
-1.12 -5.4710002 -0.95700002 0.23999999
-1.143 -5.632 -0.98799998 0.19
-1.14 -5.7129998 -1.003 0.31
-1.104 -5.6199999 -0.98400003 0.17
-0.97500002 -5.0349998 -0.86900002 0.19
-0.95099998 -4.9920001 -0.85900003 0.28999999
-0.935 -4.993 -0.85900003 0.27000001
-0.921 -5.007 -0.861 0.28
-1.1950001 -6.5999999 -1.174 0.18000001
-1.143 -6.4260001 -1.1390001 0.13
-1.024 -5.849 -1.025 0.18000001
-0.972 -5.652 -0.986 0.27000001
-0.94800001 -5.6170001 -0.97799999 0.20999999
-0.92799997 -5.6020002 -0.97500002 0.36000001
-0.91299999 -5.6199999 -0.97799999 0.31999999
-0.93800002 -5.8390002 -1.021 0.2
-1.022 -6.5100002 -1.151 0.23
-0.94099998 -6.1129999 -1.073 0.22
-0.90600002 -6.007 -1.052 0.31
-0.88099998 -5.967 -1.043 0.28
-0.85399997 -5.914 -1.0319999 0.19
-0.82499999 -5.8340001 -1.016 0.34
-0.80000001 -5.7249999 -0.995 0.18000001
-0.75099999 -5.4899998 -0.94800001 0.31
-0.741 -5.5469999 -0.95899999 0.28999999
-0.72000003 -5.5240002 -0.954 0.27000001
-0.69800001 -5.4889998 -0.94700003 0.34999999
-0.68300003 -5.5110002 -0.95099998 0.38
-0.67500001 -5.5929999 -0.96600002 0.23999999
-0.65700001 -5.5079999 -0.949 0.2
-0.65899998 -5.6849999 -0.98400003 0.16
-0.611 -5.408 -0.92900002 0.14
-0.583 -5.3070002 -0.90899998 0.28
-0.56599998 -5.3049998 -0.90799999 0.31
-0.54900002 -5.3039999 -0.90799999 0.31999999
-0.53200001 -5.2979999 -0.90700001 0.31999999
-0.52600002 -5.329 -0.912 0.43000001
-0.52999997 -5.5570002 -0.95599997 0.25999999
-0.49599999 -5.3649998 -0.91900003 0.23
-0.47400001 -5.3140001 -0.90799999 0.31999999
-0.456 -5.296 -0.90499997 0.25999999
-0.43700001 -5.2659998 -0.89899999 0.28
-0.42199999 -5.2849998 -0.90200001 0.28999999
-0.41600001 -5.322 -0.90899998 0.28999999
-0.40099999 -5.3470001 -0.91399997 0.31999999
-0.38699999 -5.388 -0.921 0.36000001
-0.368 -5.3629999 -0.91600001 0.30000001
-0.352 -5.3720002 -0.91799998 0.28999999
-0.33500001 -5.375 -0.91799998 0.43000001
-0.31799999 -5.3779998 -0.91900003 0.28999999
-0.31 -5.381 -0.91900003 0.16
-0.294 -5.4050002 -0.92400002 0.28999999
-0.31400001 -6.197 -1.077 0.16
-0.289 -6.072 -1.053 0.18000001
-0.233 -5.1430001 -0.87199998 0.17
-0.215 -5.0929999 -0.86199999 0.31
-0.199 -5.1069999 -0.86500001 0.34
-0.191 -5.0879998 -0.861 0.14
-0.17399999 -5.0819998 -0.86000001 0.15000001
-0.17900001 -5.8860002 -1.016 0.14
-0.167 -6.165 -1.0700001 0.30000001
-0.149 -6.2030001 -1.077 0.25999999
-0.127 -6.0910001 -1.0549999 0.19
-0.106 -5.9429998 -1.026 0.15000001
-0.092 -5.5359998 -0.94800001 0.18000001
-0.072999999 -5.3720002 -0.91600001 0.23
-0.056000002 -5.342 -0.91000003 0.31
-0.039000001 -5.388 -0.91900003 0.31999999
-0.022 -5.4130001 -0.92400002 0.28
-0.0060000001 -5.3600001 -0.91299999 0.34
0.0099999998 -5.2189999 -0.88599998 0.18000001
0.017999999 -5.1859999 -0.88 0.27000001
0.032000002 -4.9970002 -0.84299999 0.19
0.044 -4.7220001 -0.79000002 0.27000001
0.057999998 -4.6939998 -0.78500003 0.27000001
0.072999999 -4.6739998 -0.78100002 0.27000001
0.086999997 -4.645 -0.77499998 0.17
0.102 -4.658 -0.778 0.31
0.109 -4.6560001 -0.77700001 0.23
0.125 -4.7049999 -0.787 0.22
0.138 -4.651 -0.77700001 0.23999999
0.152 -4.6290002 -0.77200001 0.23999999
0.168 -4.678 -0.78200001 0.25
0.221 -5.5250001 -0.94599998 0.19
0.243 -5.6339998 -0.96700001 0.14
0.25999999 -5.7849998 -0.99699998 0.31
0.257 -5.3779998 -0.91799998 0.15000001
0.264 -5.2140002 -0.88599998 0.33000001
0.27900001 -5.1900001 -0.88200003 0.30000001
0.29499999 -5.1830001 -0.88099998 0.36000001
0.31 -5.1570001 -0.87599999 0.31
0.32499999 -5.1399999 -0.87300003 0.2
0.338 -5.2119999 -0.88700002 0.28999999
0.35299999 -5.1830001 -0.88099998 0.23
0.38100001 -5.3369999 -0.91100001 0.11
0.44800001 -5.9780002 -1.036 0.18000001
0.449 -5.7529998 -0.99299997 0.2
0.46900001 -5.7729998 -0.99699998 0.16
0.43599999 -5.2010002 -0.88599998 0.2
0.43599999 -5.1040001 -0.86699998 0.25999999
0.53100002 -5.9549999 -1.033 0.20999999
0.54699999 -5.9219999 -1.027 0.31
0.57700002 -6.0300002 -1.048 0.25999999
0.588 -5.96 -1.035 0.31
0.60399997 -5.9299998 -1.03 0.31
0.61500001 -5.941 -1.0319999 0.25999999
0.60399997 -5.6719999 -0.98000002 0.30000001
0.62199998 -5.6719999 -0.98000002 0.30000001
0.64499998 -5.7189999 -0.99000001 0.25999999
0.65899998 -5.6830001 -0.98299998 0.34
0.67799997 -5.691 -0.98500001 0.23999999
0.72799999 -5.9380002 -1.034 0.31999999
0.741 -5.9640002 -1.039 0.40000001
0.75099999 -5.9000001 -1.027 0.25999999
0.71700001 -5.5079999 -0.95099998 0.23999999
0.727 -5.4530001 -0.94099998 0.16
0.74699998 -5.467 -0.94400001 0.31999999
0.78899997 -5.6350002 -0.977 0.18000001
0.85900003 -5.9920001 -1.048 0.34999999
0.85500002 -5.8340001 -1.017 0.28
0.852 -5.757 -1.002 0.27000001
0.85100001 -5.632 -0.97799999 0.25999999
0.86400002 -5.5939999 -0.972 0.31999999
0.88200003 -5.599 -0.97299999 0.31999999
0.90899998 -5.6529999 -0.98400003 0.28999999
1.008 -6.1300001 -1.0779999 0.23
1.057 -6.3610001 -1.124 0.30000001
1.077 -6.3559999 -1.124 0.18000001
1.072 -6.2129998 -1.096 0.31
1.089 -6.1939998 -1.0930001 0.2
0.99699998 -5.5799999 -0.97299999 0.25
1.01 -5.5539999 -0.96799999 0.31
1.029 -5.559 -0.97000003 0.33000001
1.048 -5.6129999 -0.98100001 0.30000001
1.0369999 -5.461 -0.95200002 0.33000001
1.057 -5.4710002 -0.954 0.31999999
1.08 -5.4990001 -0.96100003 0.28999999
1.097 -5.4910002 -0.95999998 0.28999999
1.112 -5.48 -0.958 0.34
1.124 -5.4520001 -0.95300001 0.2
1.151 -5.5359998 -0.97000003 0.31
1.1799999 -5.585 -0.98100001 0.25
1.184 -5.52 -0.96799999 0.25999999
1.219 -5.598 -0.98500001 0.20999999
1.2589999 -5.6919999 -1.0039999 0.30000001
1.273 -5.6729999 -1.001 0.38
1.277 -5.6069999 -0.98900002 0.31
1.253 -5.4660001 -0.96100003 0.22
1.247 -5.3649998 -0.94199997 0.31999999
1.261 -5.3470001 -0.93900001 0.25
1.271 -5.3150001 -0.93400002 0.25999999
1.296 -5.3449998 -0.94 0.40000001
1.325 -5.3899999 -0.94999999 0.28
1.534 -6.1420002 -1.101 0.22
1.518 -6.0380001 -1.081 0.27000001
1.539 -6.0409999 -1.0829999 0.38
1.562 -6.052 -1.086 0.25
1.59 -6.0830002 -1.0930001 0.14
1.495 -5.6529999 -1.008 0.31
1.477 -5.5159998 -0.98100001 0.25
1.473 -5.4349999 -0.96600002 0.23999999
1.469 -5.3889999 -0.95700002 0.28999999
1.482 -5.368 -0.954 0.28999999
1.499 -5.3649998 -0.954 0.38
1.522 -5.381 -0.958 0.31
1.541 -5.3839998 -0.95999998 0.30000001
1.548 -5.3470001 -0.95300001 0.31999999
1.569 -5.3530002 -0.95599997 0.37
1.572 -5.336 -0.95300001 0.23
1.607 -5.3909998 -0.96499997 0.16
1.687 -5.5900002 -1.006 0.20999999
1.849 -6.0500002 -1.1 0.25
1.892 -6.1209998 -1.1160001 0.28999999
1.846 -5.9089999 -1.074 0.12
1.8150001 -5.75 -1.043 0.30000001
1.806 -5.6890001 -1.031 0.25
1.903 -5.928 -1.081 0.20999999
1.947 -5.9990001 -1.097 0.31999999
1.947 -5.9349999 -1.085 0.25
1.936 -5.8429999 -1.067 0.31
1.96 -5.8520002 -1.0700001 0.38
1.999 -5.9070001 -1.0829999 0.28
2.02 -5.9369998 -1.09 0.25
2.026 -5.8959999 -1.0829999 0.34
2.0510001 -5.9060001 -1.086 0.30000001
2.0899999 -5.9569998 -1.098 0.34999999
2.095 -5.9109998 -1.09 0.28999999
2.1140001 -5.9070001 -1.09 0.25999999
2.1370001 -5.9130001 -1.0930001 0.34
2.1129999 -5.8189998 -1.074 0.31
2.1300001 -5.809 -1.073 0.31999999
2.1700001 -5.8590002 -1.085 0.34999999
2.2 -5.8829999 -1.092 0.28
2.2490001 -5.9569998 -1.108 0.30000001
2.2479999 -5.8990002 -1.098 0.28999999
2.2249999 -5.7839999 -1.075 0.28999999
2.2309999 -5.7750001 -1.074 0.36000001
2.25 -5.77 -1.075 0.31999999
2.2820001 -5.7950001 -1.081 0.31999999
2.326 -5.8540001 -1.095 0.28999999
2.3610001 -5.888 -1.104 0.25
2.3340001 -5.7680001 -1.08 0.31
2.346 -5.7459998 -1.077 0.31999999
2.352 -5.7350001 -1.076 0.33000001
2.372 -5.7329998 -1.077 0.34
2.4000001 -5.7490001 -1.082 0.30000001
2.447 -5.809 -1.096 0.31999999
2.4590001 -5.7859998 -1.0930001 0.30000001
2.4779999 -5.7820001 -1.094 0.34
2.4960001 -5.7729998 -1.0930001 0.34999999
2.5079999 -5.776 -1.095 0.28999999
2.5280001 -5.7719998 -1.095 0.30000001
2.5539999 -5.7820001 -1.099 0.30000001
2.5680001 -5.7649999 -1.097 0.34
2.5710001 -5.724 -1.091 0.31999999
2.5880001 -5.7129998 -1.09 0.31
2.6140001 -5.7220001 -1.094 0.28999999
2.6300001 -5.7340002 -1.097 0.30000001
2.631 -5.6890001 -1.089 0.34
2.684 -5.7550001 -1.105 0.27000001
2.7249999 -5.7940001 -1.115 0.27000001
2.779 -5.8600001 -1.131 0.28999999
2.8169999 -5.8920002 -1.14 0.31999999
2.8329999 -5.8779998 -1.1390001 0.27000001
2.8340001 -5.8569999 -1.135 0.28999999
2.846 -5.836 -1.133 0.28999999
2.855 -5.8080001 -1.1289999 0.30000001
2.898 -5.848 -1.1390001 0.23999999
2.925 -5.8559999 -1.143 0.36000001
2.944 -5.849 -1.143 0.34
2.973 -5.8590002 -1.148 0.36000001
2.9619999 -5.816 -1.1390001 0.31999999
2.994 -5.8330002 -1.145 0.27000001
3.0309999 -5.8600001 -1.153 0.36000001
3.0369999 -5.8260002 -1.148 0.31
3.0669999 -5.8390002 -1.152 0.25
3.0940001 -5.8449998 -1.156 0.34999999
3.1029999 -5.8400002 -1.156 0.34
3.1170001 -5.823 -1.154 0.31999999
3.1229999 -5.789 -1.149 0.34
3.141 -5.7789998 -1.149 0.38999999
3.1900001 -5.8260002 -1.1619999 0.28
3.243 -5.8779998 -1.175 0.28
3.2520001 -5.8509998 -1.171 0.27000001
3.276 -5.8730001 -1.178 0.30000001
3.283 -5.842 -1.173 0.31
3.3 -5.8280001 -1.1720001 0.31999999
3.3239999 -5.8280001 -1.175 0.31999999
3.3610001 -5.8499999 -1.182 0.34
3.401 -5.8769999 -1.1900001 0.28999999
3.402 -5.8369999 -1.184 0.28
3.46 -5.915 -1.202 0.28999999
3.507 -5.9510002 -1.2130001 0.31999999
3.5009999 -5.8979998 -1.2029999 0.31
3.5039999 -5.862 -1.198 0.31
3.4890001 -5.7950001 -1.1849999 0.28
3.507 -5.7839999 -1.1849999 0.31999999
3.5539999 -5.8200002 -1.196 0.28
3.602 -5.8779998 -1.21 0.28
3.5929999 -5.8210001 -1.2 0.31999999
3.579 -5.7589998 -1.188 0.25
3.5650001 -5.698 -1.177 0.33000001
3.6070001 -5.724 -1.186 0.31999999
3.6199999 -5.7049999 -1.184 0.28999999
3.6530001 -5.7160001 -1.189 0.36000001
3.6919999 -5.757 -1.2 0.31
3.701 -5.7319999 -1.197 0.28999999
3.704 -5.697 -1.191 0.36000001
3.734 -5.704 -1.1950001 0.28999999
3.7620001 -5.7069998 -1.199 0.33000001
3.7869999 -5.7059999 -1.202 0.27000001
3.823 -5.7199998 -1.2079999 0.30000001
3.8299999 -5.7129998 -1.207 0.33000001
3.855 -5.711 -1.21 0.37
3.8900001 -5.723 -1.215 0.30000001
3.9230001 -5.7329998 -1.221 0.34
3.9530001 -5.7379999 -1.225 0.30000001
3.9879999 -5.75 -1.23 0.30000001
4.0240002 -5.763 -1.2359999 0.30000001
4.0370002 -5.7620001 -1.238 0.34
4.0539999 -5.7470002 -1.237 0.31999999
4.0830002 -5.7509999 -1.2410001 0.30000001
4.099 -5.7350001 -1.24 0.31
4.1259999 -5.7340002 -1.243 0.31999999
4.1420002 -5.7179999 -1.243 0.31999999
4.165 -5.7119999 -1.244 0.34999999
4.1690001 -5.6989999 -1.243 0.28999999
4.2080002 -5.7140002 -1.249 0.30000001
4.2350001 -5.7129998 -1.252 0.34999999
4.2529998 -5.6999998 -1.252 0.30000001
4.2979999 -5.723 -1.261 0.31
4.3299999 -5.7280002 -1.266 0.34
4.3699999 -5.7420001 -1.273 0.31999999
4.3940001 -5.756 -1.278 0.31
4.4380002 -5.7740002 -1.286 0.30000001
4.4759998 -5.7870002 -1.2920001 0.31999999
4.4980001 -5.777 -1.293 0.28999999
4.533 -5.7849998 -1.298 0.34999999
4.5190001 -5.7290001 -1.288 0.30000001
4.5349998 -5.7129998 -1.288 0.30000001
4.5749998 -5.744 -1.2970001 0.28999999
4.6079998 -5.7480001 -1.302 0.31999999
4.658 -5.7729998 -1.312 0.30000001
4.6849999 -5.7690001 -1.314 0.30000001
4.6820002 -5.7290001 -1.308 0.16
4.7150002 -5.7319999 -1.313 0.30000001
4.7470002 -5.7340002 -1.317 0.25
4.7589998 -5.7309999 -1.318 0.27000001
4.7979999 -5.7399998 -1.324 0.25999999
4.7709999 -5.6729999 -1.311 0.15000001
4.8169999 -5.6900001 -1.319 0.31
4.848 -5.6900001 -1.323 0.25
4.8730001 -5.684 -1.325 0.25999999
4.8959999 -5.6739998 -1.327 0.25
4.901 -5.6620002 -1.325 0.19
4.9369998 -5.6669998 -1.331 0.28999999
4.9429998 -5.6389999 -1.327 0.25
4.9710002 -5.6350002 -1.33 0.25999999
4.961 -5.5879998 -1.322 0.25999999
4.9660001 -5.5580001 -1.319 0.18000001
5.0219998 -5.585 -1.33 0.27000001
4.9840002 -5.526 -1.316 0.23
5.0159998 -5.526 -1.321 0.16
5.059 -5.5380001 -1.3279999 0.27000001
5.027 -5.4689999 -1.314 0.23999999
5.02 -5.427 -1.307 0.28999999
5.033 -5.4070001 -1.306 0.28
5.0209999 -5.3610001 -1.298 0.25999999
5.0510001 -5.3759999 -1.304 0.25999999
5.1370001 -5.4330001 -1.323 0.31
5.1500001 -5.4120002 -1.322 0.28999999
5.177 -5.4060001 -1.325 0.28
5.1570001 -5.3520002 -1.314 0.23999999
5.1999998 -5.362 -1.322 0.33000001
5.2160001 -5.362 -1.324 0.28
5.244 -5.3569999 -1.327 0.28
5.25 -5.329 -1.324 0.25
5.243 -5.289 -1.317 0.31999999
5.2649999 -5.2779999 -1.319 0.28
5.2909999 -5.2709999 -1.322 0.30000001
5.3049998 -5.2519999 -1.321 0.31999999
5.3439999 -5.2740002 -1.329 0.34
5.3639998 -5.2600002 -1.33 0.28999999
5.3759999 -5.2389998 -1.329 0.31
5.4190001 -5.2480001 -1.336 0.31
5.4369998 -5.2319999 -1.336 0.31999999
5.4460001 -5.2080002 -1.335 0.31
5.4229999 -5.1529999 -1.324 0.33000001
5.4050002 -5.1209998 -1.317 0.34999999
5.448 -5.1290002 -1.324 0.30000001
5.4749999 -5.1209998 -1.327 0.25999999
5.4959998 -5.1090002 -1.3279999 0.28999999
5.507 -5.0869999 -1.327 0.30000001
5.539 -5.0840001 -1.331 0.25999999
5.539 -5.052 -1.327 0.31
5.5549998 -5.0510001 -1.329 0.33000001
5.5840001 -5.046 -1.3329999 0.27000001
5.5900002 -5.0190001 -1.33 0.34
5.6069999 -5.0029998 -1.33 0.31
5.6680002 -5.0250001 -1.342 0.30000001
5.6719999 -4.9970002 -1.339 0.31999999
5.75 -5.033 -1.355 0.28999999
5.7659998 -5.0310001 -1.357 0.28999999
5.7779999 -5.0100002 -1.3559999 0.31999999
5.8699999 -5.0570002 -1.376 0.27000001
5.8959999 -5.0469999 -1.378 0.34
5.9510002 -5.0619998 -1.388 0.31
5.9699998 -5.046 -1.3890001 0.2
6.0510001 -5.0809999 -1.405 0.28999999
6.0840001 -5.0929999 -1.4119999 0.23999999
6.105 -5.0770001 -1.413 0.16
6.1539998 -5.086 -1.421 0.28999999
6.1880002 -5.0809999 -1.426 0.23999999
6.2290001 -5.0809999 -1.432 0.23
6.243 -5.0609999 -1.432 0.23999999
6.2329998 -5.02 -1.425 0.18000001
6.29 -5.0489998 -1.437 0.31
6.355 -5.0689998 -1.449 0.23999999
6.3909998 -5.0650001 -1.454 0.27000001
6.4380002 -5.0689998 -1.462 0.25999999
6.4580002 -5.052 -1.4630001 0.28
6.4910002 -5.0450001 -1.467 0.34
6.5240002 -5.0380001 -1.471 0.28999999
6.5599999 -5.0489998 -1.478 0.28999999
6.6040001 -5.0500002 -1.485 0.25999999
6.6500001 -5.0510001 -1.492 0.23999999
6.691 -5.0489998 -1.498 0.28999999
6.7049999 -5.027 -1.498 0.27000001
6.743 -5.0219998 -1.503 0.31
6.7540002 -4.9980001 -1.502 0.25
6.803 -5.0170002 -1.512 0.28
6.8460002 -5.0149999 -1.5190001 0.31999999
6.8920002 -5.0159998 -1.526 0.27000001
6.9190001 -5.0019999 -1.528 0.18000001
6.9629998 -5.0009999 -1.535 0.30000001
6.9910002 -4.9879999 -1.538 0.25
7.0229998 -4.9770002 -1.5420001 0.25999999
7.0229998 -4.961 -1.54 0.30000001
7.0640001 -4.9559999 -1.546 0.25
7.0489998 -4.9130001 -1.539 0.16
7.0809999 -4.902 -1.543 0.31
7.1279998 -4.902 -1.55 0.23999999
7.1259999 -4.8670001 -1.546 0.18000001
7.1409998 -4.8449998 -1.546 0.27000001
7.0890002 -4.7930002 -1.5319999 0.23999999
7.1350002 -4.7919998 -1.539 0.16
7.138 -4.7620001 -1.5369999 0.30000001
7.138 -4.7290001 -1.533 0.25
7.1500001 -4.7049999 -1.533 0.28
7.1789999 -4.6919999 -1.536 0.27000001
7.211 -4.697 -1.5420001 0.27000001
7.2080002 -4.6620002 -1.538 0.27000001
7.2509999 -4.658 -1.544 0.28999999
7.2989998 -4.6560001 -1.552 0.27000001
7.3260002 -4.6409998 -1.5549999 0.33000001
7.3379998 -4.6160002 -1.554 0.25999999
7.4039998 -4.625 -1.566 0.25999999
7.3909998 -4.6009998 -1.561 0.30000001
7.4359999 -4.5960002 -1.568 0.33000001
7.4380002 -4.566 -1.5650001 0.31999999
7.4159999 -4.52 -1.557 0.30000001
7.4850001 -4.5300002 -1.569 0.31
7.5250001 -4.5219998 -1.575 0.28
7.5250001 -4.4899998 -1.572 0.28999999
7.5050001 -4.4619999 -1.566 0.27000001
7.5689998 -4.467 -1.577 0.33000001
7.5890002 -4.448 -1.579 0.31999999
7.6459999 -4.448 -1.5880001 0.30000001
7.665 -4.427 -1.589 0.30000001
7.6939998 -4.4120002 -1.5930001 0.31
7.6989999 -4.3829999 -1.591 0.28999999
7.6939998 -4.3639998 -1.5880001 0.31999999
7.7059999 -4.3390002 -1.5880001 0.34
7.7150002 -4.3119998 -1.587 0.25999999
7.7800002 -4.316 -1.598 0.28
7.7789998 -4.2839999 -1.595 0.28999999
7.8070002 -4.2670002 -1.598 0.30000001
7.8239999 -4.244 -1.599 0.30000001
7.8439999 -4.2389998 -1.602 0.30000001
7.934 -4.2550001 -1.619 0.28999999
7.9619999 -4.2389998 -1.622 0.28999999
7.9720001 -4.2119999 -1.6210001 0.30000001
7.9850001 -4.1869998 -1.6210001 0.31
8.0129995 -4.1690001 -1.624 0.31999999
8.0100002 -4.1350002 -1.6210001 0.28
8.0159998 -4.1230001 -1.6210001 0.31999999
8.0430002 -4.105 -1.624 0.34999999
8.0699997 -4.0869999 -1.627 0.31999999
8.1269999 -4.0830002 -1.636 0.31999999
8.2030001 -4.0890002 -1.65 0.28999999
8.2410002 -4.0749998 -1.655 0.30000001
8.3009996 -4.073 -1.666 0.28
8.3290005 -4.0700002 -1.67 0.27000001
8.4139996 -4.079 -1.686 0.25
8.441 -4.059 -1.689 0.28999999
8.4300003 -4.0209999 -1.684 0.18000001
8.3649998 -3.9579999 -1.6670001 0.30000001
8.3769999 -3.9319999 -1.6670001 0.23999999
8.4589996 -3.938 -1.682 0.27000001
8.4049997 -3.8959999 -1.669 0.28
8.4580002 -3.8889999 -1.678 0.27000001
8.4860001 -3.869 -1.681 0.25999999
8.5819998 -3.881 -1.699 0.25999999
8.5780001 -3.846 -1.696 0.14
8.6350002 -3.839 -1.705 0.28999999
8.665 -3.8199999 -1.709 0.17
8.6070004 -3.7780001 -1.6950001 0.25
8.5970001 -3.7420001 -1.691 0.23
8.6359997 -3.7260001 -1.696 0.28999999
8.6560001 -3.7030001 -1.698 0.28999999
8.6610003 -3.6730001 -1.697 0.31
8.6899996 -3.6530001 -1.701 0.25
8.6599998 -3.608 -1.692 0.31999999
8.698 -3.608 -1.699 0.28999999
8.717 -3.5840001 -1.7 0.28
8.6859999 -3.54 -1.692 0.27000001
8.6059999 -3.4760001 -1.673 0.27000001
8.6300001 -3.454 -1.675 0.28
8.7209997 -3.4579999 -1.692 0.28
8.7629995 -3.4430001 -1.698 0.28999999
8.7869997 -3.4360001 -1.702 0.27000001
8.7700005 -3.398 -1.696 0.28999999
8.7840004 -3.372 -1.697 0.31
8.842 -3.362 -1.707 0.34
8.9169998 -3.359 -1.72 0.27000001
8.9370003 -3.3340001 -1.722 0.30000001
8.9139996 -3.2939999 -1.715 0.28
8.8839998 -3.267 -1.7079999 0.25999999
8.8389997 -3.2190001 -1.697 0.25999999
8.842 -3.1889999 -1.6950001 0.28999999
8.8540001 -3.161 -1.696 0.28
8.8990002 -3.1459999 -1.7029999 0.28999999
8.927 -3.1240001 -1.707 0.30000001
8.9610004 -3.105 -1.712 0.27000001
8.934 -3.0799999 -1.705 0.28
8.9700003 -3.0610001 -1.711 0.27000001
9.052 -3.0569999 -1.725 0.27000001
9.0430002 -3.0220001 -1.722 0.25
9.0620003 -2.997 -1.723 0.31999999
9.0679998 -2.967 -1.723 0.33000001
9.1269999 -2.9549999 -1.733 0.27000001
9.0830002 -2.925 -1.723 0.14
8.9709997 -2.858 -1.698 0.28
9.0080004 -2.8380001 -1.704 0.23
9.0039997 -2.806 -1.701 0.16
9.0799999 -2.7980001 -1.715 0.28999999
9.0869999 -2.7690001 -1.715 0.23
9.1590004 -2.76 -1.728 0.28999999
9.2069998 -2.7579999 -1.7359999 0.25999999
9.1379995 -2.707 -1.721 0.18000001
9.1339998 -2.674 -1.7180001 0.28
9.0439997 -2.6170001 -1.698 0.2
9.1070004 -2.6040001 -1.709 0.18000001
9.1619997 -2.589 -1.719 0.28999999
9.2080002 -2.586 -1.727 0.23
9.1630001 -2.543 -1.717 0.22
9.2370005 -2.5320001 -1.73 0.33000001
9.1999998 -2.4909999 -1.721 0.31999999
9.1829996 -2.4549999 -1.716 0.17
9.2110004 -2.4319999 -1.72 0.28999999
9.1890001 -2.395 -1.714 0.25
9.0740004 -2.3499999 -1.6900001 0.2
8.9849997 -2.2969999 -1.671 0.18000001
9.2089996 -2.323 -1.714 0.31
9.1949997 -2.289 -1.71 0.25
9.2060003 -2.2609999 -1.711 0.15000001
9.2799997 -2.2479999 -1.724 0.28999999
9.3199997 -2.227 -1.7309999 0.2
9.3310003 -2.214 -1.732 0.12
9.2650003 -2.168 -1.7180001 0.090000004
9.1569996 -2.112 -1.6950001 0.039999999
9.1370001 -2.0780001 -1.6900001 0
9.1300001 -2.046 -1.687 0.13
9.1260004 -2.0150001 -1.6849999 0.15000001
9.1230001 -1.984 -1.683 0.31999999
9.132 -1.971 -1.684 0.37
9.132 -1.941 -1.683 0.36000001
9.1400003 -1.913 -1.684 0.38
9.1850004 -1.892 -1.691 0.16
9.1870003 -1.863 -1.6900001 0.039999999
9.1850004 -1.832 -1.689 0.07
9.1730003 -1.8 -1.6849999 0.039999999
9.1859999 -1.7869999 -1.687 0.07
9.1639996 -1.753 -1.682 0.039999999
9.1829996 -1.727 -1.6849999 0
9.1929998 -1.699 -1.6849999 0
9.184 -1.668 -1.683 0
9.1899996 -1.6390001 -1.683 0
9.1999998 -1.6109999 -1.684 0
9.191 -1.595 -1.682 0
9.1960001 -1.566 -1.682 0
9.2010002 -1.5369999 -1.682 0
9.2040005 -1.507 -1.681 0
9.2089996 -1.479 -1.681 0
9.2130003 -1.45 -1.681 0
9.2180004 -1.421 -1.681 0
9.2449999 -1.41 -1.686 0
9.2320004 -1.378 -1.683 0
9.2130003 -1.346 -1.678 0
9.2229996 -1.318 -1.679 0
9.2329998 -1.29 -1.681 0
9.2329998 -1.26 -1.6799999 0
9.2290001 -1.23 -1.678 0
9.2290001 -1.215 -1.678 0
9.2119999 -1.184 -1.674 0
9.2329998 -1.1569999 -1.677 0
9.2349997 -1.128 -1.677 0
9.2220001 -1.097 -1.674 0
9.2220001 -1.067 -1.673 0
9.2449999 -1.041 -1.677 0
9.2309999 -1.024 -1.674 0
9.2440004 -0.99599999 -1.676 0
9.2469997 -0.96700001 -1.676 0
9.2299995 -0.93599999 -1.6720001 0
9.2449999 -0.90799999 -1.674 0
9.25 -0.88 -1.674 0
9.25 -0.85000002 -1.674 0
9.25 -0.83600003 -1.674 0
9.2460003 -0.80599999 -1.673 0
9.2349997 -0.77600002 -1.67 0
9.2530003 -0.74800003 -1.673 0
9.25 -0.71899998 -1.6720001 0
9.2480001 -0.68900001 -1.671 0
9.2620001 -0.66100001 -1.673 0
9.2589998 -0.64600003 -1.673 0
9.2629995 -0.61699998 -1.673 0
9.243 -0.58700001 -1.669 0
9.257 -0.55800003 -1.671 0
9.2550001 -0.52899998 -1.67 0
9.2620001 -0.5 -1.671 0
9.2580004 -0.47099999 -1.67 0
9.2770004 -0.44299999 -1.674 0
9.2810001 -0.428 -1.674 0
9.2980003 -0.40000001 -1.677 0
9.2740002 -0.37 -1.673 0
9.2790003 -0.34099999 -1.673 0
9.2799997 -0.31099999 -1.673 0
9.2650003 -0.28200001 -1.67 0
9.2819996 -0.26800001 -1.673 0
9.2779999 -0.23899999 -1.673 0
9.2729998 -0.20900001 -1.671 0
9.2370005 -0.17900001 -1.664 0
9.2700005 -0.15099999 -1.671 0
9.2379999 -0.121 -1.664 0
9.2729998 -0.093000002 -1.671 0
9.2670002 -0.078000002 -1.67 0
9.2320004 -0.048999999 -1.663 0
9.2740002 -0.02 -1.671 0
8.6389999 0.003 -1.649 0.20999999
8.6450005 0.017000001 -1.65 0.19
8.6450005 0.044 -1.65 0.23
8.6470003 0.071000002 -1.651 0.19
8.6339998 0.097999997 -1.648 0.22
8.6379995 0.126 -1.649 0.1
8.6280003 0.153 -1.647 0.19
8.6389999 0.18000001 -1.65 0.19
8.6269999 0.193 -1.647 0.1
8.632 0.22 -1.648 0.18000001
8.632 0.248 -1.648 0.20999999
8.6289997 0.27500001 -1.648 0.090000004
8.618 0.301 -1.646 0.19
8.6309996 0.329 -1.649 0.11
8.6169996 0.34200001 -1.646 0.18000001
8.6169996 0.36899999 -1.646 0.19
8.6239996 0.39700001 -1.648 0.090000004
8.6190004 0.42399999 -1.647 0.16
8.6129999 0.44999999 -1.646 0.17
8.6079998 0.477 -1.646 0.18000001
8.599 0.50400001 -1.6440001 0.1
8.6049995 0.53100002 -1.646 0.079999998
8.6079998 0.54500002 -1.646 0.079999998
8.6020002 0.57200003 -1.646 0.090000004
8.5950003 0.59899998 -1.6440001 0.079999998
8.5970001 0.62599999 -1.645 0.16
8.5790005 0.65200001 -1.642 0.039999999
8.5810003 0.67900002 -1.643 0.07
8.5710001 0.70499998 -1.641 0.039999999
8.5810003 0.72000003 -1.6440001 0.07
8.5790005 0.74699998 -1.6440001 0.15000001
8.5710001 0.773 -1.642 0.18000001
8.5679998 0.80000001 -1.642 0.18000001
8.5579996 0.82599998 -1.641 0.18000001
8.5609999 0.85399997 -1.642 0.039999999
8.5369997 0.87800002 -1.638 0.16
8.5419998 0.89200002 -1.6390001 0.050000001
8.5410004 0.91900003 -1.6390001 0.18000001
8.5319996 0.94599998 -1.638 0.050000001
8.5290003 0.972 -1.638 0.17
8.5410004 1.001 -1.641 0.2
8.5249996 1.026 -1.638 0.1
8.5209999 1.053 -1.638 0.090000004
8.5290003 1.068 -1.64 0.19
8.5100002 1.092 -1.637 0.2
8.5109997 1.12 -1.638 0.090000004
8.4919996 1.1440001 -1.635 0.18000001
8.5089998 1.174 -1.6390001 0.1
8.4980001 1.199 -1.638 0.19
8.4960003 1.226 -1.638 0.11
8.4820004 1.238 -1.636 0.2
8.4799995 1.265 -1.636 0.1
8.4799995 1.2920001 -1.637 0.18000001
8.4759998 1.319 -1.637 0.20999999
8.4759998 1.346 -1.638 0.19
8.4720001 1.373 -1.638 0.23
8.4560003 1.397 -1.635 0.22
8.448 1.41 -1.6339999 0.23
8.4510002 1.438 -1.636 0.22
8.4250002 1.461 -1.631 0.2
8.4219999 1.487 -1.632 0.23999999
8.4200001 1.5140001 -1.632 0.2
8.4110003 1.54 -1.631 0.25
8.4040003 1.566 -1.631 0.22
8.4110003 1.581 -1.633 0.20999999
8.3950005 1.605 -1.63 0.19
8.3959999 1.633 -1.632 0.28
8.3789997 1.6569999 -1.6289999 0.33000001
8.375 1.683 -1.63 0.28999999
8.368 1.709 -1.6289999 0.28999999
8.3699999 1.737 -1.631 0.28
8.3640003 1.75 -1.63 0.27000001
8.3509998 1.774 -1.628 0.27000001
8.3640003 1.8049999 -1.632 0.25999999
8.3430004 1.8279999 -1.6289999 0.18000001
8.3299999 1.852 -1.628 0.28999999
8.3199997 1.877 -1.627 0.25
8.3219995 1.905 -1.628 0.25999999
8.3170004 1.918 -1.628 0.27000001
8.3240004 1.947 -1.631 0.27000001
8.2989998 1.969 -1.627 0.19
8.2980003 1.9960001 -1.628 0.28999999
8.2939997 2.023 -1.628 0.25
8.2950001 2.0510001 -1.63 0.23999999
8.2740002 2.073 -1.627 0.19
8.2720003 2.086 -1.627 0.28
8.2670002 2.1129999 -1.628 0.25
8.2679996 2.141 -1.6289999 0.25
8.25 2.164 -1.627 0.2
8.2279997 2.1860001 -1.624 0.28999999
8.2159996 2.21 -1.622 0.25
8.2139997 2.237 -1.624 0.28
8.2089996 2.25 -1.623 0.27000001
8.2019997 2.2750001 -1.623 0.25999999
8.1999998 2.303 -1.624 0.23999999
8.184 2.326 -1.622 0.22
8.1780005 2.352 -1.623 0.27000001
8.165 2.3759999 -1.6210001 0.25
8.158 2.402 -1.6210001 0.27000001
8.1409998 2.411 -1.619 0.27000001
8.1569996 2.444 -1.624 0.25
8.1400003 2.4660001 -1.622 0.18000001
8.1289997 2.4909999 -1.6210001 0.28999999
8.1169996 2.5150001 -1.62 0.23999999
8.1169996 2.543 -1.622 0.28
8.0939999 2.5639999 -1.619 0.25999999
8.1029997 2.5810001 -1.6210001 0.23999999
8.0889997 2.6040001 -1.62 0.20999999
8.085 2.631 -1.6210001 0.28
8.0710001 2.654 -1.62 0.25
8.0550003 2.677 -1.618 0.2
8.0559998 2.7060001 -1.62 0.28
8.04 2.7290001 -1.619 0.25
8.0299997 2.7390001 -1.617 0.25999999
8.0209999 2.7639999 -1.617 0.27000001
8.0290003 2.7950001 -1.6210001 0.17
8.007 2.816 -1.618 0.28
7.9949999 2.8399999 -1.617 0.25
7.9860001 2.865 -1.617 0.25
7.973 2.8889999 -1.617 0.25999999
7.9699998 2.902 -1.617 0.28
7.9699998 2.9300001 -1.619 0.23999999
7.9499998 2.951 -1.617 0.19
7.941 2.9760001 -1.617 0.28999999
7.9260001 2.9990001 -1.615 0.25
7.9180002 3.0250001 -1.6160001 0.27000001
7.9029999 3.0469999 -1.615 0.27000001
7.9039998 3.062 -1.6160001 0.27000001
7.8940001 3.0869999 -1.6160001 0.27000001
7.881 3.1099999 -1.615 0.25999999
7.882 3.1389999 -1.617 0.25
7.8590002 3.1589999 -1.615 0.30000001
7.849 3.184 -1.615 0.28
7.8390002 3.2079999 -1.615 0.25999999
7.8270001 3.2179999 -1.613 0.28
7.8169999 3.2420001 -1.613 0.28
7.816 3.27 -1.615 0.27000001
7.789 3.2880001 -1.6109999 0.28
7.777 3.312 -1.6109999 0.25999999
7.7680001 3.3369999 -1.6109999 0.28
7.7579999 3.3610001 -1.6109999 0.27000001
7.7529998 3.3740001 -1.6109999 0.28
7.737 3.3959999 -1.61 0.25999999
7.7189999 3.4170001 -1.609 0.27000001
7.717 3.4449999 -1.6109999 0.25999999
7.7059999 3.4690001 -1.6109999 0.27000001
7.6929998 3.493 -1.61 0.25999999
7.6820002 3.517 -1.61 0.28
7.6859999 3.533 -1.612 0.27000001
7.678 3.559 -1.613 0.25
7.6490002 3.5739999 -1.609 0.20999999
7.6479998 3.6029999 -1.6109999 0.27000001
7.6279998 3.6229999 -1.609 0.23
7.619 3.648 -1.61 0.27000001
7.6090002 3.6730001 -1.61 0.25999999
7.5840001 3.675 -1.6059999 0.28999999
7.5809999 3.704 -1.608 0.27000001
7.5689998 3.727 -1.608 0.27000001
7.5500002 3.7479999 -1.6059999 0.25999999
7.5469999 3.776 -1.608 0.2
7.5409999 3.802 -1.609 0.27000001
7.5120001 3.802 -1.604 0.23999999
7.4970002 3.8239999 -1.603 0.27000001
7.5050001 3.858 -1.608 0.25999999
7.474 3.872 -1.604 0.16
7.467 3.898 -1.605 0.28999999
7.4549999 3.9219999 -1.605 0.25
7.434 3.941 -1.603 0.2
7.4400001 3.9590001 -1.6059999 0.27000001
7.427 3.9820001 -1.6059999 0.23
7.3959999 3.9949999 -1.601 0.17
7.395 4.0250001 -1.604 0.28999999
7.381 4.0469999 -1.604 0.23999999
7.3579998 4.0650001 -1.601 0.25999999
7.3499999 4.0910001 -1.603 0.27000001
7.349 4.1199999 -1.605 0.19
7.3270001 4.1230001 -1.602 0.27000001
7.3060002 4.1420002 -1.6 0.25
7.3060002 4.1719999 -1.603 0.19
7.2859998 4.191 -1.601 0.27000001
7.263 4.2080002 -1.599 0.23999999
7.2620001 4.2379999 -1.602 0.18000001
7.2470002 4.2600002 -1.601 0.28
7.2309999 4.2659998 -1.599 0.25
7.2259998 4.2940001 -1.601 0.27000001
7.204 4.3109999 -1.599 0.28999999
7.1939998 4.336 -1.6 0.27000001
7.1960001 4.368 -1.604 0.25999999
7.1529999 4.3730001 -1.597 0.18000001
7.1529999 4.4039998 -1.6 0.28
7.1389999 4.4109998 -1.599 0.25
7.1259999 4.4330001 -1.599 0.17
7.1129999 4.4569998 -1.599 0.28999999
7.0960002 4.4770002 -1.598 0.25
7.079 4.4970002 -1.597 0.27000001
7.073 4.5250001 -1.599 0.23
7.0440001 4.5370002 -1.596 0.20999999
7.0479999 4.5560002 -1.599 0.27000001
7.0289998 4.5749998 -1.597 0.23999999
7.0110002 4.5949998 -1.597 0.25999999
6.9959998 4.6170001 -1.597 0.2
6.9840002 4.6399999 -1.597 0.25999999
6.967 4.6599998 -1.597 0.23999999
6.9629998 4.6739998 -1.597 0.25999999
6.9419999 4.691 -1.596 0.20999999
6.921 4.7080002 -1.594 0.27000001
6.9109998 4.7329998 -1.595 0.25
6.8930001 4.7529998 -1.595 0.25999999
6.8860002 4.7800002 -1.597 0.25
6.8610001 4.7950001 -1.594 0.20999999
6.855 4.8070002 -1.595 0.25999999
6.8270001 4.8189998 -1.591 0.22
6.8260002 4.8509998 -1.595 0.23999999
6.8140001 4.875 -1.596 0.18000001
6.7880001 4.888 -1.5930001 0.28999999
6.776 4.9120002 -1.594 0.25
6.7709999 4.941 -1.597 0.23
6.7649999 4.9530001 -1.597 0.20999999
6.7399998 4.967 -1.595 0.27000001
6.7280002 4.9910002 -1.595 0.23999999
6.6989999 5.0019999 -1.592 0.2
6.698 5.0339999 -1.596 0.28
6.6739998 5.0489998 -1.594 0.23
6.6529999 5.066 -1.5930001 0.25999999
6.6469998 5.0939999 -1.595 0.25999999
6.6399999 5.1059999 -1.595 0.25999999
6.6269999 5.1290002 -1.596 0.23
6.6409998 5.1729999 -1.604 0.14
6.6240001 5.1939998 -1.604 0.28999999
6.5939999 5.204 -1.6 0.50999999
6.5960002 5.2389998 -1.605 0.44999999
6.572 5.2529998 -1.603 0.49000001
6.5500002 5.2529998 -1.599 0.58999997
6.5 5.2459998 -1.591 0.58999997
6.4879999 5.27 -1.592 0.27000001
6.4829998 5.3010001 -1.595 0.27000001
6.4650002 5.3200002 -1.595 0.23999999
6.4590001 5.349 -1.597 0.19
6.4450002 5.3540001 -1.596 0.27000001
6.434 5.3790002 -1.597 0.25
6.4169998 5.3990002 -1.597 0.19
6.3940001 5.414 -1.596 0.27000001
6.3829999 5.4400001 -1.597 0.23
6.3629999 5.4569998 -1.597 0.2
6.3509998 5.4819999 -1.598 0.25999999
6.3410001 5.4910002 -1.598 0.23
6.3260002 5.5120001 -1.598 0.18000001
6.3099999 5.533 -1.599 0.25999999
6.2979999 5.5580001 -1.6 0.22
6.2880001 5.5840001 -1.602 0.2
6.263 5.598 -1.6 0.25
6.2340002 5.6069999 -1.597 0.23999999
6.243 5.632 -1.602 0.2
6.2199998 5.6479998 -1.601 0.23
6.1900001 5.6560001 -1.597 0.22
6.1859999 5.6880002 -1.601 0.11
6.158 5.698 -1.598 0.20999999
6.1479998 5.724 -1.6 0.20999999
6.1279998 5.7420001 -1.6 0.23
6.132 5.7639999 -1.603 0.20999999
6.1069999 5.776 -1.601 0.12
6.079 5.7859998 -1.599 0.20999999
6.0669999 5.8119998 -1.601 0.19
6.052 5.8340001 -1.601 0.25999999
6.0380001 5.8569999 -1.603 0.2
6.026 5.8829999 -1.605 0.22
6.0050001 5.8990002 -1.604 0.20999999
5.987 5.9000001 -1.601 0.23
5.9840002 5.934 -1.6059999 0.19
5.9489999 5.9359999 -1.601 0.25
5.9390001 5.9629998 -1.603 0.19
5.927 5.9889998 -1.605 0.20999999
5.9050002 6.0040002 -1.605 0.19
