# .PCD v0.7 - Point Cloud Data file format
VERSION 0.7
FIELDS x y z intensity
SIZE 4 4 4 4
TYPE F F F F
COUNT 1 1 1 1
WIDTH 1387
HEIGHT 1
VIEWPOINT 0 0 0 1 0 0 0
POINTS 1387
DATA ascii
12.658 4.3260002 -1.852 0.28999999
12.656 4.3699999 -1.854 0.28999999
12.661 4.4159999 -1.857 0.28
12.673 4.4419999 -1.86 0.30000001
12.67 4.4860001 -1.862 0.28
12.685 4.5359998 -1.8660001 0.28
12.703 4.5869999 -1.872 0.28
12.696 4.6300001 -1.873 0.27000001
12.701 4.677 -1.876 0.28
12.722 4.73 -1.882 0.27000001
12.707 4.7480001 -1.881 0.17
12.733 4.803 -1.887 0.46000001
12.729 4.8470001 -1.8890001 0.25
12.721 4.8899999 -1.89 0.25999999
12.744 4.9450002 -1.897 0.25
12.732 4.9860001 -1.897 0.30000001
12.737 5.0339999 -1.901 0.25
12.758 5.066 -1.905 0.28999999
12.762 5.1139998 -1.909 0.28999999
12.752 5.1560001 -1.91 0.28999999
12.758 5.2049999 -1.913 0.28
12.758 5.2519999 -1.916 0.28999999
12.752 5.296 -1.918 0.23
12.777 5.3540001 -1.925 0.28999999
12.765 5.3720002 -1.924 0
12.805 5.5310001 -1.939 0.31999999
12.786 5.5710001 -1.939 0.43000001
12.75 5.6030002 -1.936 0.52999997
12.815 5.6799998 -1.95 0.23
12.828 5.7090001 -1.954 0.19
12.855 5.77 -1.961 0.41
12.848 5.8150001 -1.9630001 0.23
12.853 5.8660002 -1.967 0.18000001
12.874 5.9250002 -1.974 0.38999999
12.877 5.9749999 -1.977 0.20999999
12.876 6.0240002 -1.98 0.2
12.899 6.059 -1.9859999 0.37
12.896 6.1069999 -1.988 0.19
12.896 6.1570001 -1.992 0.25
12.877 6.197 -1.992 0.2
12.868 6.243 -1.994 0.18000001
12.891 6.3039999 -2.0009999 0.41999999
12.882 6.3499999 -2.003 0.25
12.893 6.381 -2.006 0.25999999
12.883 6.4260001 -2.0079999 0.27000001
12.886 6.4780002 -2.0120001 0.25999999
12.894 6.533 -2.017 0.27000001
12.914 6.5939999 -2.0239999 0.25
12.907 6.6420002 -2.026 0.30000001
12.897 6.6880002 -2.0280001 0.28999999
12.918 6.724 -2.0339999 0.28999999
12.918 6.776 -2.0369999 0.23999999
12.93 6.8340001 -2.043 0.27000001
12.922 6.882 -2.0450001 0.25999999
12.921 6.934 -2.049 0.19
12.938 6.9949999 -2.056 0.46000001
12.935 7.046 -2.059 0.25
12.939 7.0749998 -2.062 0.27000001
12.941 7.1290002 -2.066 0.27000001
12.941 7.1820002 -2.0699999 0.28
12.952 7.2399998 -2.076 0.20999999
12.96 7.2989998 -2.0810001 0.36000001
12.956 7.3499999 -2.085 0.19
12.964 7.408 -2.0899999 0.36000001
12.979 7.4439998 -2.095 0.20999999
12.992 7.506 -2.1010001 0.25
12.977 7.5510001 -2.1029999 0.19
12.985 7.6110001 -2.108 0.2
12.989 7.6680002 -2.1129999 0.36000001
12.982 7.7189999 -2.1159999 0.2
12.986 7.777 -2.1210001 0.38
12.988 7.8049998 -2.1240001 0.2
12.988 7.8610001 -2.128 0.25
12.979 7.9109998 -2.131 0.20999999
12.962 7.9569998 -2.1329999 0.17
12.976 8.0220003 -2.1400001 0.44
12.962 8.0699997 -2.142 0.25
12.959 8.1239996 -2.1459999 0.25999999
12.965 8.1850004 -2.151 0.25999999
12.967 8.2139997 -2.154 0.30000001
12.961 8.2679996 -2.158 0.27000001
12.984 8.3389997 -2.1670001 0.25999999
12.984 8.3970003 -2.171 0.28
13.024 8.4809999 -2.184 0.28999999
13.032 8.5450001 -2.1900001 0.23
13.02 8.5950003 -2.1930001 0.28999999
12.945 8.5760002 -2.181 0.30000001
12.887 8.5950003 -2.1760001 0.38999999
12.781 8.5830002 -2.161 0.38999999
12.728 8.6059999 -2.1559999 0.28
12.67 8.6239996 -2.151 0.41999999
12.584 8.6239996 -2.1400001 0.30000001
12.51 8.6020002 -2.128 0.25999999
12.437 8.6099997 -2.1199999 0.34
12.361 8.6149998 -2.1110001 0.30000001
12.295 8.6269999 -2.1040001 0.34999999
12.249 8.6520004 -2.0999999 0.34999999
12.21 8.6820002 -2.098 0.28999999
12.172 8.7130003 -2.096 0.25999999
12.177 8.7460003 -2.099 0.23
12.134 8.7720003 -2.096 0.41
12.069 8.7840004 -2.089 0.31999999
11.994 8.7869997 -2.0799999 0.37
11.936 8.802 -2.075 0.37
11.903 8.8360004 -2.0739999 0.37
11.836 8.8439999 -2.066 0.37
11.798 8.8450003 -2.0610001 0.41
11.751 8.8669996 -2.0580001 0.38999999
11.676 8.868 -2.049 0.28999999
11.65 8.9060001 -2.049 0.46000001
11.62 8.9420004 -2.049 0.33000001
11.592 8.9779997 -2.049 0.40000001
11.542 8.9969997 -2.0450001 0.41
11.473 9.0019999 -2.0369999 0.36000001
11.406 8.9790001 -2.026 0.38999999
11.35 8.9919996 -2.0209999 0.37
11.308 9.0170002 -2.0179999 0.41
11.225 9.0089998 -2.0079999 0.28999999
11.221 9.0640001 -2.0120001 0.46000001
11.205 9.1090002 -2.0150001 0.34999999
11.15 9.1230001 -2.01 0.38
11.133 9.1379995 -2.0090001 0.37
11.211 9.2609997 -2.03 0.44
11.139 9.2609997 -2.0220001 0.36000001
11.089 9.2779999 -2.0179999 0.38
10.949 9.2200003 -1.995 0.31999999
10.913 9.2480001 -1.994 0.44999999
10.843 9.2480001 -1.9859999 0.34999999
10.749 9.1969995 -1.97 0.40000001
10.735 9.2440004 -1.973 0.38
10.677 9.2530003 -1.967 0.44999999
10.657 9.2939997 -1.969 0.43000001
10.628 9.3269997 -1.969 0.38
10.632 9.3909998 -1.976 0.27000001
10.526 9.3559999 -1.96 0.44999999
10.514 9.375 -1.961 0.33000001
10.44 9.3690004 -1.952 0.40000001
10.423 9.4119997 -1.954 0.31
10.324 9.382 -1.9400001 0.50999999
10.42 9.5290003 -1.966 0.34999999
10.316 9.4940004 -1.95 0.30000001
10.369 9.6020002 -1.9680001 0.41
10.651 9.8940001 -2.03 0.31999999
10.64 9.9460001 -2.0339999 0.33000001
10.753 10.115 -2.0639999 0.34
10.514 9.9530001 -2.0209999 0.23999999
10.744 10.234 -2.076 0.36000001
10.692 10.249 -2.0710001 0.44
10.627 10.251 -2.0650001 0.34999999
10.609 10.266 -2.0639999 0.38
10.696 10.415 -2.0899999 0.38
10.523 10.312 -2.0599999 0.37
10.539 10.392 -2.0699999 0.36000001
10.246 10.168 -2.0139999 0.43000001
10.5 10.484 -2.076 0.31999999
10.456 10.506 -2.073 0.38
10.552 10.636 -2.098 0.38
10.533 10.683 -2.1010001 0.25999999
10.476 10.692 -2.096 0.49000001
10.297 10.576 -2.0639999 0.33000001
10.427 10.778 -2.0999999 0.31999999
10.362 10.778 -2.0929999 0.44999999
10.342 10.824 -2.096 0.38
10.348 10.865 -2.1010001 0.30000001
10.281 10.863 -2.0940001 0.46000001
10.267 10.917 -2.098 0.36000001
10.297 11.017 -2.1129999 0.44
10.266 11.053 -2.1140001 0.28
10.211 11.064 -2.109 0.44999999
10.194 11.115 -2.1129999 0.34999999
8.5679998 9.3780003 -1.749 0.20999999
11.009 12.115 -2.3099999 0.46000001
10.946 12.122 -2.3050001 0.22
10.957 12.211 -2.316 0.28
10.912 12.238 -2.3139999 0.28
9.9420004 11.224 -2.0999999 0.28999999
10.811 12.279 -2.309 0.23999999
10.873 12.427 -2.332 0.25
10.861 12.453 -2.3340001 0.23
10.831 12.498 -2.336 0.20999999
10.816 12.56 -2.342 0.25
10.79 12.609 -2.345 0.23999999
10.759 12.654 -2.3469999 0.33000001
10.731 12.701 -2.3499999 0.27000001
10.716 12.765 -2.3559999 0.23
10.71 12.798 -2.359 0.28999999
10.678 12.841 -2.3610001 0.25
10.66 12.902 -2.3670001 0.31999999
10.641 12.961 -2.372 0.27000001
10.606 13.002 -2.3729999 0.28
10.583 13.057 -2.3770001 0.31999999
10.549 13.099 -2.3789999 0.25
10.547 13.139 -2.3840001 0.38
10.532 13.205 -2.3900001 0.31999999
10.507 13.259 -2.3940001 0.30000001
10.48 13.311 -2.398 0.28999999
10.447 13.355 -2.4000001 0.27000001
10.417 13.403 -2.4030001 0.31999999
10.404 13.473 -2.4100001 0.31999999
10.394 13.503 -2.4130001 0.31
10.368 13.558 -2.4170001 0.28
10.35 13.622 -2.4230001 0.33000001
10.322 13.675 -2.427 0.30000001
10.299 13.734 -2.4330001 0.31
10.288 13.809 -2.441 0.28999999
10.291 13.903 -2.4530001 0.28
10.329 14 -2.4679999 0.28
10.306 14.062 -2.473 0.28999999
10.306 14.155 -2.4849999 0.33000001
10.283 14.217 -2.4909999 0.28999999
10.262 14.282 -2.497 0.30000001
10.242 14.349 -2.503 0.28
10.224 14.418 -2.51 0.33000001
10.225 14.468 -2.517 0.28999999
10.217 14.554 -2.527 0.28999999
10.179 14.597 -2.529 0.30000001
10.132 14.627 -2.529 0.30000001
10.074 14.641 -2.5250001 0.47
10.03 14.676 -2.526 0.28999999
9.9870005 14.712 -2.527 0.33000001
9.9790001 14.751 -2.5309999 0.40000001
9.941 14.794 -2.533 0.37
9.8649998 14.78 -2.5250001 0.46000001
9.8369999 14.839 -2.53 0.30000001
9.7530003 14.814 -2.52 0.44999999
9.6969995 14.83 -2.517 0.41
9.6660004 14.885 -2.5220001 0.31999999
9.6400003 14.895 -2.5209999 0.36000001
9.5369997 14.839 -2.5050001 0.38
9.5240002 14.922 -2.5150001 0.37
9.4160004 14.855 -2.497 0.34
9.3909998 14.92 -2.503 0.38999999
9.3599997 14.974 -2.5079999 0.41
9.3070002 14.994 -2.506 0.33000001
9.2880001 15.068 -2.5139999 0.34
9.2550001 15.068 -2.5120001 0.31
9.0319996 14.81 -2.46 0.38999999
9.0459995 14.938 -2.4779999 0.38
9.0190001 14.998 -2.484 0.37
9.6140003 16.1 -2.6760001 0.19
9.6090002 16.207001 -2.6889999 0.50999999
9.6219997 16.344 -2.7079999 0.20999999
9.632 16.421 -2.7190001 0.38999999
9.4910002 16.297001 -2.6919999 0.23999999
9.2290001 15.964 -2.628 0.52999997
9.0649996 15.794 -2.5929999 0.20999999
8.9650002 15.735 -2.5769999 0.34999999
8.8290005 15.61 -2.55 0.43000001
9.026 16.076 -2.6270001 0.25
9.0430002 16.166 -2.6400001 0.20999999
8.8780003 15.988 -2.6040001 0.40000001
8.823 16.007999 -2.6029999 0.33000001
8.7460003 15.987 -2.5940001 0.40000001
8.7700005 16.150999 -2.618 0.44999999
8.8100004 16.346001 -2.6470001 0.41999999
8.8439999 16.533001 -2.675 0.20999999
8.6940002 16.313999 -2.635 0.43000001
8.6110001 16.282 -2.6240001 0.36000001
8.4069996 16.018 -2.5739999 0.25
8.3319998 15.999 -2.566 0.56
8.3059998 16.070999 -2.5739999 0.30000001
8.1219997 15.838 -2.53 0.43000001
8.0600004 15.839 -2.5250001 0.28999999
8.0369997 15.855 -2.526 0.46000001
7.9879999 15.882 -2.526 0.36000001
8.04 16.111 -2.5610001 0.34
7.9720001 16.101999 -2.5550001 0.41
7.9180002 16.120001 -2.5539999 0.44999999
7.8590002 16.127001 -2.5510001 0.30000001
7.8590002 16.257 -2.569 0.47999999
7.8790002 16.363001 -2.585 0.23
7.7179999 16.16 -2.546 0.52999997
7.6599998 16.167999 -2.543 0.28999999
7.664 16.308001 -2.563 0.33000001
7.612 16.33 -2.563 0.43000001
7.5500002 16.332001 -2.559 0.38999999
7.4629998 16.278999 -2.546 0.44999999
7.3189998 16.097 -2.5120001 0.27000001
7.3590002 16.253 -2.536 0.31999999
7.244 16.135 -2.5120001 0.46000001
7.1630001 16.089001 -2.5009999 0.38
6.9499998 15.745 -2.4389999 0.41999999
6.8449998 15.64 -2.418 0.27000001
6.836 15.754 -2.4330001 0.43000001
6.8540001 15.933 -2.46 0.36000001
6.8260002 15.935 -2.4579999 0.37
6.9229999 16.302 -2.516 0.28999999
6.8709998 16.320999 -2.516 0.31999999
6.6929998 16.040001 -2.4649999 0.38999999
6.6220002 16.011999 -2.457 0.36000001
6.6090002 16.124001 -2.4719999 0.44
6.5349998 16.087999 -2.4630001 0.41
6.4840002 16.034 -2.4519999 0.44999999
6.447 16.089001 -2.4579999 0.25
6.3179998 15.911 -2.425 0.56999999
6.2639999 15.922 -2.424 0.37
6.2810001 16.112 -2.4519999 0.23
6.132 15.878 -2.4100001 0.51999998
6.1739998 16.136999 -2.45 0.30000001
6.119 16.069 -2.437 0.31
6.1690001 16.354 -2.48 0.33000001
6.1160002 16.368 -2.48 0.49000001
6.073 16.409 -2.483 0.38999999
5.9899998 16.344999 -2.47 0.31
5.901 16.26 -2.4530001 0.47
5.8740001 16.343 -2.4630001 0.31999999
5.8439999 16.341 -2.461 0.40000001
5.7839999 16.334999 -2.457 0.51999998
5.7969999 16.535999 -2.487 0.20999999
5.7810001 16.659 -2.5039999 0.57999998
5.7449999 16.724001 -2.5120001 0.2
5.5450001 16.309 -2.4419999 0.52999997
5.3899999 16.021 -2.392 0.27000001
5.151 15.472 -2.3010001 0.36000001
5.046 15.238 -2.2620001 0.38
5.0159998 15.31 -2.2709999 0.20999999
4.9889998 15.39 -2.2809999 0.47999999
4.9889998 15.556 -2.3050001 0.44999999
5.3309999 16.798 -2.503 0.16
4.8569999 15.48 -2.2880001 0.54000002
4.8449998 15.61 -2.3069999 0.30000001
4.9629998 16.076 -2.3800001 0.34
4.9889998 16.341 -2.4200001 0.63999999
4.723 15.649 -2.3069999 0.20999999
4.6350002 15.537 -2.2869999 0.62
4.6160002 15.652 -2.303 0.30000001
4.6030002 15.788 -2.322 0.27000001
4.5570002 15.816 -2.3239999 0.5
4.427 15.458 -2.266 0.34
4.362 15.413 -2.257 0.38
4.27 15.273 -2.2320001 0.43000001
4.4000001 15.926 -2.3340001 0.33000001
4.2399998 15.539 -2.27 0.41
4.1719999 15.484 -2.2590001 0.38
4.2979999 16.148001 -2.3629999 0.38
4.2709999 16.149 -2.362 0.28
4.2480001 16.268 -2.378 0.55000001
4.1550002 16.118 -2.3529999 0.34
4.1020002 16.122 -2.3510001 0.37
4.0630002 16.181999 -2.359 0.41
4.0009999 16.150999 -2.352 0.44
3.9849999 16.302999 -2.3740001 0.25999999
3.914 16.125 -2.345 0.51999998
3.8399999 16.041 -2.3299999 0.38
3.763 15.94 -2.312 0.25999999
3.586 15.409 -2.2260001 0.54000002
3.605 15.713 -2.2720001 0.20999999
3.579 15.828 -2.289 0.44999999
3.5220001 15.805 -2.283 0.34999999
3.592 16.356001 -2.368 0.46000001
3.566 16.362 -2.368 0.38999999
3.523 16.413 -2.3740001 0.41999999
3.3540001 15.873 -2.2880001 0.28999999
3.2709999 15.727 -2.2639999 0.43000001
3.194 15.6 -2.2420001 0.5
3.075 15.267 -2.188 0.15000001
2.9990001 15.016 -2.148 0.54000002
2.9619999 15.074 -2.1559999 0.38999999
2.911 15.067 -2.154 0.30000001
2.8729999 15.121 -2.161 0.22
2.8269999 15.14 -2.1619999 0.51999998
2.7920001 15.219 -2.1730001 0.34999999
2.7539999 15.278 -2.181 0.44999999
2.707 15.294 -2.1819999 0.36000001
2.704 15.417 -2.201 0.38
2.6570001 15.432 -2.201 0.34999999
2.609 15.444 -2.2019999 0.43000001
2.569 15.501 -2.21 0.28999999
2.5309999 15.579 -2.221 0.51999998
2.5569999 16.051001 -2.293 0.38
2.474 15.854 -2.2609999 0.23999999
2.4519999 15.876 -2.2639999 0.49000001
2.3959999 15.842 -2.257 0.31
2.362 15.953 -2.273 0.47999999
2.3180001 16.004 -2.28 0.31
2.276 16.069 -2.289 0.50999999
2.2309999 16.112 -2.2939999 0.38999999
2.178 16.107 -2.293 0.28999999
2.1459999 16.059 -2.2850001 0.43000001
2.0710001 15.882 -2.256 0.27000001
2.0150001 15.841 -2.2490001 0.54000002
1.995 16.079 -2.2850001 0.25
1.921 15.897 -2.256 0.51999998
1.849 15.714 -2.227 0.41
1.774 15.5 -2.1930001 0.43000001
1.742 15.442 -2.1830001 0.27000001
1.683 15.353 -2.1689999 0.41999999
1.6339999 15.35 -2.168 0.22
1.605 15.534 -2.1949999 0.51999998
1.5829999 15.803 -2.2360001 0.33000001
1.459 15.06 -2.1210001 0.43000001
1.408 15.023 -2.1140001 0.31999999
1.37 15.122 -2.1289999 0.5
1.377 15.465 -2.181 0.30000001
1.397 16.250999 -2.3010001 0.36000001
1.345 16.247 -2.3 0.47
1.288 16.177 -2.289 0.30000001
1.235 16.149 -2.2839999 0.51999998
1.1799999 16.098 -2.2750001 0.38999999
1.103 15.735 -2.2190001 0.44
1.075 15.697 -2.2130001 0.31
1.026 15.702 -2.2130001 0.34
0.97600001 15.695 -2.2119999 0.50999999
0.89700001 15.199 -2.135 0.27000001
0.84600002 15.158 -2.128 0.51999998
0.801 15.208 -2.1359999 0.38999999
0.75199997 15.189 -2.132 0.31
0.73400003 15.309 -2.151 0.49000001
0.69300002 15.447 -2.171 0.36000001
0.64899999 15.574 -2.191 0.30000001
0.60399997 15.653 -2.2019999 0.44999999
0.55800003 15.761 -2.2190001 0.38999999
0.52200001 16.156 -2.279 0.38
0.472 16.184999 -2.283 0.34
0.42500001 15.425 -2.1670001 0.54000002
0.37599999 15.429 -2.1670001 0.28
0.32699999 15.4 -2.1619999 0.56999999
0.28 15.482 -2.175 0.28
0.23199999 15.52 -2.181 0.38
0.18799999 15.881 -2.2360001 0.5
0.139 15.909 -2.24 0.36000001
0.114 15.882 -2.2360001 0.31
0.063000001 15.821 -2.2260001 0.56999999
0.014 15.817 -2.2260001 0.23
-0.035999998 15.617 -2.1949999 0.56
-0.085000001 15.486 -2.175 0.20999999
-0.132 15.369 -2.1570001 0.58999997
-0.182 15.543 -2.184 0.30000001
-0.23100001 15.495 -2.177 0.38
-0.25400001 15.443 -2.1689999 0.38
-0.30399999 15.543 -2.184 0.46000001
-0.35100001 15.415 -2.165 0.41
-0.264 9.8509998 -1.312 0.23
-0.29499999 9.8240004 -1.308 0.63999999
-0.32600001 9.8430004 -1.311 0.25
-0.53100002 15.005 -2.1029999 0.44999999
-0.55900002 15.13 -2.122 0.40000001
-0.616 15.369 -2.1589999 0.34
-0.67199999 15.571 -2.1900001 0.46000001
-0.72299999 15.614 -2.197 0.31
-0.77100003 15.584 -2.1930001 0.57999998
-0.83600003 15.899 -2.2420001 0.44999999
-0.87199998 15.636 -2.2019999 0.16
-0.90700001 15.818 -2.23 0.44999999
-0.954 15.77 -2.223 0.41999999
-1.001 15.737 -2.2179999 0.28999999
-1.045 15.651 -2.2060001 0.56999999
-1.102 15.754 -2.2219999 0.23
-1.152 15.767 -2.224 0.43000001
-1.193 15.647 -2.207 0.31999999
-1.216 15.625 -2.204 0.51999998
-1.267 15.635 -2.2060001 0.34999999
-1.313 15.593 -2.2 0.38999999
-1.362 15.593 -2.201 0.38999999
-1.416 15.65 -2.21 0.44999999
-1.479 15.789 -2.2320001 0.28999999
-1.528 15.777 -2.2309999 0.51999998
-1.562 15.874 -2.2460001 0.34
-1.603 15.785 -2.233 0.37
-1.652 15.77 -2.2320001 0.44
-1.702 15.771 -2.233 0.34999999
-1.7460001 15.716 -2.2249999 0.41999999
-1.798 15.732 -2.2279999 0.37
-1.848 15.734 -2.23 0.47999999
-1.888 15.859 -2.2490001 0.41
-1.9450001 15.91 -2.2579999 0.41999999
-1.9809999 15.796 -2.2409999 0.41
-2.0220001 15.719 -2.2309999 0.41999999
-2.0739999 15.732 -2.234 0.34999999
-2.1229999 15.723 -2.233 0.44999999
-2.154 15.578 -2.2119999 0.38
-2.2160001 15.665 -2.2260001 0.40000001
-2.243 15.679 -2.2290001 0.43000001
-2.2839999 15.617 -2.221 0.33000001
-2.326 15.565 -2.214 0.43000001
-2.368 15.506 -2.2060001 0.36000001
-2.4990001 16.034 -2.289 0.30000001
-2.5650001 16.125999 -2.3039999 0.50999999
-2.6619999 16.409 -2.349 0.27000001
-2.677 16.334 -2.3380001 0.52999997
-2.7390001 16.389999 -2.348 0.28999999
-2.7820001 16.330999 -2.3399999 0.46000001
-2.8759999 16.575001 -2.3800001 0.34
-2.941 16.636 -2.391 0.44999999
-3.003 16.683001 -2.4000001 0.34
-2.9990001 16.361 -2.3510001 0.46000001
-3.0439999 16.465 -2.368 0.38
-3.1470001 16.726999 -2.4100001 0.34
-3.1730001 16.577 -2.388 0.28999999
-3.2420001 16.655001 -2.402 0.38999999
-3.256 16.452 -2.372 0.41
-3.355 16.677 -2.4089999 0.40000001
-3.3540001 16.403999 -2.368 0.38999999
-3.372 16.358999 -2.3610001 0.28
-3.431 16.386999 -2.3670001 0.58999997
-3.484 16.385 -2.369 0.28999999
-3.6170001 16.750999 -2.428 0.31999999
-3.6199999 16.511999 -2.392 0.2
-4.323 19.450001 -2.855 0.30000001
-3.675 16.275 -2.359 0.25999999
-3.697 16.252001 -2.3559999 0.57999998
-3.8010001 16.471001 -2.392 0.23
-3.823 16.101 -2.3380001 0.63999999
-4.8379998 20.124001 -2.974 0.14
-4.8829999 20.034 -2.9619999 0.56999999
-4.9770002 20.143 -2.9809999 0.27000001
-5.0640001 20.224001 -2.997 0.17
-5.0430002 20.007 -2.964 0.57999998
-7.1409998 27.997999 -4.2290001 0.12
-5.0780001 19.622 -2.908 0.16
-5.1149998 19.511999 -2.8929999 0.15000001
-5.3909998 20.309 -3.0220001 0.2
-5.257 19.552 -2.905 0.40000001
-5.3049998 19.486 -2.8970001 0.12
-5.3319998 19.462999 -2.8940001 0.20999999
-5.375 19.381001 -2.8840001 0.54000002
-7.2090001 25.709999 -3.8940001 0.17
-5.552 19.541 -2.915 0.36000001
-6.9879999 24.33 -3.681 0.16
-5.7540002 19.549999 -2.925 0.57999998
-5.8249998 19.68 -2.947 0.16
-4.8559999 16.202 -2.3940001 0.15000001
-4.9190001 16.226 -2.4000001 0.41
-5.04 16.438999 -2.437 0.19
-5.381 17.362 -2.5869999 0.15000001
-6.138 19.599001 -2.9489999 0.2
-5.4819999 17.304001 -2.5829999 0.34999999
-6.1989999 19.472 -2.9330001 0.18000001
-5.211 16.176001 -2.4059999 0.37
-5.2750001 16.202999 -2.4130001 0.30000001
-5.3249998 16.183001 -2.4130001 0.52999997
-5.6810002 17.089001 -2.562 0.28
-6.5469999 19.500999 -2.954 0.47999999
-6.6539998 19.614 -2.9760001 0.34
-5.9390001 17.32 -2.608 0.14
-5.598 16.237 -2.434 0.51999998
-5.691 16.339001 -2.4530001 0.2
-5.842 16.608 -2.5 0.43000001
-5.895 16.591999 -2.5 0.40000001
-5.8860002 16.402 -2.4719999 0.28999999
-5.934 16.372 -2.47 0.43000001
-5.9770002 16.330999 -2.467 0.38
-6.0050001 16.329 -2.4679999 0.51999998
-6.1139998 16.466 -2.493 0.25999999
-6.1360002 16.367001 -2.48 0.44999999
-6.1630001 16.283001 -2.47 0.40000001
-6.2069998 16.243 -2.4660001 0.38
-6.2280002 16.146 -2.454 0.5
-6.1729999 15.853 -2.4089999 0.34
-6.2909999 16.083 -2.448 0.27000001
-6.184 15.662 -2.382 0.46000001
-6.1999998 15.56 -2.369 0.47999999
-6.5970001 16.41 -2.5120001 0.25999999
-6.618 16.313 -2.5 0.43000001
-6.6430001 16.228001 -2.4890001 0.38999999
-6.6929998 16.205 -2.4890001 0.38999999
-6.71 16.174 -2.4849999 0.49000001
-6.2880001 15.018 -2.2969999 0.25999999
-6.309 14.936 -2.2869999 0.31999999
-6.3530002 14.909 -2.2850001 0.41
-6.447 15 -2.3039999 0.44999999
-6.54 15.087 -2.322 0.43000001
-6.8860002 15.751 -2.4360001 0.23999999
-6.888 15.623 -2.418 0.43000001
-6.875 15.527 -2.404 0.38999999
-6.9120002 15.478 -2.4000001 0.25
-6.9679999 15.473 -2.402 0.61000001
-7.3730001 16.24 -2.5350001 0.25999999
-4.2589998 9.2749996 -1.3660001 0.33000001
-4.2719998 9.2279997 -1.36 0.38999999
-4.2940001 9.1999998 -1.358 0.31999999
-4.3039999 9.1820002 -1.3559999 0.40000001
-4.3330002 9.1689997 -1.3559999 0.40000001
-4.3639998 9.1599998 -1.357 0.34999999
-4.4000001 9.1610003 -1.359 0.38
-4.4380002 9.1669998 -1.363 0.31999999
-4.48 9.1809998 -1.368 0.56999999
-7.4289999 15.142 -2.3870001 0.14
-7.506 15.239 -2.405 0.22
-7.546 15.199 -2.402 0.50999999
-7.7919998 15.572 -2.47 0.30000001
-7.7909999 15.448 -2.4530001 0.30000001
-7.8530002 15.45 -2.4579999 0.61000001
-8.1990004 16.007999 -2.5580001 0.20999999
-7.8249998 15.158 -2.4159999 0.38
-7.8280001 15.105 -2.4089999 0.43000001
-7.8920002 15.114 -2.415 0.31
-7.915 15.041 -2.4070001 0.40000001
-7.96 15.011 -2.4059999 0.46000001
-8.302 15.541 -2.5020001 0.23999999
-8.1639996 15.167 -2.441 0.43000001
-8.2279997 15.172 -2.447 0.28999999
-8.2550001 15.108 -2.4400001 0.44999999
-8.6929998 15.853 -2.573 0.19
-8.4890003 15.365 -2.4920001 0.47999999
-8.7449999 15.712 -2.5569999 0.28999999
-8.7620001 15.627 -2.5469999 0.36000001
-8.6499996 15.314 -2.497 0.43000001
-8.7860003 15.441 -2.5239999 0.30000001
-8.8179998 15.384 -2.5190001 0.34999999
-8.9449997 15.551 -2.5510001 0.38
-9.0190001 15.565 -2.559 0.31999999
-9.0939999 15.581 -2.566 0.44999999
-9.2290001 15.701 -2.5929999 0.44999999
-9.1429996 15.442 -2.552 0.41
-9.1929998 15.415 -2.552 0.23999999
-9.1780005 15.281 -2.533 0.36000001
-9.177 15.224 -2.526 0.43000001
-9.2220001 15.192 -2.5250001 0.30000001
-9.2410002 15.115 -2.517 0.46000001
-9.6289997 15.641 -2.6159999 0.30000001
-9.3199997 15.032 -2.5120001 0.27000001
-9.934 15.912 -2.6760001 0.25
-10.037 15.966 -2.6919999 0.47
-10.133 16.063 -2.7119999 0.25
-10.405 16.381001 -2.776 0.38
-10.283 16.077 -2.7260001 0.41
-10.349 16.068001 -2.7309999 0.34
-10.433 16.087 -2.74 0.41
-10.656 16.319 -2.7880001 0.46000001
-10.856 16.514 -2.8299999 0.19
-10.561 16.007999 -2.7409999 0.27000001
-10.599 15.956 -2.737 0.43000001
-10.657 15.934 -2.7390001 0.2
-10.648 15.814 -2.723 0.44
-10.702 15.787 -2.7249999 0.47999999
-10.825 15.861 -2.7449999 0.34
-11.064 16.103001 -2.796 0.25999999
-11.084 16.024 -2.7880001 0.44
-10.433 15.029 -2.6059999 0.23999999
-10.384 14.859 -2.5799999 0.2
-11.134 15.828 -2.767 0.47999999
-11.359 16.041 -2.8139999 0.16
-10.483 14.702 -2.569 0.36000001
-10.545 14.692 -2.573 0.41999999
-10.628 14.71 -2.5829999 0.34
-10.655 14.698 -2.5840001 0.40000001
-10.717 14.687 -2.5880001 0.33000001
-10.767 14.658 -2.589 0.44
-10.801 14.608 -2.586 0.38999999
-10.889 14.631 -2.5969999 0.38999999
-10.961 14.632 -2.6029999 0.31999999
-11.051 14.656 -2.615 0.37
-11.049 14.605 -2.608 0.38
-11.115 14.597 -2.6129999 0.44
-11.194 14.606 -2.622 0.38999999
-11.252 14.586 -2.625 0.36000001
-11.353 14.621 -2.6389999 0.43000001
-11.409 14.6 -2.641 0.36000001
-11.465 14.576 -2.6440001 0.40000001
-11.465 14.529 -2.638 0.38999999
-11.508 14.489 -2.6370001 0.28999999
-11.545 14.442 -2.635 0.46000001
-11.633 14.46 -2.6459999 0.36000001
-11.698 14.448 -2.651 0.38999999
-11.75 14.419 -2.652 0.41999999
-11.809 14.399 -2.6559999 0.43000001
-11.875 14.434 -2.6659999 0.30000001
-11.927 14.404 -2.668 0.38
-12.008 14.409 -2.6760001 0.41999999
-12.055 14.374 -2.677 0.41
-12.093 14.327 -2.675 0.44999999
-12.079 14.22 -2.661 0.28999999
-12.048 14.093 -2.6429999 0.28
-12.055 14.012 -2.6340001 0.30000001
-12.052 13.964 -2.6289999 0.30000001
-12.068 13.893 -2.622 0.27000001
-12.087 13.827 -2.6159999 0.33000001
-12.118 13.776 -2.6129999 0.27000001
-12.138 13.711 -2.608 0.31999999
-12.159 13.647 -2.6029999 0.31999999
-12.2 13.608 -2.6029999 0.27000001
-12.174 13.536 -2.592 0.25
-12.165 13.44 -2.5799999 0.30000001
-12.174 13.365 -2.572 0.28999999
-12.157 13.263 -2.559 0.28
-12.146 13.168 -2.5469999 0.25
-12.155 13.095 -2.54 0.27000001
-12.156 13.013 -2.5309999 0.31
-12.136 12.95 -2.5220001 0.28
-12.155 12.889 -2.517 0.30000001
-12.182 12.837 -2.5139999 0.34999999
-12.207 12.783 -2.51 0.30000001
-12.223 12.718 -2.5050001 0.25
-10.057 10.393 -2.0179999 0.15000001
-9.5930004 9.849 -1.909 0.28
-9.5050001 9.7279997 -1.886 0.56999999
-12.28 12.5 -2.487 0.20999999
-12.3 12.442 -2.483 0.27000001
-12.314 12.378 -2.477 0.30000001
-12.332 12.318 -2.473 0.34
-12.355 12.264 -2.47 0.25999999
-12.374 12.205 -2.4649999 0.28999999
-12.372 12.165 -2.461 0.30000001
-10.292 10.051 -2.006 0.27000001
-12.414 12.054 -2.4530001 0.28
-12.445 12.008 -2.4519999 0.23
-12.469 11.957 -2.4489999 0.28999999
-12.488 11.9 -2.4449999 0.25
-11.865 11.198 -2.302 0.57999998
-11.673 10.946 -2.2539999 0.16
-11.803 10.999 -2.2739999 0.34
-11.911 11.03 -2.29 0.2
-11.935 10.983 -2.2869999 0.34
-11.911 10.892 -2.2750001 0.38999999
-11.987 10.892 -2.2839999 0.25
-11.972 10.811 -2.2739999 0.46000001
-11.966 10.771 -2.2690001 0.38
-12.011 10.744 -2.2709999 0.34
-12.041 10.702 -2.2709999 0.40000001
-12.116 10.701 -2.279 0.38
-12.169 10.68 -2.283 0.40000001
-12.221 10.658 -2.2869999 0.38999999
-12.222 10.591 -2.28 0.34
-12.197 10.536 -2.2720001 0.41
-12.288 10.548 -2.2839999 0.37
-12.315 10.504 -2.2820001 0.38
-12.36 10.475 -2.2850001 0.41
-12.357 10.406 -2.277 0.30000001
-12.383 10.362 -2.276 0.44999999
-12.381 10.294 -2.2690001 0.27000001
-12.324 10.214 -2.2550001 0.40000001
-12.338 10.16 -2.2509999 0.34999999
-12.39 10.137 -2.2550001 0.41
-12.363 10.051 -2.244 0.38999999
-12.37 9.9919996 -2.2390001 0.40000001
-12.372 9.9300003 -2.233 0.40000001
-12.457 9.934 -2.244 0.36000001
-12.523 9.9219999 -2.25 0.44999999
-12.448 9.8310003 -2.233 0.34
-12.311 9.6599998 -2.2 0.25999999
-12.477 9.7270002 -2.2260001 0.34999999
-12.412 9.6140003 -2.2079999 0.38
-12.663 9.7449999 -2.2509999 0.25999999
-12.645 9.6680002 -2.2409999 0.40000001
-12.686 9.6370001 -2.243 0.23999999
-12.631 9.5629997 -2.23 0.55000001
-11.477 8.6300001 -2.0020001 0.20999999
-12.626 9.4350004 -2.217 0.33000001
-12.69 9.4209995 -2.224 0.38
-12.756 9.408 -2.2309999 0.36000001
-12.751 9.342 -2.224 0.37
-12.721 9.2889996 -2.2160001 0.41
-12.766 9.2609997 -2.2190001 0.36000001
-12.819 9.2379999 -2.223 0.30000001
-12.796 9.1610003 -2.214 0.47999999
-12.798 9.1009998 -2.2079999 0.33000001
-12.731 8.993 -2.191 0.44
-12.795 8.9779997 -2.197 0.38
-12.87 8.9709997 -2.2060001 0.38999999
-12.816 8.9029999 -2.1930001 0.28999999
-12.743 8.7930002 -2.174 0.47
-12.816 8.7849998 -2.1830001 0.41
-12.841 8.7419996 -2.1819999 0.38
-12.93 8.7440004 -2.194 0.38999999
-12.953 8.6999998 -2.1930001 0.38999999
-13.006 8.677 -2.198 0.43000001
-12.938 8.6009998 -2.1830001 0.31
-12.941 8.5450001 -2.178 0.38
-12.96 8.4989996 -2.177 0.43000001
-12.997 8.4650002 -2.1789999 0.31999999
-13.101 8.4750004 -2.1930001 0.40000001
-13.101 8.4160004 -2.188 0.36000001
-13.161 8.3970003 -2.194 0.27000001
-13.244 8.4209995 -2.207 0.5
-13.269 8.3780003 -2.207 0.40000001
-13.345 8.368 -2.2160001 0.36000001
-13.547 8.4359999 -2.247 0.34
-13.654 8.4429998 -2.2620001 0.41
-13.773 8.4569998 -2.279 0.41
-13.842 8.4399996 -2.286 0.46000001
-13.875 8.4300003 -2.29 0.33000001
-13.892 8.3809996 -2.2880001 0.28
-13.918 8.3369999 -2.2880001 0.30000001
-13.995 8.3240004 -2.2969999 0.22
-14.069 8.3079996 -2.306 0.31
-14.103 8.2690001 -2.3069999 0.36000001
-14.167 8.2460003 -2.3139999 0.56999999
-14.3 8.2639999 -2.3329999 0.23999999
-14.385 8.283 -2.346 0.38999999
-14.449 8.2600002 -2.352 0.38999999
-14.573 8.2700005 -2.3699999 0.51999998
-14.561 8.2030001 -2.3629999 0.31999999
-14.44 8.0749998 -2.3369999 0.28
-14.417 8.0019999 -2.329 0.28
-14.386 7.9559999 -2.3210001 0.25999999
-14.368 7.8870001 -2.3139999 0.2
-14.389 7.8390002 -2.313 0.38999999
-14.372 7.7719998 -2.306 0.2
-14.393 7.7249999 -2.3050001 0.27000001
-14.405 7.6729999 -2.303 0.20999999
-14.418 7.6220002 -2.3010001 0.23
-14.418 7.5929999 -2.299 0.23999999
-14.417 7.5349998 -2.2950001 0.2
-14.418 7.4770002 -2.2909999 0.22
-14.405 7.4130001 -2.2839999 0.2
-14.414 7.3610001 -2.2820001 0.20999999
-14.407 7.3000002 -2.277 0.18000001
-14.4 7.2399998 -2.2720001 0.23
-14.385 7.1760001 -2.2650001 0.20999999
-14.366 7.138 -2.26 0.2
-14.371 7.0840001 -2.257 0.38
-14.358 7.0209999 -2.2509999 0.23999999
-14.337 6.9559999 -2.244 0.16
-14.361 6.9109998 -2.244 0.44
-14.336 6.8439999 -2.2360001 0.25
-14.332 6.7870002 -2.2320001 0.25999999
-14.316 6.7519999 -2.227 0.27000001
-14.323 6.6999998 -2.2249999 0.28999999
-14.315 6.6420002 -2.22 0.25999999
-14.32 6.5890002 -2.2179999 0.27000001
-14.303 6.527 -2.211 0.28
-14.291 6.467 -2.2060001 0.27000001
-14.288 6.4120002 -2.2019999 0.25
-14.26 6.3720002 -2.1949999 0.18000001
-14.28 6.3270001 -2.1949999 0.46000001
-14.278 6.2729998 -2.1919999 0.25
-14.269 6.2150002 -2.187 0.2
-14.29 6.171 -2.187 0.41999999
-14.273 6.1110001 -2.181 0.22
-14.283 6.0619998 -2.1800001 0.19
-14.292 6.04 -2.1800001 0.41
-14.288 5.9850001 -2.1760001 0.23
-14.297 5.9359999 -2.174 0.2
-14.301 5.8850002 -2.1719999 0.36000001
-14.294 5.8299999 -2.168 0.18000001
-14.312 5.7849998 -2.168 0.37
-14.31 5.7309999 -2.164 0.20999999
-14.297 5.6999998 -2.161 0.25
-14.276 5.6399999 -2.154 0.20999999
-14.274 5.5869999 -2.151 0.18000001
-14.273 5.5349998 -2.148 0.38999999
-14.299 5.494 -2.1489999 0
-14.23 5.4159999 -2.135 0
-14.203 5.329 -2.1270001 0.18000001
-14.215 5.2820001 -2.1259999 0.44
-14.2 5.2259998 -2.1210001 0.25999999
-14.21 5.1789999 -2.1199999 0.30000001
-14.217 5.131 -2.118 0.2
-14.226 5.0840001 -2.1170001 0.19
-14.208 5.027 -2.1110001 0.30000001
-14.183 4.993 -2.1059999 0.2
-14.165 4.9369998 -2.1010001 0.15000001
-14.174 4.8899999 -2.0999999 0.44999999
-14.158 4.835 -2.095 0.23999999
-14.162 4.7859998 -2.0929999 0.25999999
-14.134 4.7270002 -2.086 0.18000001
-14.149 4.6830001 -2.086 0.41999999
-14.142 4.632 -2.082 0.2
-14.112 4.5970001 -2.076 0.18000001
-14.128 4.553 -2.0769999 0.43000001
-14.103 4.4959998 -2.0699999 0.25
-14.117 4.4520001 -2.0699999 0.25
-14.08 4.3920002 -2.062 0.18000001
-14.09 4.3460002 -2.0610001 0.43000001
-14.077 4.2940001 -2.0569999 0.23
-14.071 4.2680001 -2.0550001 0.23999999
-14.044 4.211 -2.049 0.28999999
-14.027 4.158 -2.0439999 0.30000001
-14.021 4.1079998 -2.0409999 0.25
-14.011 4.0580001 -2.0369999 0.28
-13.994 4.0050001 -2.0320001 0.28
-13.979 3.9530001 -2.0280001 0.28999999
-13.967 3.9260001 -2.0250001 0.31
-13.952 3.875 -2.0209999 0.28999999
-13.953 3.8280001 -2.0190001 0.31999999
-13.948 3.779 -2.016 0.30000001
-13.94 3.73 -2.013 0.28
-13.92 3.678 -2.0079999 0.31999999
-13.904 3.6270001 -2.0039999 0.28
-13.897 3.602 -2.0020001 0.31
-13.873 3.549 -1.9960001 0.27000001
-13.863 3.5 -1.993 0.28999999
-13.832 3.4460001 -1.9859999 0.18000001
-13.851 3.404 -1.988 0.47999999
-13.836 3.355 -1.984 0.25
-13.822 3.3050001 -1.98 0.28999999
-13.821 3.2820001 -1.979 0.25999999
-13.806 3.233 -1.975 0.28
-13.811 3.188 -1.974 0.25999999
-13.788 3.1370001 -1.969 0.30000001
-13.775 3.089 -1.965 0.27000001
-13.771 3.0420001 -1.9630001 0.25999999
-13.761 2.9949999 -1.96 0.28
-13.747 2.9460001 -1.956 0.28
-13.748 2.924 -1.956 0.28
-13.724 2.8740001 -1.951 0.27000001
-13.712 2.826 -1.947 0.25999999
-13.709 2.7809999 -1.9450001 0.28
-13.679 2.73 -1.939 0.30000001
-13.66 2.6819999 -1.9349999 0.28
-13.645 2.6340001 -1.932 0.25
-13.624 2.608 -1.928 0.33000001
-13.607 2.5599999 -1.924 0.25999999
-13.599 2.5150001 -1.921 0.30000001
-13.576 2.4660001 -1.916 0.30000001
-13.553 2.418 -1.9119999 0.22
-13.556 2.375 -1.911 0.15000001
-13.521 2.3239999 -1.904 0.34999999
-13.522 2.303 -1.904 0.46000001
-13.489 2.2539999 -1.898 0.70999998
-13.418 2.198 -1.886 0.38
-13.507 2.1689999 -1.898 0.15000001
-13.498 2.1240001 -1.896 0.27000001
-13.493 2.0799999 -1.8940001 0.34
-13.485 2.036 -1.892 0.28
-13.49 2.0150001 -1.892 0.30000001
-13.491 1.972 -1.891 0.31999999
-13.491 1.928 -1.89 0.28999999
-13.503 1.887 -1.891 0.31999999
-13.497 1.8430001 -1.8890001 0.28
-13.503 1.8 -1.8890001 0.28
-13.495 1.756 -1.887 0.30000001
-13.488 1.734 -1.886 0.27000001
-13.509 1.693 -1.888 0.27000001
-13.512 1.65 -1.888 0.28
-13.474 1.603 -1.881 0.19
-13.499 1.563 -1.8839999 0.44999999
-13.492 1.5190001 -1.882 0.25
-13.475 1.474 -1.8789999 0.27000001
-13.485 1.432 -1.88 0.25999999
-13.454 1.408 -1.875 0.18000001
-13.464 1.3660001 -1.876 0.41999999
-13.457 1.323 -1.874 0.23999999
-13.463 1.281 -1.874 0.23999999
-13.437 1.235 -1.87 0.17
-13.453 1.194 -1.872 0.43000001
-13.437 1.15 -1.869 0.23
-13.425 1.128 -1.8660001 0.20999999
-13.438 1.087 -1.868 0.41
-13.428 1.043 -1.8660001 0.23999999
-13.425 1.001 -1.865 0.25999999
-13.42 0.958 -1.864 0.28
-13.417 0.91500002 -1.863 0.27000001
-13.422 0.87300003 -1.863 0.25999999
-13.409 0.85100001 -1.8609999 0.18000001
-13.424 0.81 -1.863 0.43000001
-13.407 0.76700002 -1.86 0.25
-13.407 0.72399998 -1.859 0.27000001
-13.399 0.68199998 -1.858 0.27000001
-13.397 0.639 -1.857 0.25999999
-13.407 0.59799999 -1.859 0.17
-13.41 0.57700002 -1.859 0.43000001
-13.39 0.53399998 -1.8559999 0.23
-13.392 0.49200001 -1.8559999 0.25999999
-13.393 0.44999999 -1.8559999 0.28
-13.383 0.40700001 -1.854 0.25
-13.398 0.36500001 -1.8559999 0.25999999
-13.323 0.34200001 -1.844 0.18000001
-13.338 0.301 -1.846 0.44999999
-13.315 0.25799999 -1.8430001 0.23
-13.314 0.21699999 -1.842 0.25999999
-13.305 0.19499999 -1.841 0.25
-13.303 0.154 -1.841 0.25999999
-13.306 0.112 -1.841 0.23
-13.27 0.07 -1.836 0.18000001
-13.288 0.028000001 -1.8380001 0.41999999
-13.27 -0.014 -1.836 0.23999999
-13.258 -0.055 -1.834 0.25999999
-13.26 -0.075999998 -1.834 0.23999999
-13.248 -0.118 -1.832 0.20999999
-13.248 -0.15899999 -1.832 0.40000001
-13.229 -0.20100001 -1.829 0.22
-13.201 -0.242 -1.825 0.18000001
-13.228 -0.28400001 -1.829 0.41
-13.203 -0.32499999 -1.826 0.23
-13.198 -0.366 -1.825 0.2
-13.211 -0.38699999 -1.827 0.41
-13.186 -0.428 -1.824 0.23999999
-13.179 -0.46900001 -1.823 0.19
-13.183 -0.51099998 -1.824 0.38999999
-13.18 -0.55199999 -1.823 0.25
-13.166 -0.59299999 -1.822 0.19
-13.18 -0.63499999 -1.824 0.41
-13.161 -0.65499997 -1.821 0.23999999
-13.167 -0.69700003 -1.822 0.2
-13.188 -0.73900002 -1.826 0
-13.131 -0.778 -1.818 0
-13.148 -0.81999999 -1.821 0.15000001
-13.145 -0.861 -1.821 0.23999999
-13.137 -0.90200001 -1.8200001 0.25999999
-13.131 -0.92299998 -1.819 0.2
-13.132 -0.96399999 -1.8200001 0.41
-13.121 -1.005 -1.819 0.25
-13.124 -1.0470001 -1.819 0.25999999
-13.125 -1.0880001 -1.8200001 0.25
-13.099 -1.128 -1.817 0.23
-13.104 -1.169 -1.818 0.41
-13.08 -1.188 -1.8150001 0.25
-13.076 -1.229 -1.8150001 0.25
-13.084 -1.271 -1.816 0.23999999
-13.068 -1.311 -1.8150001 0.18000001
-13.074 -1.353 -1.816 0.44999999
-13.044 -1.392 -1.812 0.25
-13.034 -1.432 -1.811 0.27000001
-13.03 -1.452 -1.811 0.25999999
-13.011 -1.492 -1.809 0.30000001
-13.014 -1.533 -1.8099999 0.25
-12.994 -1.572 -1.808 0.28
-12.981 -1.612 -1.806 0.30000001
-12.982 -1.654 -1.807 0.28
-12.963 -1.693 -1.8049999 0.28999999
-12.958 -1.7130001 -1.8049999 0.30000001
-12.951 -1.753 -1.8049999 0.28
-12.916 -1.79 -1.8 0.28999999
-12.908 -1.83 -1.8 0.28999999
-12.912 -1.872 -1.801 0.30000001
-12.886 -1.91 -1.798 0.27000001
-12.907 -1.975 -1.803 0.62
-12.883 -2.013 -1.8 0.68000001
-12.88 -2.0539999 -1.801 0.82999998
-12.872 -2.0940001 -1.8 0.81999999
-12.861 -2.1340001 -1.8 0.81999999
-12.851 -2.174 -1.799 0.81999999
-12.816 -2.2090001 -1.795 0.66000003
-12.827 -2.2320001 -1.7970001 0.28
-12.825 -2.273 -1.798 0.30000001
-12.816 -2.313 -1.798 0.28999999
-12.813 -2.3540001 -1.798 0.28999999
-12.805 -2.3940001 -1.798 0.31999999
-12.817 -2.438 -1.801 0.30000001
-12.782 -2.473 -1.7970001 0.28999999
-12.786 -2.4949999 -1.798 0.28999999
-12.77 -2.533 -1.7970001 0.25999999
-12.768 -2.575 -1.798 0.30000001
-12.766 -2.6159999 -1.799 0.31999999
-12.763 -2.6570001 -1.8 0.30000001
-12.738 -2.694 -1.7970001 0.28
-12.743 -2.737 -1.799 0.31
-12.72 -2.7739999 -1.7970001 0.25
-12.716 -2.7939999 -1.7970001 0.31
-12.713 -2.835 -1.798 0.28999999
-12.708 -2.8759999 -1.799 0.28
-12.67 -2.9089999 -1.794 0.28
-12.67 -2.951 -1.796 0.30000001
-12.653 -2.9890001 -1.794 0.28999999
-12.646 -3.029 -1.795 0.28999999
-12.633 -3.0469999 -1.793 0.28999999
-12.626 -3.0869999 -1.794 0.28999999
-12.61 -3.1259999 -1.793 0.30000001
-12.598 -3.165 -1.793 0.31
-12.586 -3.204 -1.7920001 0.28
-12.565 -3.24 -1.79 0.28999999
-12.56 -3.2809999 -1.791 0.31
-12.549 -3.3 -1.79 0.27000001
-12.543 -3.3399999 -1.791 0.34999999
-12.544 -3.382 -1.793 0.31
-12.529 -3.421 -1.7920001 0.30000001
-12.52 -3.461 -1.793 0.30000001
-12.515 -3.5020001 -1.793 0.31
-12.494 -3.5380001 -1.7920001 0.31
-12.529 -3.569 -1.798 0.31999999
-12.542 -3.6159999 -1.802 0.30000001
-12.51 -3.6489999 -1.799 0.23999999
-12.495 -3.687 -1.798 0.23
-12.475 -3.724 -1.7970001 0.54000002
-12.407 -3.7460001 -1.788 0.34
-12.27 -3.747 -1.768 0.28999999
-12.149 -3.7309999 -1.749 0.30000001
-12.044 -3.7409999 -1.735 0.31999999
-11.918 -3.743 -1.716 0.28999999
-11.823 -3.7539999 -1.7029999 0.28999999
-11.766 -3.777 -1.696 0.28999999
-11.726 -3.8050001 -1.691 0.31
-11.689 -3.8340001 -1.687 0.23
-11.66 -3.865 -1.684 0.33000001
-11.616 -3.8710001 -1.678 0.28999999
-11.614 -3.9100001 -1.6799999 0.47999999
-11.568 -3.9349999 -1.674 0.34
-11.467 -3.9419999 -1.66 0.40000001
-11.419 -3.9649999 -1.654 0.36000001
-11.386 -3.994 -1.651 0.46000001
-11.355 -4.0229998 -1.648 0.34
-11.285 -4.0190001 -1.638 0.41999999
-11.215 -4.0339999 -1.628 0.38999999
-11.158 -4.053 -1.6210001 0.38999999
-11.124 -4.0799999 -1.618 0.33000001
-11.139 -4.125 -1.622 0.34999999
-11.085 -4.145 -1.6160001 0.49000001
-11.043 -4.1690001 -1.6109999 0.38999999
-11.012 -4.177 -1.607 0.33000001
-10.951 -4.1929998 -1.599 0.41999999
-10.932 -4.2259998 -1.598 0.44
-10.913 -4.2579999 -1.597 0.34
-10.92 -4.3000002 -1.6 0.44999999
-10.842 -4.309 -1.59 0.33000001
-10.786 -4.3260002 -1.5829999 0.41
-10.77 -4.3390002 -1.581 0.38
-10.707 -4.3530002 -1.573 0.36000001
-10.734 -4.4029999 -1.58 0.28
-10.7 -4.4289999 -1.577 0.46000001
-10.671 -4.4559999 -1.574 0.41999999
-10.635 -4.4809999 -1.5700001 0.41999999
-10.588 -4.5 -1.5650001 0.38
-10.618 -4.5320001 -1.571 0.41
-10.616 -4.5710001 -1.573 0.31999999
-10.584 -4.5960002 -1.5700001 0.44999999
-10.571 -4.631 -1.5700001 0.33000001
-10.518 -4.6469998 -1.564 0.36000001
-10.446 -4.6539998 -1.554 0.44999999
-10.498 -4.717 -1.566 0.41999999
-10.548 -4.7589998 -1.575 0.38
-10.524 -4.7880001 -1.574 0.40000001
-10.543 -4.8369999 -1.58 0.38
-10.585 -4.8969998 -1.589 0.38
-10.622 -4.954 -1.598 0.41999999
-10.608 -4.9879999 -1.598 0.25
-10.559 -5.0050001 -1.5930001 0.62
-7.1290002 -3.4159999 -1.013 0.22
-7.23 -3.4790001 -1.0319999 0.41
-10.649 -5.151 -1.615 0.17
-10.565 -5.151 -1.603 0.58999997
-10.547 -5.184 -1.603 0.23
-10.497 -5.1999998 -1.597 0.28999999
-10.613 -5.2989998 -1.62 0.44999999
-7.4569998 -3.7609999 -1.082 0.36000001
-7.3610001 -3.7279999 -1.066 0.40000001
-10.467 -5.3299999 -1.602 0.31
-7.1420002 -3.674 -1.033 0.47999999
-10.406 -5.381 -1.597 0.23
-7.1100001 -3.714 -1.031 0.47
-10.477 -5.5009999 -1.615 0.25999999
-8.3439999 -4.421 -1.249 0.30000001
-7.2080002 -3.8369999 -1.053 0.25999999
-8.2539997 -4.4229999 -1.237 0.28999999
-8.0930004 -4.3699999 -1.212 0.28999999
-7.0809999 -3.8559999 -1.038 0.56
-8.059 -4.4169998 -1.21 0.30000001
-8.0550003 -4.448 -1.212 0.30000001
-7.4359999 -4.1389999 -1.1059999 0.18000001
-8.3369999 -4.6539998 -1.265 0.15000001
-7.1830001 -4.0440001 -1.0650001 0.44999999
-6.9499998 -3.9419999 -1.026 0.31
-6.9219999 -3.9549999 -1.024 0.5
-6.9089999 -3.977 -1.024 0.27000001
-6.9330001 -4.0190001 -1.03 0.33000001
-9.8620005 -5.7459998 -1.551 0.31999999
-9.8479996 -5.7589998 -1.55 0.25999999
-9.8500004 -5.802 -1.554 0.38999999
-7.0040002 -4.164 -1.051 0.43000001
-9.8310003 -5.8730001 -1.557 0.30000001
-9.9280005 -5.973 -1.577 0.20999999
-7.3520002 -4.4629998 -1.12 0.58999997
-9.8830004 -6.0310001 -1.576 0.23
-9.8920002 -6.0580001 -1.58 0.47999999
-9.8599997 -6.0809999 -1.577 0.31999999
-9.9209995 -6.1620002 -1.592 0.44999999
-9.9250002 -6.2080002 -1.596 0.27000001
-9.9390001 -6.2600002 -1.602 0.51999998
-9.7969999 -6.2140002 -1.58 0.41
-9.7139997 -6.204 -1.568 0.23999999
-9.8649998 -6.322 -1.597 0.37
-9.823 -6.3390002 -1.5930001 0.41
-9.7629995 -6.3439999 -1.586 0.34
-9.724 -6.362 -1.5829999 0.41
-9.7559996 -6.427 -1.592 0.44999999
-9.7489996 -6.4660001 -1.595 0.31999999
-9.7270002 -6.4959998 -1.594 0.46000001
-9.7189999 -6.5120001 -1.595 0.31
-9.6850004 -6.5339999 -1.592 0.50999999
-9.6379995 -6.546 -1.587 0.31
-9.5930004 -6.5599999 -1.5829999 0.47999999
-9.5419998 -6.5689998 -1.577 0.34
-9.5629997 -6.6279998 -1.585 0.44
-9.4870005 -6.6199999 -1.575 0.34
-9.4910002 -6.645 -1.577 0.41
-9.4490004 -6.6599998 -1.574 0.34999999
-9.3360004 -6.6240001 -1.556 0.41
-9.2959995 -6.6399999 -1.553 0.47999999
-9.323 -6.704 -1.562 0.34
-8.6590004 -6.2690001 -1.4400001 0.28999999
-9.2030001 -6.7049999 -1.5470001 0.41999999
-9.2399998 -6.7550001 -1.556 0.25
-9.3129997 -6.8520002 -1.574 0.2
-9.1000004 -6.7410002 -1.5369999 0.54000002
-9.276 -6.9159999 -1.575 0.17
-9.0369997 -6.783 -1.534 0.36000001
-8.9879999 -6.79 -1.528 0.41
-8.8920002 -6.7620001 -1.5140001 0.43000001
-9.1680002 -6.993 -1.569 0.28
-9.4049997 -7.2199998 -1.619 0.27000001
-9.4750004 -7.3210001 -1.637 0.34999999
-9.5360003 -7.4159999 -1.653 0.20999999
-9.2959995 -7.277 -1.6109999 0.34
-9.2440004 -7.283 -1.605 0.41
-9.2110004 -7.3039999 -1.603 0.33000001
-9.1709995 -7.3200002 -1.6 0.28999999
-9.1689997 -7.342 -1.602 0.30000001
-9.1739998 -7.3930001 -1.607 0.34
-9.158 -7.428 -1.609 0.34
-9.158 -7.4749999 -1.613 0.31
-9.1470003 -7.5139999 -1.6160001 0.30000001
-9.1350002 -7.553 -1.618 0.25999999
-9.1420002 -7.6059999 -1.624 0.30000001
-9.1499996 -7.6370001 -1.628 0.25
-9.1330004 -7.6719999 -1.63 0.37
-5.1799998 -4.3940001 -0.84299999 0.23999999
-5.1459999 -4.3930001 -0.83899999 0.36000001
-5.1009998 -4.382 -0.833 0.30000001
-5.0819998 -4.395 -0.83200002 0.34
-5.066 -4.408 -0.83099997 0.30000001
-5.0479999 -4.4070001 -0.829 0.37
-5.0219998 -4.4120002 -0.82700002 0.34999999
-5.0170002 -4.4359999 -0.82800001 0.34999999
-5.0009999 -4.4489999 -0.82800001 0.30000001
-4.9879999 -4.4660001 -0.82800001 0.36000001
-4.9860001 -4.4920001 -0.82999998 0.34
-4.9720001 -4.5079999 -0.82999998 0.34
-4.9819999 -4.5310001 -0.83399999 0.41999999
-4.9840002 -4.5619998 -0.83700001 0.28
-5.0180001 -4.6209998 -0.847 0.47999999
-8.3109999 -7.6789999 -1.536 0.23999999
-8.2729998 -7.6929998 -1.533 0.28999999
-8.21 -7.6830001 -1.525 0.28999999
-8.1610003 -7.6849999 -1.52 0.28999999
-8.1289997 -7.6789999 -1.516 0.28
-8.0790005 -7.6799998 -1.51 0.28
-8.0220003 -7.6739998 -1.503 0.27000001
-7.9809999 -7.6830001 -1.5 0.27000001
-7.927 -7.6789999 -1.493 0.25999999
-7.8769999 -7.6789999 -1.488 0.27000001
-7.8369999 -7.6890001 -1.484 0.28
-7.7909999 -7.6680002 -1.477 0.28
-7.7399998 -7.6659999 -1.471 0.28
-7.684 -7.658 -1.464 0.28999999
-7.6279998 -7.6500001 -1.457 0.28999999
-7.5770001 -7.6479998 -1.452 0.31
-7.539 -7.6570001 -1.449 0.28999999
-7.4790001 -7.6440001 -1.441 0.28999999
-7.4450002 -7.6329999 -1.436 0.23999999
-7.4039998 -7.6399999 -1.432 0
-7.362 -7.645 -1.428 0
-7.4000001 -7.7319999 -1.442 0.059999999
-7.9959998 -8.4040003 -1.58 0.18000001
-7.8930001 -8.349 -1.563 0.27000001
-7.8670001 -8.3730001 -1.563 0.28999999
-7.8579998 -8.3900003 -1.564 0.28999999
-7.8150001 -8.3970003 -1.5599999 0.27000001
-7.789 -8.4219999 -1.5599999 0.28999999
-7.7839999 -8.4700003 -1.5650001 0.34
-7.7779999 -8.5170002 -1.5700001 0.31999999
-7.7639999 -8.5550003 -1.572 0.25
-7.7129998 -8.5530005 -1.567 0.41
-7.7309999 -8.6269999 -1.577 0.31
-7.691 -8.6099997 -1.571 0.28999999
-7.638 -8.6040001 -1.5650001 0.38999999
-7.6469998 -8.6700001 -1.574 0.27000001
-7.6020002 -8.6730003 -1.569 0.37
-7.5760002 -8.698 -1.5700001 0.28
-7.585 -8.7639999 -1.5779999 0.41
-7.5570002 -8.7869997 -1.5779999 0.30000001
-7.5149999 -8.7659998 -1.571 0.34999999
-7.552 -8.8649998 -1.587 0.22
-7.4980001 -8.8590002 -1.58 0.33000001
-7.428 -8.8319998 -1.5700001 0.31
-7.3429999 -8.7869997 -1.557 0.31
-7.2639999 -8.7480001 -1.544 0.34
-7.1960001 -8.7220001 -1.535 0.28999999
-7.1789999 -8.7309999 -1.534 0.28999999
-7.1589999 -8.7620001 -1.536 0.27000001
-7.1110001 -8.7589998 -1.531 0.28
-7.1020002 -8.8039999 -1.535 0.34
-7.0929999 -8.849 -1.54 0.31
-7.0809999 -8.8920002 -1.544 0.27000001
-7.0799999 -8.948 -1.55 0.31999999
-7.079 -8.9759998 -1.554 0.27000001
-7.0609999 -9.0109997 -1.556 0.2
-7.0170002 -9.0129995 -1.552 0.44
-6.9970002 -9.0450001 -1.554 0.31999999
-6.9829998 -9.0860004 -1.558 0.25
-6.901 -9.0389996 -1.545 0.23
-6.8629999 -9.0480003 -1.5420001 0.36000001
-6.809 -9.0050001 -1.5319999 0.23
-6.7849998 -9.033 -1.533 0.50999999
-6.7789998 -9.0839996 -1.539 0.27000001
-6.7220001 -9.0679998 -1.5319999 0.30000001
-6.7090001 -9.1090002 -1.536 0.33000001
-6.6079998 -9.0319996 -1.517 0.31999999
-6.5229998 -8.9759998 -1.502 0.30000001
-6.5 -8.9729996 -1.5 0.31
-6.4640002 -8.9820004 -1.498 0.31999999
-6.4369998 -9.0039997 -1.498 0.28999999
-6.4400001 -9.0690002 -1.507 0.30000001
-6.4099998 -9.0860004 -1.506 0.22
-6.4109998 -9.1479998 -1.5140001 0.31
-6.395 -9.1879997 -1.517 0.31
-6.3920002 -9.2139997 -1.52 0.34
-6.3660002 -9.2370005 -1.521 0.31999999
-6.349 -9.2749996 -1.524 0.30000001
-6.2690001 -9.2220001 -1.511 0.31
-6.1659999 -9.132 -1.4910001 0.2
-6.119 -9.1230001 -1.485 0.44999999
-6.0679998 -9.1099997 -1.479 0.25
-6.0440001 -9.1040001 -1.477 0.19
-6.0149999 -9.1230001 -1.477 0.40000001
-5.974 -9.1239996 -1.473 0.23999999
-5.9219999 -9.1059999 -1.467 0.25999999
-5.8699999 -9.0880003 -1.46 0.27000001
-5.8099999 -9.059 -1.451 0.28999999
-5.8130002 -9.1269999 -1.46 0.27000001
-5.7649999 -9.0830002 -1.451 0.23999999
-5.7709999 -9.1560001 -1.461 0.27000001
-5.7329998 -9.1590004 -1.4579999 0.28999999
-5.6929998 -9.158 -1.454 0.28999999
-5.6539998 -9.1590004 -1.451 0.28999999
-5.6209998 -9.1700001 -1.45 0.28999999
-5.5739999 -9.1590004 -1.4450001 0.30000001
-5.5549998 -9.1599998 -1.444 0.28999999
-5.5180001 -9.1630001 -1.441 0.28999999
-5.4699998 -9.1490002 -1.4349999 0.30000001
-5.4349999 -9.1549997 -1.434 0.30000001
-5.4050002 -9.1709995 -1.433 0.28999999
-5.3569999 -9.1549997 -1.427 0.28999999
-5.3210001 -9.1599998 -1.425 0.28999999
-5.2870002 -9.1669998 -1.424 0.30000001
-5.2509999 -9.1389999 -1.4170001 0.28999999
-5.2179999 -9.1470003 -1.416 0.28999999
-5.1849999 -9.1560001 -1.414 0.28999999
-5.1420002 -9.1470003 -1.41 0.30000001
-5.1040001 -9.1470003 -1.4069999 0.30000001
-5.0710001 -9.1549997 -1.406 0.30000001
-5.026 -9.1429996 -1.401 0.30000001
-5.0089998 -9.1459999 -1.4 0.30000001
-4.9710002 -9.1440001 -1.397 0.31
-4.928 -9.1330004 -1.392 0.28999999
-4.8889999 -9.1300001 -1.3890001 0.28999999
-4.8629999 -9.1499996 -1.39 0.31
-4.8169999 -9.132 -1.3839999 0.30000001
-4.803 -9.1420002 -1.3839999 0.31
-4.7680001 -9.1440001 -1.382 0.31
-4.7210002 -9.1239996 -1.376 0.30000001
-4.6859999 -9.1269999 -1.374 0.30000001
-4.651 -9.1289997 -1.372 0.30000001
-4.6059999 -9.1120005 -1.367 0.31
-4.5700002 -9.1110001 -1.364 0.28
-4.5500002 -9.1070004 -1.362 0.30000001
-4.5100002 -9.0979996 -1.358 0.30000001
-4.474 -9.0979996 -1.3559999 0.30000001
-4.4460001 -9.1120005 -1.3559999 0.31999999
-4.408 -9.1079998 -1.353 0.30000001
-4.3730001 -9.1079998 -1.35 0.31
-4.3429999 -9.118 -1.35 0.30000001
-4.303 -9.1090002 -1.346 0.30000001
-4.2820001 -9.1009998 -1.3430001 0.30000001
-4.2480001 -9.1040001 -1.341 0.30000001
-4.2090001 -9.0950003 -1.3380001 0.22
-4.178 -9.1009998 -1.337 0.34999999
-4.1469998 -9.1110001 -1.336 0.2
-4.1240001 -9.1350002 -1.3380001 0
-4.0780001 -9.1099997 -1.331 0
-4.0609999 -9.1110001 -1.331 0
-4.0289998 -9.1160002 -1.329 0
-4.0739999 -9.2950001 -1.357 0
-4.164 -9.5819998 -1.403 0.1
-4.2259998 -9.8050003 -1.438 0.17
-4.2420001 -9.9289999 -1.457 0.25999999
-4.217 -9.9139996 -1.4529999 0.30000001
-4.1869998 -9.9289999 -1.4529999 0.36000001
-4.164 -9.9619999 -1.457 0.30000001
-4.1469998 -10.008 -1.462 0.28
-4.092 -9.9639997 -1.4529999 0.30000001
-4.0599999 -9.9750004 -1.452 0.41999999
-4.0089998 -9.9399996 -1.444 0.20999999
-4.0009999 -9.9650002 -1.447 0.43000001
-3.964 -9.9639997 -1.4450001 0.27000001
-3.9430001 -10.003 -1.45 0.25999999
-3.9200001 -10.037 -1.4529999 0.27000001
-3.8870001 -10.046 -1.4529999 0.41
-3.802 -9.9189997 -1.4299999 0.20999999
-3.8139999 -10.044 -1.448 0.5
-3.7809999 -10.052 -1.448 0.28
-3.766 -10.058 -1.448 0.34
-3.7479999 -10.107 -1.454 0.31
-3.7190001 -10.126 -1.455 0.28
-3.658 -10.06 -1.442 0.25999999
-3.6199999 -10.053 -1.439 0.36000001
-3.602 -10.103 -1.446 0.33000001
-3.5320001 -10.006 -1.428 0.30000001
-3.5179999 -10.017 -1.429 0.36000001
-3.517 -10.114 -1.443 0.25999999
-3.4909999 -10.142 -1.446 0.17
-3.487 -10.235 -1.459 0.46000001
-3.4419999 -10.207 -1.4529999 0.33000001
-3.402 -10.195 -1.449 0.20999999
-3.3800001 -10.236 -1.454 0.34999999
-3.3570001 -10.22 -1.451 0.34
-3.3239999 -10.227 -1.45 0.34
