# .PCD v0.7 - Point Cloud Data file format
VERSION 0.7
FIELDS x y z intensity
SIZE 4 4 4 4
TYPE F F F F
COUNT 1 1 1 1
WIDTH 1412
HEIGHT 1
VIEWPOINT 0 0 0 1 0 0 0
POINTS 1412
DATA ascii
39.217999 15.366 -1.42 0
39.077999 15.453 -1.416 0
39.199001 15.572 -1.4220001 0
39.341999 15.772 -1.4299999 0
39.368999 15.927 -1.433 0
39.375999 16.073999 -1.436 0
39.345001 16.205999 -1.436 0
39.361 16.357 -1.439 0
39.339001 16.493 -1.4400001 0
39.356998 16.573 -1.442 0
39.375999 16.726999 -1.4450001 0
39.368 16.870001 -1.447 0
39.431999 17.044001 -1.452 0
41.285 18.000999 -1.5319999 0
36.727001 16.148001 -1.3430001 0
36.662998 16.257 -1.342 0
41.540001 18.502001 -1.549 0
41.594002 18.683001 -1.554 0
41.687 18.882 -1.5599999 0
41.874001 19.125999 -1.571 0
42.035 19.360001 -1.58 0
42.186001 19.59 -1.589 0
42.353001 19.83 -1.599 0
42.521999 19.990999 -1.607 0
42.623001 20.202 -1.614 0
42.735001 20.42 -1.622 0
42.806999 20.620001 -1.628 0
42.952 20.856001 -1.637 0
43.046001 21.069 -1.6440001 0
43.132 21.280001 -1.65 0
43.278 21.436001 -1.658 0
33.178001 16.556999 -1.225 0.090000004
33.146 16.671 -1.226 0.25999999
33.056 16.756001 -1.225 0.22
32.976002 16.846001 -1.223 0
43.814999 22.566999 -1.696 0
43.875 22.773001 -1.702 0
43.959 22.992001 -1.7079999 0
44.116001 23.162001 -1.717 0
44.269001 23.421 -1.727 0
44.396 23.667 -1.735 0
44.519001 23.912001 -1.744 0
31.075001 16.808001 -1.158 0
44.769001 24.410999 -1.762 0
44.887001 24.658001 -1.77 0
45.060001 24.846001 -1.78 0
45.188999 25.103001 -1.789 0
45.330002 25.367001 -1.798 0
46.173 26.414 -1.847 0
46.242001 26.551001 -1.852 0
46.237999 26.742001 -1.855 0
46.368 27.011999 -1.865 0
46.486 27.277 -1.874 0
46.553001 27.513 -1.881 0
46.591999 27.733999 -1.886 0
46.698002 27.996 -1.895 0
46.847 28.186001 -1.904 0
46.929001 28.437 -1.911 0
47.005001 28.684999 -1.919 0
47.050999 28.917 -1.925 0
47.126999 29.167 -1.932 0
47.172001 29.400999 -1.939 0
47.195 29.621 -1.944 0
47.280998 29.780001 -1.95 0
47.442001 30.09 -1.962 0
47.540001 30.361 -1.97 0
47.493 30.542 -1.973 0
47.465 30.736 -1.976 0
48.050999 32.089001 -2.023 0
48.026001 32.291 -2.027 0
48.327999 33.948002 -2.073 0
48.339001 34.181999 -2.0780001 0
48.311001 34.390999 -2.082 0
48.299999 34.612 -2.0869999 0
40.255001 29.129999 -1.711 0
48.374001 35.243999 -2.1029999 0
48.400002 35.495998 -2.1099999 0
36.806999 27.165001 -1.559 0
48.354 35.931999 -2.118 0
48.259998 36.098 -2.119 0
48.217999 36.304001 -2.1229999 0
48.209 36.416 -2.125 0
48.146999 36.606998 -2.128 0
48.108002 36.816002 -2.131 0
48.057999 37.018002 -2.1340001 0
47.991001 37.207001 -2.1370001 0
47.949001 37.417 -2.141 0
47.888 37.612 -2.1429999 0
47.897999 37.741001 -2.1470001 0
38.362 30.417 -1.683 0
38.223999 30.503 -1.681 0
38.145 30.636999 -1.682 0
47.723999 38.587002 -2.1619999 0
47.665001 38.786999 -2.165 0
47.627998 39.006001 -2.1689999 0
47.644001 39.144001 -2.1730001 0
47.608002 39.366001 -2.177 0
47.571999 39.589001 -2.1819999 0
47.528 39.806 -2.1860001 0
47.509998 40.044998 -2.191 0
47.473999 40.271 -2.1960001 0
47.462002 40.518002 -2.2019999 0
47.499001 40.679001 -2.207 0
47.486 40.926998 -2.2130001 0
47.480999 41.182999 -2.2190001 0
47.451 41.418999 -2.224 0
47.415001 41.651001 -2.2290001 0
47.436001 41.935001 -2.237 0
39.368 35.018002 -1.827 0
39.137001 34.922001 -1.818 0
38.907001 34.937 -1.812 0
47.463001 42.897999 -2.2620001 0
47.483002 43.188 -2.27 0
47.495998 43.473 -2.2780001 0
47.466999 43.721001 -2.2839999 0
47.477001 44.007 -2.2909999 0
47.499001 44.306 -2.3 0
47.622002 44.561001 -2.3099999 0
47.616001 44.837002 -2.3169999 0
26.974001 29.061001 -1.324 0
30.556 36.441002 -1.6289999 0
29.966 35.851002 -1.597 0
29.146 35.091999 -1.5549999 0
27.478001 33.507999 -1.466 0.31
27.264 33.459999 -1.46 0.2
27.139999 33.522999 -1.459 0.22
27.006001 33.571999 -1.457 0
26.833 33.571999 -1.4529999 0
48.994999 61.534 -2.8280001 0
28.465 35.964001 -1.564 0
26.360001 33.515999 -1.4400001 0
26.249001 33.592999 -1.439 0.12
26.160999 33.696999 -1.441 0.14
25.933001 33.620998 -1.433 0.36000001
25.830999 33.707001 -1.433 0.2
25.679001 33.618999 -1.427 0.33000001
25.518 33.625999 -1.423 0.22
25.434 33.735001 -1.425 0.33000001
25.285999 33.757999 -1.4220001 0.25
25.167 33.82 -1.421 0.22
25.120001 33.979 -1.425 0.20999999
24.771999 33.729 -1.409 0
22.316 30.482 -1.252 0
24.802 34.105999 -1.4220001 0
21.996 30.443001 -1.244 0
16.601 24.146 -0.926 0
16.504999 24.167999 -0.92400002 0
16.427999 24.218 -0.92400002 0
15.246 23.013 -0.86000001 0
15.157 23.518 -0.875 0
15.153 23.591999 -0.87699997 0
15.201 24.165001 -0.89700001 0
15.097 24.169001 -0.89499998 0
18.354 29.808001 -1.145 0.14
18.084999 29.579 -1.133 0.47
18.018 29.573999 -1.131 0.20999999
17.934999 29.646999 -1.132 0.28999999
17.796 29.625999 -1.128 0.27000001
17.723 29.716 -1.13 0.30000001
15.91 26.863001 -1 0.23
18.034 30.674999 -1.168 0.27000001
17.816 30.524 -1.158 0.25
17.556999 30.188 -1.142 0
17.479 30.271999 -1.1440001 0.1
17.124001 29.874001 -1.123 0.17
17.094 30.039 -1.128 0.2
17.042 30.169001 -1.132 0.44
16.9 30.136999 -1.128 0.20999999
16.85 30.27 -1.132 0
16.854 30.391001 -1.136 0
17.254999 31.348 -1.175 0
16.427999 30.065001 -1.117 0
17.031 31.406 -1.173 0
20.573999 38.236 -1.47 0.14
15.625 29.247 -1.074 0.2
15.472 29.179001 -1.069 0.15000001
15.422 29.195999 -1.069 0.34
15.48 29.531 -1.081 0.20999999
15.535 29.864 -1.094 0
15.492 30.011999 -1.098 0
11.238 23.075001 -0.78500003 0
11.162 23.103001 -0.78500003 0
11.098 23.156 -0.78600001 0
11.031 23.202 -0.78600001 0
11.003 23.237 -0.787 0
10.937 23.288 -0.78799999 0
10.873 23.341999 -0.78899997 0
10.822 23.424 -0.79100001 0
10.772 23.51 -0.79299998 0
10.738 23.631001 -0.79699999 0
10.707 23.761 -0.801 0
14.466 32.261002 -1.159 0
15.537 34.949001 -1.27 0.079999998
15.43 35.005001 -1.271 0
15.313 35.036999 -1.27 0.12
15.216 35.116001 -1.271 0.1
15.137 35.235001 -1.274 0.079999998
13.482 31.65 -1.122 0.079999998
15 35.375999 -1.277 0.090000004
14.854 35.34 -1.274 0
14.808 35.543999 -1.28 0.12
14.632 35.432999 -1.274 0
14.586 35.639999 -1.281 0.13
12.377 30.504 -1.0650001 0.1
12.493 31.070999 -1.087 0.17
12.203 30.628 -1.067 0.2
12.17 30.684 -1.068 0.34999999
11.945 30.393999 -1.0549999 0.28999999
11.921 30.615999 -1.063 0.2
11.81 30.614 -1.061 0.49000001
12.2 31.927 -1.114 0.23
12.089 31.937 -1.112 0.18000001
11.574 30.867001 -1.067 0.30000001
11.509 30.841999 -1.0650001 0.38999999
11.367 30.754 -1.0599999 0.25999999
11.234 30.691999 -1.056 0.25999999
11.133 30.714001 -1.0549999 0.38999999
10.95 30.506001 -1.045 0.30000001
10.818 30.438 -1.041 0.25999999
10.756 30.569 -1.045 0.28999999
10.765 30.747999 -1.052 0.33000001
10.719 30.929001 -1.058 0.28999999
12.638 36.855999 -1.298 0.34999999
10.243 30.479 -1.036 0.49000001
10.145 30.504999 -1.035 0.16
10.054 30.552 -1.036 0.36000001
10.005 30.563999 -1.036 0.28
9.9280005 30.653999 -1.038 0
9.7690001 30.490999 -1.03 0
7.244 23.087999 -0.72899997 0
7.1659999 23.091 -0.72799999 0
7.079 23.068001 -0.72600001 0
7.027 23.027 -0.72399998 0
6.9460001 23.021 -0.72299999 0
6.862 23 -0.72100002 0
6.7820001 22.999001 -0.72000003 0
6.7059999 23.004 -0.72000003 0
6.6230001 22.990999 -0.71799999 0
6.5440001 22.987 -0.71700001 0
6.4679999 22.993 -0.71700001 0
6.4219999 22.969 -0.71499997 0
6.3460002 22.974001 -0.71499997 0
6.2670002 22.968 -0.71399999 0
6.1950002 22.99 -0.71399999 0
6.1199999 22.997999 -0.713 0
5.9970002 23.121 -0.71700001 0
5.9759998 23.190001 -0.71899998 0
5.9239998 23.290001 -0.722 0
5.882 23.434999 -0.727 0
5.8509998 23.625999 -0.73400003 0
7.1760001 29.805 -0.97799999 0.28999999
7.118 29.979 -0.98400003 0.16
7.2490001 30.745001 -1.0140001 0.34
7.1659999 30.827999 -1.016 0.2
11.979 52.356998 -1.8660001 0.16
6.5819998 29.139 -0.94800001 0.27000001
6.4819999 29.122999 -0.94599998 0.41
6.454 29.43 -0.95700002 0
6.3210001 29.264999 -0.94999999 0.13
6.7490001 31.736 -1.0470001 0
6.803 32.241001 -1.066 0.12
6.7179999 32.341 -1.069 0.18000001
6.5510001 32.044998 -1.057 0.28999999
6.4050002 31.836 -1.048 0.16
6.5300002 32.997002 -1.0930001 0.27000001
6.368 32.716999 -1.081 0.14
6.2080002 32.716999 -1.08 0.28999999
5.8499999 31.363001 -1.026 0.16
5.559 30.325001 -0.98500001 0.18000001
5.7849998 32.137001 -1.0549999 0.17
6.1810002 34.979 -1.165 0.23
5.75 33.141998 -1.0930001 0.18000001
5.9460001 34.926998 -1.1619999 0.19
5.586 33.117001 -1.091 0.17
4.8930001 29.559 -0.95099998 0
4.6859999 29.459 -0.94599998 0.37
4.5939999 29.474001 -0.94599998 0.23999999
5.086 33.341 -1.096 0.25999999
4.9710002 33.285999 -1.0930001 0.12
4.9060001 33.208 -1.09 0.31999999
4.744 32.826 -1.075 0.11
4.2519999 30.068001 -0.96700001 0.28999999
4.1589999 30.099001 -0.96700001 0.28
4.0689998 30.142 -0.96799999 0.15000001
3.961 30.056999 -0.96499997 0.57999998
3.858 29.997999 -0.96200001 0.2
3.701 29.136 -0.92799997 0.20999999
3.661 29.568001 -0.94499999 0.38999999
3.5840001 29.709999 -0.94999999 0.23
3.3870001 28.834 -0.91500002 0.38
3.3410001 29.233999 -0.93000001 0.23
3.224 29.013 -0.921 0.28
3.125 28.955999 -0.91900003 0.25
3.1300001 29.884001 -0.954 0.30000001
3.0810001 29.877001 -0.954 0.41
2.9549999 29.554001 -0.94099998 0.20999999
2.836 29.297001 -0.93099999 0.27000001
2.7390001 29.246 -0.92799997 0.41
2.651 29.304001 -0.93000001 0.31999999
2.608 29.874001 -0.95200002 0.18000001
2.527 30.035 -0.958 0.41
2.487 30.129 -0.96100003 0.30000001
2.3989999 30.224001 -0.96499997 0.38
2.2980001 30.146 -0.96100003 0.18000001
2.1489999 29.405001 -0.93300003 0
1.626 23.169001 -0.69099998 0
1.541 22.997 -0.685 0
1.465 22.938 -0.68199998 0
1.428 22.924 -0.68099999 0
1.355 22.909 -0.68099999 0
1.2819999 22.910999 -0.68099999 0
1.21 22.910999 -0.68000001 0
1.137 22.889999 -0.68000001 0
0.20100001 22.868 -0.67799997 0.039999999
0.12899999 22.862 -0.67699999 0.12
0.057999998 22.889 -0.67799997 0.33000001
-0.014 22.865 -0.67699999 0
-0.050000001 22.891001 -0.67799997 0
-0.124 23.118 -0.68699998 0
-0.34900001 29.362 -0.92799997 0.2
-0.43900001 29.250999 -0.92400002 0.41999999
-0.53299999 29.344999 -0.92699999 0.31999999
-0.62900001 29.531 -0.935 0.14
-0.68400002 29.893999 -0.949 0.19
-0.76700002 29.492001 -0.93300003 0.14
-0.86199999 29.545 -0.935 0.20999999
-0.95099998 29.43 -0.93099999 0.16
-1.054 29.712999 -0.94199997 0.2
-1.148 29.726999 -0.94300002 0.16
-1.225 29.351999 -0.92900002 0.36000001
-1.322 29.452 -0.93300003 0.25
-1.536 32.980999 -1.069 0.25
-1.4630001 29.487 -0.93400002 0.20999999
-1.749 33.089001 -1.073 0.36000001
-1.904 33.979 -1.108 0.16
-1.983 33.515999 -1.09 0.25999999
-1.824 29.320999 -0.92900002 0.38999999
-2.1670001 33.091999 -1.074 0.13
-2.21 32.960999 -1.069 0.25
-2.0669999 29.479 -0.935 0
-2.523 34.377998 -1.125 0.07
-2.253 29.476 -0.93599999 0.11
-2.3559999 29.598 -0.94099998 0.33000001
-3.086 37.206001 -1.235 0.16
-2.497 29.073 -0.921 0.28999999
-2.553 29.18 -0.92500001 0.31999999
-2.6819999 29.576 -0.94099998 0.27000001
-3.727 39.623001 -1.33 0.20999999
-2.9749999 29.691 -0.94599998 0.34999999
-3.0650001 29.652 -0.94499999 0.13
-3.1919999 29.521999 -0.94099998 0.57999998
-3.2850001 29.518999 -0.94099998 0.18000001
-3.329 29.086 -0.92500001 0.31999999
-3.4430001 29.266001 -0.93199998 0.25
-3.556 29.426001 -0.93900001 0.27000001
-3.648 29.414 -0.93900001 0.19
-3.7290001 29.306999 -0.935 0.54000002
-3.9449999 29.879999 -0.958 0.44
-4.0539999 29.974001 -0.96200001 0.20999999
-4.0970001 29.597 -0.94800001 0.28999999
-4.1820002 29.531 -0.94599998 0.43000001
-4.2930002 29.638 -0.94999999 0.34
-4.395 29.688 -0.95300001 0.15000001
-4.4770002 29.599001 -0.94999999 0
-4.5630002 29.846001 -0.95999998 0.07
-4.836 30.975 -1.005 0.14
-4.743 29.775999 -0.958 0.25
-4.8400002 29.778 -0.95899999 0.37
-4.9460001 29.836 -0.96200001 0.19
-5.2589998 31.111 -1.012 0.44999999
-5.0029998 29.054001 -0.93300003 0.25
-5.1149998 29.424 -0.94700003 0.12
-5.5760002 31.478001 -1.028 0.18000001
-5.527 30.643999 -0.99599999 0.20999999
-5.5780001 30.385 -0.98699999 0.20999999
-5.6149998 29.541 -0.95499998 0.47999999
-5.7030001 29.500999 -0.954 0.23
-5.7480001 29.483999 -0.954 0.25
-5.8369999 29.450001 -0.95300001 0.31999999
-5.934 29.452999 -0.954 0.25
-6.0009999 29.309 -0.949 0.33000001
-6.1350002 29.49 -0.95700002 0.13
-6.2670002 29.658001 -0.96499997 0.43000001
-6.3610001 29.642 -0.96499997 0.19
-7.9330001 36.382999 -1.232 0.17
-8.0220003 36.514999 -1.237 0.19
-8.0819998 36.243999 -1.228 0.17
-8.1719999 36.111 -1.223 0.17
-8.2790003 36.060001 -1.222 0.41
-8.349 35.847 -1.215 0.16
-7.9460001 33.644001 -1.1289999 0.41
-8.0810003 33.742001 -1.1339999 0.19
-7.6209998 31.608 -1.049 0.27000001
-8.4530001 34.575001 -1.168 0.17
-7.9169998 31.528999 -1.049 0.31999999
-8.7250004 34.280998 -1.16 0.17
-8.7930002 34.102001 -1.154 0.28999999
-8.0710001 30.908001 -1.027 0.31
-8.875 33.761002 -1.142 0.12
-8.9309998 33.547001 -1.1339999 0.31999999
-9.0740004 33.658001 -1.14 0.15000001
-8.4219999 30.858999 -1.029 0.31999999
-8.5150003 30.819 -1.029 0.28
-8.6459999 30.914 -1.033 0.20999999
-8.7049999 30.754 -1.028 0.34
-9.0380001 31.549999 -1.061 0
-9.4750004 32.874001 -1.115 0.12
-10.553 36.18 -1.249 0.23
-9.7040005 32.893002 -1.118 0.20999999
-9.4119997 31.184 -1.052 0.19
-9.5530005 31.296 -1.057 0.15000001
-9.5270004 30.863001 -1.041 0.23
-9.4469995 30.434 -1.024 0.27000001
-9.5459995 30.415001 -1.025 0.27000001
-9.6639996 30.455999 -1.028 0.18000001
-11.274 35.136002 -1.2180001 0.2
-10.85 33.456001 -1.152 0.1
-10.245 31.261 -1.064 0.15000001
-10.411 31.431999 -1.072 0.11
-10.468 31.438 -1.073 0.15000001
-10.496 31.197001 -1.0650001 0.16
-10.579 31.118 -1.063 0.2
-10.574 30.785999 -1.051 0
-11.744 33.839001 -1.177 0.079999998
-12.412 35.401001 -1.242 0.15000001
-12.106 34.187 -1.194 0.12
-12.22 34.167 -1.1950001 0.079999998
-12.78 35.551998 -1.252 0.14
-11.988 32.709999 -1.1390001 0.5
-11.941 32.268002 -1.122 0.16
-12.005 32.131001 -1.118 0.37
-12.279 32.550999 -1.137 0.19
-11.542 30.313 -1.046 0.18000001
-11.101 29.02 -0.99400002 0.11
-11.165 28.916 -0.991 0.34999999
-11.239 28.836 -0.98900002 0.23
-11.34 28.827999 -0.99000001 0.23999999
-11.433 28.798 -0.99000001 0
-13.211 32.667 -1.154 0.12
-14.06 34.451 -1.23 0.14
-13.689 33.394001 -1.187 0
-13.804 33.376999 -1.188 0
-18.214001 43.629002 -1.619 0.07
-13.755 32.675999 -1.163 0.18000001
-13.853 32.622002 -1.1619999 0.34
-13.979 32.632999 -1.165 0.23999999
-14.179 32.956001 -1.179 0.25999999
-14.301 32.953999 -1.181 0.23
-14.429 32.963001 -1.183 0.27000001
-14.155 31.795 -1.138 0.31
-14.302 31.856001 -1.142 0.18000001
-14.705 32.477001 -1.17 0.28999999
-14.624 32.033001 -1.153 0.19
-14.629 31.91 -1.149 0.23999999
-14.7 31.801001 -1.147 0.15000001
-14.756 31.662001 -1.143 0.34
-14.857 31.617001 -1.143 0.25
-14.916 31.487 -1.1390001 0.25
-14.966 31.337999 -1.135 0.18000001
-15.094 31.351999 -1.137 0.49000001
-15.176 31.396 -1.14 0.22
-15.306 31.410999 -1.143 0.27000001
-15.416 31.386 -1.1440001 0.31999999
-15.535 31.381001 -1.146 0.23
-15.672 31.407 -1.149 0.37
-15.815 31.447001 -1.153 0.20999999
-15.945 31.459 -1.156 0.34
-16.101999 31.523001 -1.161 0.17
-16.239 31.666 -1.168 0.36000001
-16.297001 31.535 -1.164 0.19
-16.617001 31.907 -1.183 0.20999999
-16.721001 31.862 -1.183 0.23
-17.302999 32.721001 -1.223 0.27000001
-17.414 32.68 -1.223 0
-17.4 32.409 -1.214 0.13
-17.615999 32.688 -1.227 0.19
-17.594999 32.405998 -1.217 0.34999999
-17.683001 32.326 -1.216 0.2
-17.457001 31.674999 -1.1900001 0.33000001
-17.545 31.601 -1.189 0.23999999
-17.598 31.462 -1.186 0
-17.674999 31.368 -1.184 0.12
-17.725 31.341999 -1.184 0.25
-17.841 31.316999 -1.1849999 0.25
-17.926001 31.237 -1.184 0.31
-18.059999 31.243 -1.187 0.27000001
-18.208 31.271999 -1.191 0.18000001
-18.318001 31.236 -1.192 0.25
-17.040001 28.851999 -1.0880001 0.27000001
-17.034 28.738001 -1.084 0.27000001
-17.103001 28.65 -1.082 0.31
-17.193001 28.596001 -1.082 0.25
-17.278999 28.535 -1.082 0.18000001
-18.754999 30.750999 -1.1849999 0.14
-18.785 30.583 -1.1799999 0.34
-18.815001 30.417999 -1.175 0.16
-19.176001 30.784 -1.194 0.14
-19.215 30.739 -1.193 0.16
-19.885 31.587999 -1.235 0.12
-20.282 31.993999 -1.256 0.14
-19.917 31.202999 -1.223 0.31
-19.858999 30.896999 -1.212 0
-19.860001 30.687 -1.205 0.13
-19.118 29.34 -1.146 0.2
-19.179001 29.332001 -1.147 0.18000001
-19.316999 29.341999 -1.15 0.47999999
-19.354 29.198 -1.146 0.22
-19.582001 29.341 -1.156 0.20999999
-19.709999 29.333 -1.158 0.14
-19.84 29.327 -1.161 0.11
-32.75 48.054001 -2.0380001 0.31999999
-28.528 41.723999 -1.744 0.25
-32.963001 47.881001 -2.0369999 0.19
-33.125 47.792999 -2.0380001 0.20999999
-33.305 47.731998 -2.04 0
-33.507 47.702 -2.043 0.13
-29.011 41.032001 -1.733 0.22
-29.132 40.93 -1.733 0
-34.206001 47.893002 -2.0650001 0.050000001
-23.344999 32.269001 -1.331 0
-29.120001 39.976002 -1.7029999 0
-23.393 31.912001 -1.321 0
-23.969999 32.483002 -1.352 0
-22.267 29.982 -1.2359999 0.07
-22.364 29.915001 -1.2359999 0.14
-22.402 29.868 -1.235 0.17
-22.489 29.788 -1.235 0.16
-22.547001 29.671 -1.233 0.18000001
-22.504 29.423 -1.224 0
-23.965 31.128 -1.3099999 0.12
-22.589001 29.153 -1.2180001 0.20999999
-23.017 29.511999 -1.239 0
-22.357 28.573999 -1.1950001 0.12
-22.493 28.563 -1.198 0.19
-22.733999 28.683001 -1.207 0.41
-22.818001 28.604 -1.207 0.19
-23.146999 28.83 -1.221 0.36000001
-23.138 28.634001 -1.215 0.16
-23.014 28.298 -1.202 0
-23.346001 28.615 -1.22 0.07
-23.43 28.351999 -1.214 0.28999999
-23.635 28.417999 -1.221 0.2
-23.777 28.406 -1.224 0.23
-23.834 28.292999 -1.222 0.27000001
-23.871 28.157 -1.219 0.18000001
-23.879999 28.079 -1.217 0.25
-23.962 27.996 -1.217 0.28
-24.09 27.966999 -1.219 0.23
-24.327 28.063999 -1.228 0.34
-24.493 28.076 -1.232 0
-25.415001 28.947001 -1.281 0.11
-25.540001 28.906 -1.283 0
-26.01 29.250999 -1.3049999 0
-25.940001 29.080999 -1.298 0
-25.910999 28.865 -1.291 0
-26.693001 29.549 -1.331 0
-26.148001 28.764 -1.295 0
-30.468 33.299 -1.536 0
-27.052 29.384001 -1.336 0
-27.114 29.266001 -1.334 0.12
-27.141001 29.202999 -1.3329999 0
-27.188999 29.070999 -1.33 0
-32.997002 35.051998 -1.652 0
-30.639999 32.347 -1.5140001 0
-44.678001 46.854 -2.2920001 0
-29.76 31.025999 -1.4529999 0
-29.489 30.552 -1.433 0
-29.156 30.018 -1.409 0.12
-29.403999 30.177999 -1.42 0.11
-30.176001 30.775999 -1.4579999 0
-30.832001 31.247 -1.488 0.07
-29.941 30.155001 -1.434 0
-28.756001 28.782 -1.364 0.1
-28.802 28.648001 -1.362 0.22
-28.900999 28.565001 -1.362 0
-30.297001 29.85 -1.436 0
-30.424999 29.789 -1.437 0.11
-30.712 29.881001 -1.448 0.1
-30.864 29.84 -1.451 0
-32.122002 30.861 -1.513 0
-31.724001 30.288 -1.487 0.079999998
-31.556999 29.938999 -1.473 0.14
-31.580999 29.868 -1.472 0.23
-31.511 29.615 -1.4630001 0
-37.806 35.301998 -1.79 0.039999999
-31.732 29.448999 -1.465 0
-38.192001 35.215 -1.799 0.059999999
-32.653 29.924 -1.503 0.15000001
-32.692001 29.771 -1.501 0
-32.654999 29.643999 -1.4960001 0
-32.862 29.643999 -1.502 0
-33.519001 29.857 -1.526 0
-33.715 29.841 -1.5319999 0
-33.716999 29.655001 -1.527 0
-34.243 29.927 -1.549 0
-34.263 29.85 -1.548 0.07
-33.716999 29.188999 -1.515 0.17
-33.403 28.733999 -1.495 0.12
-33.674999 28.784 -1.5039999 0
-33.883999 28.778999 -1.51 0.12
-34.113998 28.790001 -1.517 0
-34.235001 28.708 -1.518 0
-35.097 29.243999 -1.557 0
-35.108002 29.159 -1.5549999 0
-34.797001 28.716999 -1.535 0
-37.814999 31.006001 -1.681 0.16
-34.898998 28.434999 -1.531 0.2
-35.226002 28.517 -1.543 0.1
-35.719002 28.73 -1.563 0.090000004
-36.345001 29.046 -1.59 0.12
-36.561001 29.124001 -1.598 0.13
-36.493999 28.884001 -1.59 0.18000001
-36.514999 28.715 -1.587 0
-36.726002 28.695 -1.5930001 0
-38.786999 30.108 -1.689 0
-45.237 34.881001 -1.998 0
-46.005001 35.243 -2.03 0
-44.659 34.102001 -1.962 0
-45.953999 34.634998 -2.0139999 0
-46.480999 34.576 -2.029 0
-51.167999 37.811001 -2.2490001 0
-45.203999 32.970001 -1.9529999 0
-44.355 32.244999 -1.91 0
-44.881001 32.411999 -1.9299999 0
-45.189999 32.419998 -1.9400001 0
-45.233002 32.236 -1.937 0
-45.455002 32.179001 -1.943 0
-44.872002 31.556 -1.911 0
-44.801998 31.297001 -1.903 0.050000001
-40.529999 28.221001 -1.7 0.16
-40.597 28.077999 -1.699 0.22
-40.695 27.958 -1.699 0
-40.912998 27.917999 -1.705 0
-48.972 32.963001 -2.072 0
-49.361 32.999001 -2.085 0
-44.403 29.587999 -1.853 0
-44.334 29.341 -1.845 0
-45.247002 29.74 -1.883 0
-46.923 30.631001 -1.956 0
-45.478001 29.485001 -1.885 0
-45.103001 29.041 -1.864 0
-45.457001 29.066999 -1.876 0
-45.682999 29.110001 -1.8839999 0
-45.972 29.091999 -1.893 0
-46.417 29.169001 -1.909 0
-48.425999 28.044001 -1.9529999 0
-48.613998 28.051001 -1.96 0
-50.573002 28.969 -2.043 0
-50.262001 28.582001 -2.0250001 0
-50.882999 28.723 -2.0480001 0
-50.349998 28.215 -2.0209999 0
-52.286999 28.868999 -2.098 0
-52.382999 28.815001 -2.1010001 0
-56.859001 28.091999 -2.2409999 0
-57.229 28.052 -2.253 0
-57.214001 27.822001 -2.2490001 0
-58.230999 28.09 -2.2880001 0
-58.500999 27.993999 -2.296 0
-58.918999 27.966 -2.3099999 0
-59.055 27.917 -2.3139999 0
-59.754002 28.018 -2.3399999 0
-60.512001 28.142 -2.369 0
-60.617001 27.959 -2.369 0
-67.175003 27.714001 -2.5969999 0
-55.042999 21.41 -2.073 0
-56.035 21.188999 -2.105 0
-74.260002 26.879 -2.8399999 0
-62.729 21.931999 -2.358 0
-62.748001 21.718 -2.3559999 0
-70.413002 5.777 -2.5190001 0
-72.019997 -3.0439999 -2.575 0
-71.902 -3.2650001 -2.5710001 0
-67.310997 -3.7969999 -2.395 0
-62.249001 -3.7060001 -2.2 0
-62.181 -3.898 -2.198 0
-77.698997 -5.368 -2.7980001 0
-71.655998 -6.7610002 -2.5710001 0
-73.596001 -7.4120002 -2.6470001 0
-76.558998 -8.1969995 -2.7639999 0
-68.614998 -7.5619998 -2.457 0
-70.176003 -7.8470001 -2.5179999 0
-66.213997 -7.6129999 -2.365 0
-65.757004 -7.7690001 -2.349 0
-64.878998 -7.8720002 -2.3150001 0
-58.151001 -7.2389998 -2.0550001 0
-55.772999 -7.119 -1.9630001 0
-54.792 -7.1690001 -1.926 0
-54.807999 -7.3460002 -1.928 0
-47.525002 -6.4419999 -1.645 0
-45.838001 -6.3600001 -1.58 0
-45.898998 -6.5149999 -1.5829999 0
-45.668999 -6.6290002 -1.575 0
-46.019001 -6.8280001 -1.589 0.050000001
-45.910999 -6.9590001 -1.586 0.15000001
-46.199001 -7.151 -1.598 0
-45.848 -7.1700001 -1.585 0.059999999
-44.740002 -7.1409998 -1.543 0.090000004
-45.936001 -7.48 -1.59 0
-45.952 -7.631 -1.592 0
-44.480999 -7.5300002 -1.535 0
-45.990002 -7.9349999 -1.595 0
-45.644001 -8.0229998 -1.5829999 0
-45.839001 -8.1309996 -1.591 0
-46.705002 -8.4370003 -1.626 0
-44.932999 -8.2620001 -1.557 0.090000004
-45.240002 -8.4650002 -1.5700001 0.2
-32.368999 -6.1550002 -1.066 0.18000001
-31.872999 -6.164 -1.0470001 0.19
-31.677 -6.2290001 -1.041 0.18000001
-33.862 -6.7160001 -1.127 0.12
-31.153999 -6.2779999 -1.021 0.17
-31.371 -6.4250002 -1.03 0.49000001
-31.141001 -6.48 -1.022 0.18000001
-31.493999 -6.6570001 -1.0369999 0.18000001
-31.43 -6.7459998 -1.035 0.51999998
-31.778999 -6.9260001 -1.05 0.14
-31.722 -6.9660001 -1.048 0
-33.417999 -7.4499998 -1.1160001 0
-34.383999 -7.7800002 -1.155 0.12
-30.889 -7.0879998 -1.018 0.15000001
-30.610001 -7.125 -1.008 0.28
-30.471001 -7.1939998 -1.003 0.31
-30.466 -7.2940001 -1.0039999 0.30000001
-30.450001 -7.3909998 -1.0039999 0.30000001
-30.469999 -7.447 -1.005 0.22
-30.427 -7.5370002 -1.0039999 0.50999999
-30.163 -7.572 -0.995 0.20999999
-29.780001 -7.5760002 -0.98100001 0.13
-29.791 -7.678 -0.98199999 0.12
-29.576 -7.7220001 -0.97399998 0.20999999
-29.416 -7.7789998 -0.96899998 0.31
-29.450001 -7.8369999 -0.97100002 0.33000001
-29.423 -7.9289999 -0.97100002 0.30000001
-29.620001 -8.0819998 -0.98000002 0.25
-29.631001 -8.1850004 -0.98100001 0.47999999
-31.143 -8.71 -1.043 0.28
-32.058998 -9.0760002 -1.08 0.13
-29.358999 -8.4090004 -0.97299999 0.34
-29.205 -8.4139996 -0.96799999 0.36000001
-29.298 -8.5410004 -0.972 0.28999999
-29.334 -8.651 -0.97500002 0.25999999
-29.396 -8.7700005 -0.97899997 0.43000001
-29.405001 -8.8739996 -0.98000002 0.28999999
-29.329 -8.9510002 -0.97799999 0.25999999
-29.299 -9.0430002 -0.97799999 0.41
-29.320999 -9.1000004 -0.98000002 0.22
-29.514 -9.2620001 -0.98799998 0
-54.391998 -17.280001 -1.9960001 0
-29.931999 -9.6009998 -1.008 0.11
-29.902 -9.6949997 -1.008 0.25999999
-29.896 -9.7969999 -1.0089999 0.25
-29.962 -9.9230003 -1.013 0.28999999
-14.606 -4.849 -0.389 0.25
-14.572 -4.888 -0.389 0.18000001
-14.521 -4.9219999 -0.38699999 0.69999999
-14.528 -4.9749999 -0.38800001 0.40000001
-14.452 -5 -0.38600001 0
-21.200001 -7.4970002 -0.66299999 0.2
-21.361 -7.6300001 -0.67000002 0.41
-21.733 -7.8010001 -0.68599999 0.2
-21.372 -7.7470002 -0.67199999 0.44999999
-21.589001 -7.9029999 -0.68199998 0.25999999
-21.639 -7.9990001 -0.685 0.46000001
-21.834999 -8.1490002 -0.69400001 0.31999999
-21.927 -8.2629995 -0.699 0.27000001
-21.881001 -8.3240004 -0.69800001 0.52999997
-19.955 -7.6240001 -0.62 0.25
-19.867001 -7.6630001 -0.61699998 0.38999999
-11.212 -4.3530002 -0.25999999 0.23
-11.116 -4.355 -0.25600001 0.36000001
-11.087 -4.3839998 -0.25600001 0.36000001
-11.051 -4.4099998 -0.255 0.36000001
-11.03 -4.4419999 -0.25400001 0.36000001
-11.001 -4.4499998 -0.25299999 0.30000001
-10.976 -4.48 -0.25299999 0.41
-10.962 -4.5149999 -0.25299999 0.40000001
-10.96 -4.5549998 -0.25400001 0.34
-10.959 -4.5939999 -0.25400001 0.33000001
-10.952 -4.632 -0.25400001 0.33000001
-10.957 -4.6750002 -0.255 0.47999999
-10.981 -4.7059999 -0.257 0.28999999
-11.018 -4.7620001 -0.259 0.2
-17.476 -7.6360002 -0.53100002 0.16
-17.527 -7.724 -0.53399998 0.40000001
-17.610001 -7.8270001 -0.53899997 0.44999999
-17.788 -7.973 -0.54699999 0.23999999
-17.612 -7.961 -0.54100001 0.44
-17.545 -7.9640002 -0.53899997 0.41
-17.565001 -8.04 -0.54100001 0.34
-17.625 -8.1339998 -0.54400003 0.46000001
-17.566999 -8.1739998 -0.54299998 0.36000001
-17.459 -8.191 -0.53899997 0.43000001
-17.441 -8.2489996 -0.54000002 0.34999999
-17.487 -8.3389997 -0.54299998 0.58999997
-27.476999 -13.172 -0.97100002 0.28999999
-27.719999 -13.396 -0.98299998 0.27000001
-27.266001 -13.282 -0.96499997 0.38999999
-18.606001 -9.1269999 -0.59500003 0.28999999
-27.735001 -13.727 -0.98900002 0.17
-27.459999 -13.698 -0.97899997 0.38999999
-27.349001 -13.75 -0.97600001 0.27000001
-27.311001 -13.839 -0.97600001 0.27000001
-27.247999 -13.861 -0.97500002 0.51999998
-32.027 -16.424 -1.184 0.25
-27.214001 -14.059 -0.977 0.19
-26.856001 -13.981 -0.963 0.22
-26.76 -14.039 -0.96100003 0.36000001
-26.978001 -14.261 -0.972 0.31999999
-27.017 -14.391 -0.97600001 0.27000001
-27.143 -14.513 -0.98299998 0.25999999
-27.111 -14.605 -0.98299998 0.37
-27.150999 -14.737 -0.98699999 0.37
-27.083 -14.811 -0.986 0.20999999
-26.056999 -14.355 -0.94300002 0.38
-26.014 -14.438 -0.94300002 0.30000001
-26.115999 -14.603 -0.949 0.23999999
-26.146999 -14.728 -0.95300001 0.13
-29.226 -16.525999 -1.09 0.34
-29.025999 -16.534 -1.084 0.22
-28.115999 -16.132 -1.046 0
-28.451 -16.443001 -1.063 0
-27.450001 -16.094 -1.023 0
-27.402 -16.183001 -1.023 0.12
-27.652 -16.506001 -1.0369999 0.16
-27.632 -16.613001 -1.039 0.18000001
-29.573999 -17.909 -1.1289999 0
-26.826 -16.474001 -1.01 0
-36.653 -22.677999 -1.4579999 0.07
-26.621 -16.521 -1.0039999 0.16
-26.211 -16.379999 -0.98799998 0.20999999
-26.172001 -16.469999 -0.98799998 0.34
-26.172001 -16.584999 -0.99000001 0.31999999
-26.169001 -16.698999 -0.99299997 0.20999999
-26.464001 -17.004999 -1.0089999 0.28999999
-26.452 -17.115 -1.011 0.27000001
-26.398001 -17.139 -1.0089999 0
-32.862999 -21.490999 -1.3099999 0.090000004
-24.285 -15.982 -0.917 0.16
-24.208 -16.041 -0.91500002 0.30000001
-24.115999 -16.089001 -0.91399997 0.40000001
-24.055 -16.158001 -0.91299999 0.28999999
-24.084 -16.287001 -0.917 0.30000001
-24.108999 -16.360001 -0.91900003 0.34
-24.063 -16.438999 -0.91900003 0.33000001
-24.077999 -16.561001 -0.92299998 0.34
-23.966999 -16.596001 -0.92000002 0.18000001
-21.447001 -14.947 -0.80400002 0.38
-21.415001 -15.025 -0.80400002 0.43000001
-21.298 -15.043 -0.801 0.19
-21.179001 -15.009 -0.79699999 0.34
-7.8559999 -5.6220002 -0.168 0.44
-7.7919998 -5.612 -0.16599999 0.63999999
-7.7849998 -5.645 -0.167 0.27000001
-7.8000002 -5.6929998 -0.168 0.63999999
-20.992001 -15.479 -0.801 0.31999999
-7.8299999 -5.8099999 -0.17200001 0.58999997
-7.829 -5.848 -0.17299999 0.25
-20.052999 -15.128 -0.764 0.30000001
-23.114 -17.556999 -0.91500002 0.18000001
-7.5619998 -5.7969999 -0.163 0.58999997
-7.7410002 -5.9549999 -0.17299999 0.31999999
-7.6700001 -5.9380002 -0.17 0.51999998
-7.6659999 -5.974 -0.171 0.41
-7.5619998 -5.9310002 -0.167 0.33000001
-7.52 -5.9359999 -0.16500001 0.58999997
-7.5079999 -5.9640002 -0.16599999 0.28999999
-7.4749999 -5.9770002 -0.16500001 0.63999999
-7.5770001 -6.079 -0.171 0.22
-7.4840002 -6.0419998 -0.167 0.50999999
-7.46 -6.0619998 -0.167 0.38
-7.4130001 -6.0619998 -0.16500001 0.28999999
-7.362 -6.059 -0.164 0.61000001
-7.0879998 -5.9070001 -0.152 0.60000002
-7.0570002 -5.9190001 -0.15099999 0.36000001
-7.02 -5.9070001 -0.15000001 0.41999999
-7.0019999 -5.9289999 -0.15000001 0.27000001
-7.006 -5.9710002 -0.15099999 0.69
-7.0580001 -6.0539999 -0.154 0.28999999
-6.9860001 -6.0300002 -0.152 0.49000001
-6.9759998 -6.0599999 -0.152 0.36000001
-6.8899999 -6.0229998 -0.149 0.62
-6.8940001 -6.0450001 -0.149 0.23
-6.848 -6.0430002 -0.148 0.57999998
-6.9180002 -6.1440001 -0.153 0.23
-6.7309999 -6.0149999 -0.14399999 0.56999999
-6.7729998 -6.0910001 -0.147 0.38
-6.7179999 -6.0799999 -0.145 0.28
-6.6339998 -6.0419998 -0.142 0.61000001
-6.632 -6.059 -0.142 0.23
-6.585 -6.0539999 -0.141 0.54000002
-6.6329999 -6.1370001 -0.14399999 0.31
-6.5949998 -6.1399999 -0.14300001 0.28999999
-6.7340002 -6.3099999 -0.152 0.55000001
-6.7389998 -6.355 -0.153 0.30000001
-6.677 -6.336 -0.15099999 0.69
-6.6859999 -6.3649998 -0.152 0.28
-6.6729999 -6.3920002 -0.152 0.43000001
-6.7290001 -6.487 -0.156 0.22
-8.2360001 -7.9990001 -0.23899999 0.51999998
-8.217 -8.0299997 -0.23899999 0.31999999
-8.1940002 -8.059 -0.23899999 0.41999999
-8.1590004 -8.0749998 -0.23899999 0.46000001
-8.1199999 -8.0860004 -0.23800001 0.70999998
-7.4380002 -7.428 -0.20100001 0.17
-7.2519999 -7.2859998 -0.192 0.62
-7.0799999 -7.158 -0.184 0.34
-7.2020001 -7.3270001 -0.192 0.28999999
-7.1269999 -7.2969999 -0.189 0.51999998
-6.8260002 -7.0320001 -0.17399999 0.28999999
-6.789 -7.0370002 -0.17299999 0.43000001
-6.7839999 -7.0539999 -0.17299999 0.38
-6.7659998 -7.079 -0.17399999 0.56
-6.823 -7.1849999 -0.178 0.38999999
-6.7540002 -7.1570001 -0.175 0.47
-6.7410002 -7.1880002 -0.176 0.37
-6.73 -7.223 -0.177 0.41999999
-6.9990001 -7.5599999 -0.193 0.69999999
-6.7020001 -7.2600002 -0.177 0.25
-6.6409998 -7.2399998 -0.175 0.47999999
-6.5960002 -7.2350001 -0.17299999 0.30000001
-6.4460001 -7.1149998 -0.16599999 0.51999998
-6.513 -7.2350001 -0.171 0.33000001
-6.4130001 -7.1690001 -0.167 0.47999999
-6.3860002 -7.184 -0.167 0.31
-6.3699999 -7.1880002 -0.16599999 0.52999997
-6.3270001 -7.1859999 -0.16500001 0.47999999
-6.303 -7.204 -0.16500001 0.43000001
-6.3119998 -7.2600002 -0.167 0.18000001
-6.2779999 -7.2659998 -0.16599999 0.67000002
-6.2600002 -7.2919998 -0.167 0.44999999
-6.2600002 -7.3390002 -0.168 0.19
-16.809999 -19.837999 -0.79799998 0.37
-17.52 -20.809999 -0.84500003 0.15000001
-17.511999 -20.934 -0.84799999 0.46000001
-16.867001 -20.291 -0.81300002 0.19
-19.705 -23.865 -0.98900002 0.23
-19.615 -23.908001 -0.98799998 0.16
-16.202 -19.868 -0.78399998 0.23
-16.546 -20.356001 -0.80699998 0.51999998
-15.946 -19.870001 -0.778 0.30000001
-15.757 -19.761999 -0.76999998 0.37
-15.728 -19.981001 -0.77600002 0.44
-17.063 -21.822001 -0.86400002 0.23
-16.716999 -21.448 -0.84399998 0.25999999
-15.87 -20.492001 -0.79500002 0.19
-15.882 -20.641001 -0.80000001 0.31
-16.621 -21.743999 -0.85100001 0.20999999
-16.396 -21.59 -0.84100002 0.15000001
-16.247 -21.534 -0.83600003 0.47
-16.334 -21.791 -0.84600002 0.20999999
-16.118999 -21.645 -0.83600003 0.18000001
-6.3579998 -8.5389996 -0.206 0.38999999
-16 -21.698 -0.83499998 0.17
-15.929 -21.745001 -0.83499998 0.25
-16.601999 -22.816 -0.884 0
-23.871 -33.042999 -1.367 0
-42.377998 -59.084999 -2.599 0
-41.985001 -58.926998 -2.585 0
-41.719002 -58.748001 -2.5739999 0
-41.441002 -58.747002 -2.5669999 0
-41.117001 -58.678001 -2.5580001 0
-40.801998 -58.618999 -2.549 0
-40.435001 -58.483002 -2.5369999 0
-40.055 -58.323002 -2.523 0
-39.75 -58.271 -2.5150001 0
-39.584 -58.223999 -2.51 0
-39.261002 -58.140999 -2.5 0
-38.943001 -58.061001 -2.4909999 0
-38.577999 -57.910999 -2.4779999 0
-38.245998 -57.805 -2.4679999 0
-37.970001 -57.780998 -2.461 0.039999999
-21.049 -32.230999 -1.28 0
-37.480999 -57.625999 -2.4460001 0
-37.167 -57.537998 -2.437 0
-36.798 -57.360001 -2.4230001 0
-36.494999 -57.284 -2.414 0
-36.243 -57.285 -2.4089999 0
-35.974998 -57.257999 -2.4030001 0
-35.668999 -57.168999 -2.3940001 0
-35.474998 -57.056999 -2.3859999 0
-35.132999 -56.903999 -2.3740001 0
-34.828999 -56.810001 -2.365 0
-34.558998 -56.769001 -2.358 0
-34.316002 -56.771 -2.3529999 0
-34.021999 -56.686001 -2.345 0
-33.749001 -56.632999 -2.3369999 0
-33.536999 -56.478001 -2.3280001 0
-33.209 -56.328999 -2.3169999 0
-32.943001 -56.280998 -2.3099999 0.050000001
-18.252001 -31.385 -1.196 0
-32.435001 -56.220001 -2.2980001 0
-32.165001 -56.159 -2.2909999 0
-31.893 -56.091 -2.283 0
-31.666 -55.896 -2.2720001 0
-31.389 -55.814999 -2.2650001 0
-31.136999 -55.776001 -2.2579999 0
-30.91 -55.780998 -2.2539999 0
-30.639999 -55.706001 -2.247 0
-30.378 -55.641998 -2.24 0
-30.121 -55.585999 -2.233 0
-29.893999 -55.375 -2.2219999 0
-29.634001 -55.306 -2.2149999 0
-29.395 -55.277 -2.2090001 0
-29.167 -55.266998 -2.2049999 0
-28.915001 -55.208 -2.198 0
-28.671 -55.164001 -2.1930001 0
-28.409 -55.081001 -2.1849999 0
-28.122 -54.948002 -2.175 0
-27.958 -54.839001 -2.1689999 0
-27.709 -54.773998 -2.1619999 0
-27.517 -54.821999 -2.161 0
-15.203 -30.502001 -1.11 0
-27.011999 -54.671001 -2.1470001 0.050000001
-22.143999 -45.164001 -1.735 0.079999998
-21.945 -45.116001 -1.73 0.090000004
-19.820999 -40.907001 -1.548 0.16
-19.639999 -40.861 -1.544 0.11
-19.547001 -40.995998 -1.5470001 0.13
-19.475 -41.176998 -1.552 0.090000004
-19.417999 -41.393002 -1.559 0
-19.341999 -41.57 -1.563 0
-19.219 -41.648998 -1.564 0
-13.819 -30.052 -1.071 0
-13.694 -30.030001 -1.068 0
-18.764 -41.515999 -1.552 0
-18.110001 -40.403999 -1.503 0.11
-17.945 -40.375 -1.499 0.18000001
-17.792999 -40.374001 -1.497 0.16
-17.73 -40.577999 -1.503 0.17
-17.73 -40.750999 -1.5089999 0.17
-17.663 -40.950001 -1.515 0.17
-17.599001 -41.155998 -1.521 0.17
-17.538 -41.373001 -1.528 0.18000001
-17.469 -41.573002 -1.534 0.18000001
-12.365 -29.667999 -1.035 0.1
-17.33 -41.979 -1.5470001 0.16
-17.288 -42.063999 -1.549 0.2
-17.163 -42.137001 -1.55 0.20999999
-17.033001 -42.198002 -1.55 0.19
-16.917 -42.292 -1.552 0.20999999
-16.778999 -42.332001 -1.551 0.18000001
-16.656 -42.41 -1.552 0.20999999
-16.531 -42.485001 -1.553 0.19
-16.469999 -42.523998 -1.554 0.20999999
-16.346001 -42.601002 -1.5549999 0.17
-16.214001 -42.658001 -1.5549999 0.31999999
-16.087999 -42.729 -1.556 0.20999999
-15.963 -42.806 -1.557 0.18000001
-7.5190001 -20.514999 -0.63800001 0.36000001
-7.4520001 -20.433001 -0.634 0.38
-7.3740001 -20.419001 -0.63300002 0.31999999
-7.3080001 -20.436001 -0.63300002 0.38999999
-7.2420001 -20.452999 -0.63200003 0.41
-7.178 -20.478001 -0.63300002 0.44999999
-7.1269999 -20.538 -0.634 0.33000001
-7.0679998 -20.577 -0.63499999 0.56999999
-7.151 -20.924999 -0.648 0
-14.495 -42.942001 -1.543 0.13
-9.6639996 -28.903999 -0.97100002 0.17
-9.585 -28.968 -0.972 0.31999999
-9.5249996 -29.094999 -0.97600001 0.19
-9.4729996 -29.247 -0.98100001 0.19
-9.4250002 -29.414 -0.98699999 0.12
-9.4180002 -29.549999 -0.99199998 0
-9.3640003 -29.704 -0.99699998 0
-9.3100004 -29.858999 -1.002 0
-13.758 -44.661999 -1.598 0
-13.066 -42.891998 -1.524 0.11
-12.905 -42.845001 -1.521 0.17
-12.753 -42.826 -1.5190001 0.16
-9.0209999 -30.621 -1.027 0
-12.525 -42.799 -1.515 0
-12.371 -42.769001 -1.512 0
-12.286 -42.983002 -1.5190001 0
-12.218 -43.256001 -1.529 0
-12.137 -43.493999 -1.5369999 0
-12.06 -43.748001 -1.545 0
-11.975 -43.979 -1.553 0
-13.736 -50.775002 -1.824 0.079999998
-11.352 -42.473999 -1.4910001 0.079999998
-13.376 -50.706001 -1.818 0.11
-8.5209999 -32.68 -1.098 0.13
-13.006 -50.59 -1.8099999 0.15000001
-12.825 -50.544998 -1.806 0.090000004
-7.9070001 -31.752001 -1.057 0.16
-7.8010001 -31.750999 -1.056 0.38999999
-7.691 -31.731001 -1.0549999 0.44999999
-7.5879998 -31.740999 -1.054 0.34999999
-7.4980001 -31.808001 -1.056 0.55000001
-7.4510002 -32.056999 -1.0650001 0.12
-7.4429998 -32.488998 -1.081 0.14
-7.4120002 -32.589001 -1.084 0.17
-7.3249998 -32.681999 -1.087 0.23
-7.2319999 -32.75 -1.089 0.41
-7.1300001 -32.776001 -1.089 0
-10.683 -49.924 -1.7640001 0.07
-6.777 -32.118 -1.061 0
-6.5370002 -31.469999 -1.035 0
-10.26 -49.856998 -1.758 0
-10.088 -49.813 -1.755 0
-6.3429999 -31.789 -1.046 0
-9.7539997 -49.766998 -1.751 0
-6.165 -31.938 -1.05 0.11
-6.0679998 -31.976999 -1.051 0
-9.2349997 -49.594002 -1.7410001 0
-9.1339998 -49.484001 -1.7359999 0.13
-8.9619999 -49.417999 -1.732 0.090000004
-8.7939997 -49.373001 -1.729 0
-8.632 -49.361 -1.728 0
-8.4820004 -49.419998 -1.729 0
-8.3120003 -49.361 -1.726 0
-8.1470003 -49.321999 -1.723 0
-8.0600004 -49.278 -1.721 0
-7.8940001 -49.231998 -1.7180001 0
-7.7280002 -49.188999 -1.715 0
-7.5560002 -49.098999 -1.711 0
-7.3870001 -49.025002 -1.707 0.12
-7.2189999 -48.952999 -1.704 0.090000004
-7.0539999 -48.893002 -1.7 0
-6.8920002 -48.859001 -1.698 0
-6.8140001 -48.860001 -1.698 0
-6.6550002 -48.838001 -1.696 0
-6.494 -48.800999 -1.694 0
-6.3379998 -48.806999 -1.693 0
-6.1719999 -48.723999 -1.689 0
-6.0149999 -48.709 -1.688 0
-5.8559999 -48.675999 -1.686 0
-5.7680001 -48.59 -1.682 0.059999999
-5.5999999 -48.473 -1.677 0.14
-5.441 -48.437 -1.675 0.1
-5.2820001 -48.391998 -1.673 0.090000004
-5.1259999 -48.368999 -1.671 0.2
-3.2179999 -31.207001 -1.005 0.16
-1.902 -19.236 -0.54100001 0.5
-1.841 -19.240999 -0.54100001 0.52999997
-1.78 -19.237 -0.54100001 0.55000001
-1.72 -19.247 -0.54100001 0.55000001
-1.659 -19.247999 -0.54100001 0.56999999
-1.597 -19.235001 -0.54000002 0.57999998
-1.536 -19.236 -0.54000002 0.56999999
-1.506 -19.24 -0.54000002 0.58999997
-1.4450001 -19.240999 -0.54000002 0.57999998
-1.3839999 -19.238001 -0.54000002 0.58999997
-1.324 -19.24 -0.53899997 0.57999998
-1.263 -19.23 -0.53899997 0.61000001
-1.202 -19.224001 -0.53899997 0.60000002
-1.142 -19.243 -0.53899997 0.60000002
-1.1109999 -19.229 -0.53899997 0.58999997
-1.051 -19.239 -0.53899997 0.60000002
-0.99000001 -19.24 -0.53899997 0.58999997
-0.93000001 -19.237 -0.53799999 0.56999999
-0.86799997 -19.226 -0.53799999 0.58999997
-0.80800003 -19.228001 -0.53799999 0.57999998
-0.74800003 -19.233 -0.53799999 0.57999998
-0.71799999 -19.233999 -0.53799999 0.56999999
-0.65700001 -19.233999 -0.53799999 0.58999997
-0.597 -19.233999 -0.53799999 0.58999997
-0.53600001 -19.226 -0.537 0.60000002
-0.47600001 -19.240999 -0.53799999 0.60000002
-0.41499999 -19.239 -0.53799999 0.58999997
-0.35499999 -19.242001 -0.53799999 0.60000002
-0.32499999 -19.237 -0.53799999 0.56999999
-0.264 -19.23 -0.537 0.56999999
-0.204 -19.228001 -0.537 0.58999997
-0.14300001 -19.229 -0.537 0.58999997
-0.082999997 -19.231001 -0.537 0.58999997
-0.022 -19.235001 -0.53799999 0.58999997
0.037999999 -19.225 -0.537 0.58999997
0.068000004 -19.231001 -0.537 0.60000002
0.12899999 -19.226999 -0.537 0.58999997
0.189 -19.236 -0.53799999 0.58999997
0.25 -19.23 -0.537 0.56999999
0.31 -19.229 -0.537 0.57999998
0.37099999 -19.238001 -0.53799999 0.58999997
0.43099999 -19.239 -0.53799999 0.58999997
0.461 -19.222 -0.537 0.57999998
0.52100003 -19.226 -0.537 0.58999997
0.58200002 -19.235001 -0.53799999 0.60000002
0.64200002 -19.225 -0.53799999 0.58999997
0.70300001 -19.229 -0.53799999 0.58999997
0.764 -19.243999 -0.53799999 0.58999997
0.824 -19.226 -0.53799999 0.60000002
0.85399997 -19.233999 -0.53799999 0.56999999
0.91500002 -19.233999 -0.53799999 0.57999998
0.97500002 -19.229 -0.53799999 0.57999998
1.036 -19.233 -0.53899997 0.57999998
1.096 -19.224001 -0.53799999 0.57999998
1.1569999 -19.226999 -0.53899997 0.57999998
1.2180001 -19.229 -0.53899997 0.60000002
1.248 -19.233 -0.53899997 0.58999997
1.309 -19.229 -0.53899997 0.58999997
1.37 -19.231001 -0.53899997 0.58999997
1.4299999 -19.224001 -0.53899997 0.56999999
1.4910001 -19.226 -0.53899997 0.56
1.551 -19.225 -0.54000002 0.57999998
1.612 -19.224001 -0.54000002 0.56
1.643 -19.233 -0.54000002 0.56999999
1.7029999 -19.222 -0.54000002 0.56999999
1.765 -19.233999 -0.54100001 0.56
1.825 -19.225 -0.54000002 0.56999999
1.886 -19.225 -0.54100001 0.55000001
1.948 -19.226999 -0.54100001 0.56
2.0090001 -19.229 -0.54100001 0.56999999
2.069 -19.224001 -0.54100001 0.55000001
2.1010001 -19.237 -0.542 0.55000001
2.1600001 -19.216 -0.54100001 0.55000001
2.223 -19.226999 -0.542 0.56999999
2.283 -19.222 -0.542 0.56
2.345 -19.225 -0.54299998 0.56
2.4070001 -19.229 -0.54299998 0.56999999
2.467 -19.219999 -0.54299998 0.56999999
2.4979999 -19.222 -0.54299998 0.56999999
2.559 -19.222 -0.54400003 0.56999999
2.622 -19.226999 -0.54400003 0.56
2.684 -19.237 -0.54500002 0.56
2.744 -19.219999 -0.54400003 0.56999999
2.806 -19.224001 -0.54500002 0.56
2.8670001 -19.223 -0.54500002 0.56
2.8989999 -19.226 -0.546 0.56
2.961 -19.226999 -0.546 0.56
3.023 -19.226999 -0.546 0.55000001
3.085 -19.231001 -0.54699999 0.54000002
3.148 -19.233 -0.54699999 0.55000001
3.207 -19.215 -0.54699999 0.54000002
3.27 -19.221001 -0.54799998 0.55000001
3.303 -19.236 -0.54799998 0.54000002
3.3629999 -19.221001 -0.54799998 0.54000002
3.4260001 -19.222 -0.54900002 0.55000001
3.49 -19.231001 -0.54900002 0.54000002
3.55 -19.218 -0.54900002 0.55000001
3.6129999 -19.223 -0.55000001 0.55000001
3.677 -19.229 -0.551 0.51999998
3.7079999 -19.229 -0.551 0.46000001
3.7650001 -19.197001 -0.55000001 0.69
1.5829999 -8.0190001 -0.111 0.28999999
1.61 -8.0200005 -0.111 0.40000001
1.65 -8.0889997 -0.114 0.49000001
1.701 -8.2049999 -0.119 0.30000001
1.711 -8.125 -0.116 0.31
1.72 -8.1070004 -0.116 0.34
1.7690001 -8.2089996 -0.12 0.41999999
1.791 -8.1859999 -0.119 0.27000001
1.786 -8.0419998 -0.114 0.57999998
1.766 -7.8369999 -0.106 0.23999999
1.794 -7.8470001 -0.106 0.51999998
1.613 -6.9679999 -0.071999997 0.31999999
1.517 -6.5139999 -0.054000001 0.25999999
1.599 -6.7680001 -0.064000003 0.23999999
1.524 -6.3649998 -0.048 0.28999999
1.543 -6.3579998 -0.048 0.31999999
1.5650001 -6.3610001 -0.048999999 0.34
1.585 -6.3540001 -0.048 0.23999999
1.61 -6.369 -0.048999999 0.30000001
1.617 -6.3540001 -0.048999999 0.25999999
1.7410001 -6.7490001 -0.064999998 0.37
1.765 -6.7540002 -0.064999998 0.23999999
1.773 -6.6999998 -0.063000001 0.41999999
1.77 -6.6040001 -0.059999999 0.23
1.698 -6.263 -0.046 0.23
1.719 -6.2610002 -0.046 0.25999999
1.734 -6.2399998 -0.046 0.54000002
1.748 -6.2529998 -0.046 0.28
1.7589999 -6.2150002 -0.045000002 0.30000001
1.776 -6.204 -0.045000002 0.28
1.7869999 -6.1669998 -0.044 0.23999999
1.811 -6.1789999 -0.044 0.14
1.842 -6.2090001 -0.046 0.5
1.854 -6.1810002 -0.045000002 0.16
1.904 -6.3099999 -0.050000001 0.33000001
1.87 -6.1300001 -0.043000001 0.27000001
1.896 -6.1430001 -0.044 0.33000001
1.9069999 -6.112 -0.043000001 0.19
2.0120001 -6.3730001 -0.054000001 0.38999999
1.961 -6.1500001 -0.045000002 0.30000001
1.964 -6.1259999 -0.044 0.22
2.01 -6.1989999 -0.046999998 0.38
2.0320001 -6.1999998 -0.048 0.34999999
2.049 -6.1880002 -0.046999998 0.23
2.1700001 -6.4809999 -0.059999999 0.25999999
2.0799999 -6.151 -0.046 0.44
2.092 -6.1230001 -0.045000002 0.28999999
2.234 -6.4699998 -0.059999999 0.34999999
2.161 -6.2290001 -0.050000001 0.27000001
2.141 -6.1090002 -0.046 0.23
2.158 -6.0960002 -0.045000002 0.16
2.885 -8.0459995 -0.126 0.20999999
2.9100001 -8.0349998 -0.125 0.56999999
2.276 -6.2410002 -0.052000001 0.31999999
2.277 -6.1830001 -0.050000001 0.25999999
2.2869999 -6.1810002 -0.050000001 0.34
2.3069999 -6.1760001 -0.050000001 0.40000001
2.2839999 -6.0570002 -0.046 0.2
2.3069999 -6.0609999 -0.046 0.17
2.3529999 -6.1220002 -0.048999999 0.5
2.3729999 -6.1170001 -0.048999999 0.20999999
2.358 -6.0219998 -0.045000002 0.28999999
2.388 -6.0700002 -0.046999998 0.23
2.402 -6.0500002 -0.046999998 0.33000001
2.4070001 -6.0089998 -0.046 0.2
2.4349999 -6.0229998 -0.046 0.47
2.4300001 -5.9559999 -0.044 0.31
2.4349999 -5.9169998 -0.043000001 0.28999999
2.4660001 -5.9390001 -0.044 0.25999999
2.438 -5.8470001 -0.039999999 0.23
2.5039999 -5.9510002 -0.045000002 0.28999999
2.516 -5.927 -0.044 0.28999999
2.484 -5.802 -0.039000001 0.30000001
2.5020001 -5.7940001 -0.039000001 0.30000001
2.5510001 -5.8569999 -0.041999999 0.23999999
2.5469999 -5.7979999 -0.039999999 0.30000001
2.5510001 -5.783 -0.039999999 0.28999999
2.579 -5.7950001 -0.041000001 0.44999999
2.585 -5.7620001 -0.039000001 0.28999999
2.598 -5.743 -0.039000001 0.28999999
2.5940001 -5.6849999 -0.037 0.30000001
2.612 -5.677 -0.037 0.27000001
2.5999999 -5.6069999 -0.034000002 0.31999999
2.605 -5.5939999 -0.034000002 0.31999999
2.6229999 -5.586 -0.034000002 0.23999999
2.6359999 -5.5689998 -0.034000002 0.27000001
2.6559999 -5.566 -0.034000002 0.23
2.6819999 -5.5749998 -0.035 0.41
2.7160001 -5.6009998 -0.035999998 0.34
2.72 -5.5640001 -0.035 0.28999999
2.733 -5.5689998 -0.035 0.31999999
2.7219999 -5.5029998 -0.033 0.2
2.7449999 -5.507 -0.033 0.44999999
2.7420001 -5.4569998 -0.030999999 0.14
2.7639999 -5.4569998 -0.032000002 0.30000001
2.7850001 -5.4569998 -0.032000002 0.33000001
2.796 -5.4359999 -0.032000002 0.31999999
2.7980001 -5.4190001 -0.030999999 0.22
2.8440001 -5.4650002 -0.034000002 0.44
2.8440001 -5.4250002 -0.032000002 0.25
2.9130001 -5.513 -0.035999998 0.30000001
2.9519999 -5.5440001 -0.037999999 0.33000001
2.973 -5.5419998 -0.037999999 0.30000001
2.9860001 -5.5240002 -0.037999999 0.28
2.9949999 -5.5190001 -0.037999999 0.33000001
3.0190001 -5.5219998 -0.039000001 0.23999999
4.342 -7.802 -0.14 0.54000002
3.2379999 -5.7909999 -0.052000001 0.20999999
3.1800001 -5.645 -0.046 0.28999999
3.1919999 -5.6259999 -0.045000002 0.37
3.1889999 -5.5999999 -0.044 0.28999999
3.309 -5.7670002 -0.052000001 0.31
3.267 -5.6529999 -0.048 0.31999999
3.2880001 -5.6490002 -0.048 0.31999999
3.256 -5.5549998 -0.044 0.27000001
3.2479999 -5.5019999 -0.041999999 0.28
3.316 -5.5749998 -0.046 0
3.2850001 -5.4850001 -0.041999999 0
3.299 -5.4879999 -0.043000001 0
11.89 -19.24 -0.66799998 0.059999999
3.4460001 -5.5710001 -0.048999999 0.12
3.75 -6.0180001 -0.068999998 0.25
3.77 -6.007 -0.068999998 0.28999999
3.763 -5.9759998 -0.068000004 0.46000001
3.7509999 -5.915 -0.066 0.25
3.812 -5.9689999 -0.068999998 0.43000001
3.786 -5.888 -0.066 0.23999999
3.823 -5.9050002 -0.067000002 0.33000001
3.839 -5.8899999 -0.067000002 0.37
3.8510001 -5.8870001 -0.067000002 0.34
3.875 -5.8829999 -0.068000004 0.31
3.908 -5.8920002 -0.068999998 0.41
4.0700002 -6.0939999 -0.079000004 0.30000001
3.9189999 -5.8299999 -0.067000002 0.28999999
13.037 -19.157 -0.68900001 0.23
13.137 -19.174 -0.69199997 0.43000001
13.229 -19.177999 -0.69400001 0.23
13.278 -19.186001 -0.69499999 0.61000001
13.355 -19.167 -0.69700003 0.19
4.2220001 -6.0510001 -0.079999998 0.37
4.1939998 -5.9699998 -0.077 0.34
4.1830001 -5.915 -0.075000003 0.31999999
4.1960001 -5.895 -0.075000003 0.43000001
4.2069998 -5.8709998 -0.074000001 0.36000001
4.1999998 -5.8410001 -0.072999999 0.30000001
4.224 -5.836 -0.074000001 0.31999999
4.2410002 -5.8210001 -0.074000001 0.27000001
4.2600002 -5.8099999 -0.074000001 0.46000001
4.2800002 -5.7979999 -0.074000001 0.38
4.2579999 -5.7309999 -0.071000002 0.34
4.2600002 -5.6960001 -0.07 0.33000001
4.2719998 -5.6939998 -0.07 0.34
4.296 -5.6880002 -0.071000002 0.44999999
4.2909999 -5.645 -0.068999998 0.28
4.3039999 -5.625 -0.068999998 0.34
4.368 -5.671 -0.071999997 0.40000001
4.3169999 -5.5689998 -0.068000004 0.25
4.3639998 -5.5929999 -0.07 0.28
4.3930001 -5.612 -0.071000002 0.38
4.4180002 -5.6069999 -0.071000002 0.27000001
4.3850002 -5.5310001 -0.068000004 0.55000001
4.539 -5.6869998 -0.077 0.18000001
4.4819999 -5.579 -0.071999997 0.23999999
4.5209999 -5.592 -0.072999999 0.31999999
4.539 -5.579 -0.072999999 0.25
4.566 -5.5929999 -0.074000001 0.34999999
4.7010002 -5.7210002 -0.081 0.36000001
15.942 -19.181 -0.75700003 0.14
4.5300002 -5.4439998 -0.068999998 0
16.146999 -19.181 -0.76300001 0
16.226999 -19.153 -0.764 0
16.327 -19.149 -0.76599997 0.07
16.407 -19.181 -0.76899999 0.11
7.039 -8.1479998 -0.211 0.44
7.237 -8.323 -0.221 0
16.805 -19.153999 -0.778 0.07
7.237 -8.1669998 -0.21699999 0
17.09 -19.173 -0.78600001 0
