# .PCD v0.7 - Point Cloud Data file format
VERSION 0.7
FIELDS x y z intensity
SIZE 4 4 4 4
TYPE F F F F
COUNT 1 1 1 1
WIDTH 1405
HEIGHT 1
VIEWPOINT 0 0 0 1 0 0 0
POINTS 1405
DATA ascii
-4.6389999 -5.3790002 -1.728 0.25999999
-4.6220002 -5.3930001 -1.728 0.25999999
-4.6069999 -5.4089999 -1.729 0.20999999
-4.5830002 -5.4159999 -1.726 0.27000001
-4.5630002 -5.4260001 -1.725 0.25
-4.5560002 -5.4520001 -1.729 0.25
-4.5370002 -5.448 -1.725 0.2
-4.5209999 -5.4629998 -1.725 0.27000001
-4.5089998 -5.4829998 -1.727 0.25
-4.4829998 -5.487 -1.724 0.25999999
-4.4679999 -5.5040002 -1.725 0.25
-4.4569998 -5.526 -1.727 0.25999999
-4.427 -5.5250001 -1.722 0.27000001
-4.428 -5.5440001 -1.726 0.25999999
-4.4070001 -5.553 -1.725 0.25999999
-4.3839998 -5.559 -1.722 0.25999999
-4.3709998 -5.579 -1.724 0.25999999
-4.3579998 -5.599 -1.726 0.28
-4.3280001 -5.5960002 -1.72 0.28
-4.3109999 -5.6110001 -1.721 0.27000001
-4.3060002 -5.6220002 -1.722 0.27000001
-4.2839999 -5.6300001 -1.72 0.28999999
-4.2680001 -5.6459999 -1.721 0.27000001
-4.2480001 -5.6560001 -1.72 0.25999999
-4.2329998 -5.6729999 -1.721 0.27000001
-4.217 -5.6890001 -1.722 0.28999999
-4.1999998 -5.704 -1.723 0.28
-4.1830001 -5.6999998 -1.719 0.28
-4.1690001 -5.717 -1.721 0.28999999
-4.151 -5.73 -1.721 0.28999999
-4.1279998 -5.737 -1.719 0.27000001
-4.112 -5.7519999 -1.719 0.28
-4.0929999 -5.7649999 -1.719 0.25
-4.073 -5.7740002 -1.7180001 0.25999999
-4.0609999 -5.776 -1.717 0.25999999
-4.0469999 -5.7950001 -1.719 0.25999999
-4.026 -5.8049998 -1.7180001 0.27000001
-4.006 -5.8140001 -1.717 0.25999999
-3.9909999 -5.8309999 -1.7180001 0.25999999
-3.9630001 -5.829 -1.714 0.25999999
-3.954 -5.8559999 -1.7180001 0.2
-3.9389999 -5.8730001 -1.72 0.28
-3.9219999 -5.868 -1.716 0.25
-3.905 -5.882 -1.717 0.25999999
-3.8829999 -5.8899999 -1.715 0.25999999
-3.8629999 -5.8990002 -1.714 0.27000001
-3.848 -5.9169998 -1.716 0.25999999
-3.8340001 -5.9359999 -1.7180001 0.2
-3.8139999 -5.9460001 -1.7180001 0.28
-3.8010001 -5.9460001 -1.716 0.23999999
-3.7850001 -5.9619999 -1.717 0.2
-3.767 -5.9759998 -1.7180001 0.27000001
-3.7460001 -5.9840002 -1.717 0.23
-3.7279999 -5.9959998 -1.717 0.19
-3.71 -6.0100002 -1.717 0.25999999
-3.687 -6.0149999 -1.715 0.23
-3.678 -6.0219998 -1.716 0.19
-3.6570001 -6.0300002 -1.715 0.27000001
-3.638 -6.04 -1.714 0.23999999
-3.619 -6.0510001 -1.714 0.2
-3.598 -6.059 -1.7130001 0.27000001
-3.5739999 -6.0640001 -1.711 0.23999999
-3.5580001 -6.0799999 -1.7130001 0.2
-3.5469999 -6.0830002 -1.712 0.27000001
-3.5250001 -6.0890002 -1.71 0.23999999
-3.51 -6.1059999 -1.712 0.2
-3.4809999 -6.1009998 -1.707 0.27000001
-3.461 -6.1100001 -1.707 0.23
-3.45 -6.1360002 -1.711 0.19
-3.438 -6.138 -1.71 0.28
-3.418 -6.1469998 -1.71 0.23999999
-3.402 -6.1630001 -1.711 0.25999999
-3.3770001 -6.1630001 -1.7079999 0.2
-3.362 -6.1820002 -1.711 0.27000001
-3.3429999 -6.1939998 -1.711 0.25
-3.319 -6.1960001 -1.709 0.17
-3.3050001 -6.217 -1.712 0.28
-3.2950001 -6.2210002 -1.711 0.25
-3.27 -6.2210002 -1.7079999 0.19
-3.2520001 -6.2340002 -1.709 0.27000001
-3.2309999 -6.243 -1.709 0.23999999
-3.2090001 -6.2480001 -1.707 0.19
-3.1949999 -6.2680001 -1.71 0.27000001
-3.171 -6.2690001 -1.7079999 0.25
-3.158 -6.2690001 -1.706 0.25999999
-3.138 -6.277 -1.706 0.25
-3.119 -6.289 -1.706 0.25999999
-3.095 -6.2919998 -1.704 0.19
-3.0780001 -6.3070002 -1.706 0.27000001
-3.0580001 -6.3150001 -1.705 0.25
-3.033 -6.3140001 -1.702 0.25999999
-3.0250001 -6.3239999 -1.704 0.25999999
-3.0050001 -6.3330002 -1.704 0.25999999
-2.9790001 -6.329 -1.7 0.25999999
-2.9660001 -6.3520002 -1.704 0.25999999
-2.951 -6.3720002 -1.707 0.2
-2.9219999 -6.3629999 -1.702 0.28
-2.8989999 -6.3660002 -1.7 0.25
-2.8940001 -6.381 -1.7029999 0.25
-2.8670001 -6.3740001 -1.698 0.25999999
-2.8529999 -6.3969998 -1.702 0.23999999
-2.829 -6.3969998 -1.7 0.18000001
-2.8099999 -6.408 -1.7 0.28999999
-2.786 -6.4089999 -1.698 0.25
-2.7690001 -6.4229999 -1.7 0.25999999
-2.7579999 -6.4260001 -1.699 0.25
-2.74 -6.4419999 -1.701 0.25999999
-2.723 -6.4559999 -1.7029999 0.25999999
-2.697 -6.4520001 -1.699 0.28999999
-2.674 -6.4549999 -1.698 0.31
-2.6630001 -6.4850001 -1.704 0.31
-2.635 -6.4749999 -1.699 0.34
-2.625 -6.4790001 -1.699 0.34
-2.609 -6.4980001 -1.702 0.37
-2.5799999 -6.4850001 -1.696 0.33000001
-2.562 -6.4980001 -1.697 0.37
-2.546 -6.5170002 -1.7 0.36000001
-2.5239999 -6.5209999 -1.699 0.33000001
-2.5050001 -6.533 -1.7 0.38
-2.494 -6.5349998 -1.7 0.34999999
-2.4690001 -6.5320001 -1.697 0.36000001
-2.451 -6.5450001 -1.698 0.36000001
-2.431 -6.5560002 -1.699 0.36000001
-2.408 -6.5570002 -1.697 0.36000001
-2.388 -6.566 -1.698 0.34999999
-2.3670001 -6.5739999 -1.698 0.36000001
-2.3559999 -6.5739999 -1.697 0.36000001
-2.336 -6.585 -1.698 0.36000001
-2.3180001 -6.5970001 -1.699 0.28999999
-2.2920001 -6.592 -1.696 0.34
-2.276 -6.6100001 -1.699 0.23999999
-2.2550001 -6.619 -1.699 0.2
-2.233 -6.6209998 -1.698 0.27000001
-2.2249999 -6.631 -1.7 0.23
-2.201 -6.631 -1.698 0.19
-2.1789999 -6.6339998 -1.697 0.25999999
-2.158 -6.6389999 -1.696 0.23
-2.141 -6.6589999 -1.7 0.25999999
-2.1140001 -6.6469998 -1.6950001 0.27000001
-2.0940001 -6.6560001 -1.6950001 0.22
-2.0829999 -6.6570001 -1.6950001 0.25999999
-2.0599999 -6.6560001 -1.693 0.31999999
-2.039 -6.6630001 -1.693 0.31999999
-2.0190001 -6.6729999 -1.694 0.31999999
-1.995 -6.6700001 -1.691 0.38
-1.975 -6.6799998 -1.692 0.36000001
-1.9579999 -6.697 -1.6950001 0.34
-1.9400001 -6.6739998 -1.688 0.34
-1.92 -6.684 -1.689 0.31999999
-1.9 -6.6950002 -1.691 0.33000001
-1.878 -6.698 -1.6900001 0.34
-1.859 -6.7090001 -1.691 0.31999999
-1.8380001 -6.717 -1.692 0.33000001
-1.817 -6.7220001 -1.692 0.31
-1.804 -6.7179999 -1.6900001 0.28999999
-1.785 -6.7309999 -1.692 0.30000001
-1.76 -6.7220001 -1.688 0.27000001
-1.739 -6.7270002 -1.688 0.28
-1.724 -6.7550001 -1.694 0.23999999
-1.6950001 -6.73 -1.686 0.18000001
-1.678 -6.7529998 -1.6900001 0.28999999
-1.665 -6.7459998 -1.688 0.23
-1.645 -6.7550001 -1.689 0.15000001
-1.627 -6.7729998 -1.692 0.28999999
-1.602 -6.763 -1.688 0.23999999
-1.58 -6.7639999 -1.687 0.2
-1.561 -6.7789998 -1.6900001 0.28
-1.539 -6.783 -1.6900001 0.25
-1.529 -6.79 -1.691 0.16
-1.507 -6.7909999 -1.6900001 0.28999999
-1.483 -6.7839999 -1.687 0.25
-1.462 -6.7870002 -1.686 0.25
-1.442 -6.7989998 -1.688 0.2
-1.423 -6.8169999 -1.692 0.27000001
-1.398 -6.802 -1.687 0.25
-1.3890001 -6.8099999 -1.688 0.27000001
-1.3660001 -6.809 -1.687 0.25999999
-1.345 -6.8130002 -1.687 0.16
-1.324 -6.8189998 -1.687 0.28999999
-1.303 -6.829 -1.689 0.23999999
-1.28 -6.8249998 -1.687 0.16
-1.2589999 -6.8309999 -1.687 0.28999999
-1.2460001 -6.822 -1.684 0.23
-1.226 -6.829 -1.6849999 0.27000001
-1.205 -6.835 -1.686 0.27000001
-1.183 -6.8390002 -1.686 0.28
-1.16 -6.8309999 -1.683 0.27000001
-1.137 -6.8309999 -1.682 0.16
-1.118 -6.848 -1.6849999 0.30000001
-1.107 -6.8439999 -1.684 0.23999999
-1.085 -6.849 -1.684 0.25999999
-1.063 -6.8509998 -1.684 0.28
-1.04 -6.8410001 -1.6799999 0.28
-1.02 -6.8509998 -1.682 0.28999999
-0.99800003 -6.8530002 -1.682 0.25
-0.97500002 -6.8439999 -1.679 0.19
-0.96499997 -6.8569999 -1.682 0.28
-0.94400001 -6.8639998 -1.683 0.20999999
-0.92000002 -6.8460002 -1.677 0.19
-0.89899999 -6.8509998 -1.678 0.28999999
-0.87800002 -6.8590002 -1.679 0.23999999
-0.85600001 -6.8559999 -1.678 0.27000001
-0.83399999 -6.8569999 -1.677 0.28999999
-0.824 -6.8639998 -1.679 0.28
-0.80000001 -6.849 -1.674 0.27000001
-0.78100002 -6.875 -1.6799999 0.25999999
-0.75800002 -6.8639998 -1.677 0.2
-0.73699999 -6.8699999 -1.678 0.28999999
-0.71399999 -6.855 -1.673 0.25
-0.69400001 -6.8800001 -1.679 0.27000001
-0.68199998 -6.868 -1.676 0.22
-0.66000003 -6.8639998 -1.674 0.28
-0.63800001 -6.8639998 -1.674 0.23999999
-0.61699998 -6.8720002 -1.675 0.25
-0.59500003 -6.8610001 -1.6720001 0.18000001
-0.57300001 -6.8639998 -1.6720001 0.30000001
-0.55000001 -6.8449998 -1.6670001 0.25
-0.54100001 -6.8649998 -1.6720001 0.28
-0.51999998 -6.8759999 -1.674 0.25
-0.49700001 -6.862 -1.67 0.25
-0.47600001 -6.8720002 -1.6720001 0.27000001
-0.454 -6.8639998 -1.67 0.2
-0.43200001 -6.855 -1.6670001 0.30000001
-0.41 -6.8590002 -1.668 0.25
-0.40000001 -6.875 -1.6720001 0.25999999
-0.37799999 -6.8639998 -1.669 0.25
-0.35600001 -6.862 -1.668 0.27000001
-0.33500001 -6.8610001 -1.6670001 0.30000001
-0.31299999 -6.8520002 -1.665 0.28
-0.29100001 -6.8509998 -1.664 0.25
-0.27000001 -6.8579998 -1.666 0.25999999
-0.25799999 -6.8390002 -1.66 0.25999999
-0.237 -6.8449998 -1.6619999 0.28
-0.21600001 -6.8600001 -1.666 0.25999999
-0.19400001 -6.8559999 -1.665 0.25
-0.17299999 -6.855 -1.664 0.27000001
-0.15099999 -6.8559999 -1.664 0.30000001
-0.12899999 -6.8460002 -1.6619999 0.25999999
-0.118 -6.8449998 -1.661 0.23
-0.097000003 -6.8429999 -1.66 0.28
-0.075000003 -6.8369999 -1.659 0.25
-0.054000001 -6.8319998 -1.6569999 0.25999999
-0.033 -6.855 -1.664 0.23999999
-0.011 -6.8299999 -1.6569999 0.2
0.011 -6.8280001 -1.656 0.30000001
0.021 -6.8319998 -1.6569999 0.25
0.043000001 -6.8449998 -1.661 0.23
0.064000003 -6.8319998 -1.6569999 0.18000001
0.086000003 -6.8390002 -1.659 0.28999999
0.107 -6.816 -1.653 0.23999999
0.12899999 -6.8270001 -1.656 0.2
0.15000001 -6.836 -1.659 0.28
0.161 -6.8299999 -1.6569999 0.25
0.182 -6.8280001 -1.6569999 0.23999999
0.20299999 -6.8150001 -1.654 0.18000001
0.22499999 -6.8169999 -1.654 0.28999999
0.24600001 -6.816 -1.654 0.23999999
0.26800001 -6.8150001 -1.654 0.18000001
0.289 -6.8179998 -1.655 0.25999999
0.30000001 -6.816 -1.655 0.23
0.32100001 -6.8189998 -1.656 0.22
0.34200001 -6.7940001 -1.65 0.25
0.36399999 -6.809 -1.654 0.23
0.38600001 -6.8130002 -1.655 0.18000001
0.40700001 -6.8060002 -1.654 0.25999999
0.428 -6.809 -1.655 0.23999999
0.44 -6.8179998 -1.6569999 0.25
0.46000001 -6.8049998 -1.654 0.2
0.48199999 -6.803 -1.654 0.28
0.50300002 -6.802 -1.654 0.23
0.52399999 -6.796 -1.653 0.18000001
0.54500002 -6.7930002 -1.653 0.25999999
0.56699997 -6.7950001 -1.654 0.25
0.57700002 -6.7919998 -1.653 0.19
0.59899998 -6.7979999 -1.655 0.28
0.62 -6.7839999 -1.652 0.25
0.64200002 -6.7919998 -1.655 0.25999999
0.66299999 -6.7859998 -1.654 0.23
0.685 -6.7940001 -1.656 0.14
0.70499998 -6.7740002 -1.652 0.20999999
0.71600002 -6.7810001 -1.654 0.2
0.73799998 -6.7859998 -1.656 0.25999999
0.759 -6.7779999 -1.654 0.25
0.78100002 -6.7779999 -1.655 0.23
0.80199999 -6.777 -1.655 0.13
0.82300001 -6.7729998 -1.655 0.2
0.84500003 -6.776 -1.656 0.2
0.85500002 -6.7690001 -1.655 0.25
0.875 -6.7579999 -1.653 0.22
0.898 -6.7709999 -1.6569999 0.18000001
0.917 -6.7509999 -1.652 0.25999999
0.94099998 -6.763 -1.656 0.20999999
0.95999998 -6.7490001 -1.653 0.12
0.98199999 -6.7509999 -1.655 0.20999999
0.99299997 -6.7480001 -1.654 0.15000001
1.016 -6.756 -1.6569999 0.28
1.035 -6.7410002 -1.654 0.23
1.057 -6.744 -1.656 0.15000001
1.077 -6.7329998 -1.654 0.28999999
1.097 -6.724 -1.652 0.23999999
1.119 -6.7220001 -1.653 0.27000001
1.132 -6.7360001 -1.6569999 0.23
1.151 -6.723 -1.654 0.25999999
1.1720001 -6.7129998 -1.653 0.30000001
1.191 -6.6999998 -1.65 0.31999999
1.211 -6.6900001 -1.649 0.30000001
1.232 -6.6890001 -1.649 0.34
1.2539999 -6.6900001 -1.651 0.38999999
1.2640001 -6.6849999 -1.65 0.20999999
1.285 -6.6789999 -1.649 0.28999999
1.306 -6.6760001 -1.65 0.25
1.329 -6.684 -1.653 0.2
1.347 -6.6620002 -1.648 0.27000001
1.369 -6.6620002 -1.649 0.25
1.39 -6.6609998 -1.65 0.2
1.4 -6.6539998 -1.649 0.14
1.42 -6.645 -1.648 0.20999999
1.443 -6.6539998 -1.651 0.18000001
1.462 -6.6360002 -1.648 0.30000001
1.483 -6.6339998 -1.648 0.36000001
1.5 -6.6139998 -1.6440001 0.31
1.523 -6.6170001 -1.646 0.37
1.5319999 -6.6079998 -1.645 0.30000001
1.553 -6.6040001 -1.645 0.38
1.575 -6.6059999 -1.647 0.34999999
1.5930001 -6.5900002 -1.6440001 0.28
1.615 -6.5890002 -1.645 0.36000001
1.635 -6.5799999 -1.6440001 0.31999999
1.655 -6.573 -1.643 0.34
1.666 -6.5760002 -1.645 0.31999999
1.686 -6.5669999 -1.6440001 0.38
1.705 -6.5560002 -1.642 0.33000001
1.727 -6.5539999 -1.643 0.34
1.7460001 -6.5430002 -1.642 0.34999999
1.767 -6.5380001 -1.642 0.34999999
1.7920001 -6.5489998 -1.646 0.43000001
1.7970001 -6.5289998 -1.642 0.31
1.816 -6.5159998 -1.64 0.31999999
1.841 -6.527 -1.6440001 0.36000001
1.857 -6.506 -1.64 0.33000001
1.877 -6.4970002 -1.6390001 0.31999999
1.901 -6.5040002 -1.643 0.38
1.916 -6.4790001 -1.638 0.36000001
1.926 -6.4780002 -1.638 0.33000001
1.952 -6.4910002 -1.643 0.40000001
1.972 -6.4809999 -1.642 0.30000001
1.989 -6.4629998 -1.6390001 0.25
2.0090001 -6.4569998 -1.6390001 0.23
2.029 -6.4510002 -1.6390001 0.27000001
2.0480001 -6.441 -1.638 0.19
2.0610001 -6.447 -1.641 0.25999999
2.076 -6.4239998 -1.636 0.25
2.099 -6.4260001 -1.6390001 0.19
2.118 -6.4159999 -1.638 0.28
2.1370001 -6.4060001 -1.637 0.25
2.154 -6.388 -1.6339999 0.27000001
2.1830001 -6.4089999 -1.641 0.25999999
2.188 -6.3899999 -1.637 0.20999999
2.2030001 -6.3670001 -1.633 0.27000001
2.224 -6.3660002 -1.6339999 0.22
2.243 -6.3530002 -1.633 0.25999999
2.2620001 -6.3439999 -1.632 0.28999999
2.286 -6.348 -1.635 0.28
2.3050001 -6.3390002 -1.635 0.27000001
2.316 -6.3390002 -1.636 0.28
2.339 -6.3390002 -1.638 0.28999999
2.3570001 -6.3260002 -1.636 0.28
2.372 -6.3080001 -1.633 0.30000001
2.395 -6.3080001 -1.635 0.28
2.414 -6.2979999 -1.635 0.25
2.4300001 -6.2800002 -1.632 0.18000001
2.4419999 -6.2810001 -1.633 0.30000001
2.457 -6.263 -1.63 0.25
2.48 -6.2620001 -1.632 0.19
2.503 -6.263 -1.635 0.25999999
2.5150001 -6.2379999 -1.63 0.23999999
2.5320001 -6.2220001 -1.628 0.28
2.559 -6.2319999 -1.633 0.28
2.5699999 -6.2319999 -1.6339999 0.25999999
2.5869999 -6.217 -1.632 0.19
2.6070001 -6.21 -1.632 0.28999999
2.628 -6.2059999 -1.633 0.2
2.6429999 -6.1869998 -1.63 0.20999999
2.665 -6.1849999 -1.632 0.23999999
2.681 -6.1680002 -1.63 0.25999999
2.7 -6.1849999 -1.636 0.25
2.71 -6.1550002 -1.63 0.18000001
2.7290001 -6.1469998 -1.63 0.28999999
2.75 -6.1420002 -1.631 0.25
2.7739999 -6.1440001 -1.6339999 0.19
2.7850001 -6.1160002 -1.628 0.25999999
2.806 -6.112 -1.63 0.23999999
2.823 -6.1240001 -1.6339999 0.25
2.8340001 -6.0949998 -1.6289999 0.18000001
2.8540001 -6.0900002 -1.63 0.28999999
2.875 -6.0840001 -1.631 0.23999999
2.8929999 -6.072 -1.63 0.19
2.9119999 -6.0640001 -1.63 0.27000001
2.931 -6.0549998 -1.63 0.22
2.9349999 -6.0380001 -1.627 0.17
2.957 -6.0339999 -1.628 0.28999999
2.974 -6.0219998 -1.627 0.25
3 -6.0279999 -1.632 0.23999999
3.01 -5.9990001 -1.626 0.18000001
3.033 -5.9990001 -1.6289999 0.28999999
3.049 -5.9840002 -1.627 0.23999999
3.059 -5.9790001 -1.627 0.2
3.079 -5.973 -1.628 0.28
3.096 -5.96 -1.627 0.25
3.118 -5.9569998 -1.6289999 0.2
3.1340001 -5.9400001 -1.627 0.27000001
3.1489999 -5.9250002 -1.626 0.23
3.174 -5.927 -1.6289999 0.20999999
3.181 -5.9169998 -1.628 0.13
3.197 -5.902 -1.626 0.20999999
3.2179999 -5.8969998 -1.628 0.19
3.2379999 -5.888 -1.628 0.28
3.253 -5.8730001 -1.627 0.22
3.276 -5.8709998 -1.6289999 0.23999999
3.293 -5.8579998 -1.628 0.22
3.286 -5.8239999 -1.62 0.25999999
3.3069999 -5.8189998 -1.6210001 0.34999999
3.339 -5.8319998 -1.628 0.31
3.3540001 -5.816 -1.627 0.38999999
3.375 -5.8109999 -1.628 0.36000001
3.3889999 -5.7919998 -1.626 0.54000002
3.398 -5.7659998 -1.6210001 0.43000001
3.4130001 -5.7709999 -1.624 0.46000001
3.4260001 -5.7509999 -1.622 0.31
3.454 -5.757 -1.627 0.23999999
3.4719999 -5.7459998 -1.627 0.41
3.497 -5.7470002 -1.63 0.30000001
3.5020001 -5.7150002 -1.624 0.56999999
3.516 -5.697 -1.622 0.40000001
3.53 -5.6999998 -1.624 0.30000001
3.549 -5.6900001 -1.625 0.22
3.5699999 -5.684 -1.626 0.23
3.5869999 -5.671 -1.626 0.16
3.6099999 -5.6680002 -1.628 0.23
3.6240001 -5.652 -1.627 0.54000002
3.642 -5.6589999 -1.631 0.58999997
3.6530001 -5.638 -1.628 0.28
3.665 -5.6160002 -1.625 0.18000001
3.691 -5.618 -1.6289999 0.23999999
3.711 -5.6110001 -1.63 0.34
3.7179999 -5.5830002 -1.625 0.62
3.7360001 -5.572 -1.625 0.49000001
3.7579999 -5.566 -1.627 0.31
3.7679999 -5.5619998 -1.628 0.30000001
3.7869999 -5.553 -1.6289999 0.30000001
3.8 -5.5349998 -1.627 0.28
3.8150001 -5.52 -1.626 0.28999999
3.8429999 -5.5219998 -1.63 0.28
3.8529999 -5.5009999 -1.627 0.28
3.862 -5.4759998 -1.623 0.28999999
3.8870001 -5.493 -1.631 0.27000001
3.8940001 -5.467 -1.626 0.28
3.915 -5.4590001 -1.628 0.27000001
3.934 -5.4499998 -1.6289999 0.25
3.95 -5.4359999 -1.628 0.16
3.9690001 -5.427 -1.6289999 0.22
3.9909999 -5.421 -1.631 0.5
3.997 -5.4109998 -1.63 0.58999997
4.0139999 -5.3990002 -1.63 0.28999999
4.033 -5.3889999 -1.631 0.28
4.0380001 -5.3590002 -1.626 0.28999999
4.0570002 -5.3499999 -1.627 0.28999999
4.085 -5.3520002 -1.632 0.28999999
4.0819998 -5.3309999 -1.627 0.28
4.0970001 -5.316 -1.626 0.28999999
4.1259999 -5.3189998 -1.631 0.31
4.1339998 -5.2950001 -1.628 0.31
4.152 -5.2839999 -1.628 0.30000001
4.1719999 -5.2750001 -1.63 0.28
4.1880002 -5.2600002 -1.6289999 0.27000001
4.2030001 -5.2459998 -1.6289999 0.28
4.2150002 -5.244 -1.63 0.28
4.223 -5.2199998 -1.627 0.28
4.2459998 -5.2160001 -1.63 0.30000001
4.2690001 -5.21 -1.632 0.30000001
4.2779999 -5.1869998 -1.6289999 0.31
4.2859998 -5.1630001 -1.626 0.22
4.3039999 -5.1529999 -1.627 0.30000001
4.3099999 -5.1430001 -1.626 0.25
4.3400002 -5.1459999 -1.631 0.27000001
4.3569999 -5.1339998 -1.632 0.30000001
4.3639998 -5.1100001 -1.628 0.30000001
4.3779998 -5.0929999 -1.627 0.30000001
4.4029999 -5.0890002 -1.631 0.30000001
4.4190001 -5.0760002 -1.631 0.28
4.427 -5.0689998 -1.631 0.30000001
4.448 -5.0609999 -1.633 0.28999999
4.4549999 -5.0359998 -1.6289999 0.28
4.4759998 -5.0279999 -1.631 0.27000001
4.4899998 -5.013 -1.631 0.28
4.5040002 -4.9970002 -1.63 0.30000001
4.5139999 -4.9910002 -1.631 0.31
4.5380001 -4.987 -1.6339999 0.28999999
4.5469999 -4.9660001 -1.632 0.28999999
4.5669999 -4.9559999 -1.633 0.28
4.5840001 -4.9429998 -1.6339999 0.28999999
4.5890002 -4.9169998 -1.63 0.28
4.6040001 -4.9029999 -1.63 0.30000001
4.6149998 -4.8979998 -1.631 0.31999999
4.6220002 -4.875 -1.628 0.31
4.6479998 -4.8720002 -1.632 0.34
4.665 -4.8590002 -1.632 0.37
4.677 -4.8410001 -1.631 0.33000001
4.6939998 -4.8280001 -1.632 0.38999999
4.711 -4.816 -1.633 0.33000001
4.711 -4.8000002 -1.63 0.31
4.7350001 -4.7950001 -1.633 0.40000001
4.7449999 -4.7750001 -1.631 0.38999999
4.7600002 -4.7600002 -1.631 0.38999999
4.776 -4.7459998 -1.632 0.38
4.7930002 -4.7319999 -1.632 0.36000001
4.8119998 -4.7210002 -1.6339999 0.31999999
4.8150001 -4.71 -1.632 0.44
4.8379998 -4.7030001 -1.635 0.36000001
4.848 -4.6830001 -1.6339999 0.38
4.862 -4.6669998 -1.633 0.47
4.8850002 -4.6599998 -1.636 0.44999999
4.902 -4.6469998 -1.637 0.33000001
4.9200001 -4.6339998 -1.638 0.30000001
4.928 -4.6129999 -1.636 0.30000001
4.941 -4.6110001 -1.638 0.28999999
4.9569998 -4.5970001 -1.6390001 0.30000001
4.9720001 -4.5809999 -1.6390001 0.28
4.9770002 -4.5580001 -1.636 0.28
4.9889998 -4.539 -1.635 0.19
4.9990001 -4.52 -1.633 0.30000001
5.0019999 -4.5079999 -1.632 0.23999999
5.02 -4.4959998 -1.633 0.27000001
5.0339999 -4.48 -1.633 0.27000001
5.0469999 -4.4629998 -1.633 0.28999999
5.0619998 -4.4489999 -1.633 0.28
5.0760002 -4.4330001 -1.633 0.27000001
5.086 -4.4130001 -1.632 0.28
5.0929999 -4.4050002 -1.632 0.28999999
5.1059999 -4.3889999 -1.632 0.28999999
5.1139998 -4.368 -1.63 0.27000001
5.131 -4.3540001 -1.631 0.28999999
5.145 -4.3379998 -1.631 0.28999999
5.1539998 -4.3179998 -1.6289999 0.27000001
5.1700001 -4.3039999 -1.63 0.27000001
5.1919999 -4.309 -1.635 0.25
5.2049999 -4.2919998 -1.635 0.27000001
5.2140002 -4.2719998 -1.6339999 0.27000001
5.2280002 -4.256 -1.6339999 0.30000001
5.244 -4.2420001 -1.635 0.30000001
5.2480001 -4.2179999 -1.632 0.30000001
5.2659998 -4.2049999 -1.633 0.25999999
5.2729998 -4.197 -1.633 0.27000001
5.2800002 -4.1750002 -1.631 0.27000001
5.3130002 -4.1739998 -1.638 0.27000001
5.3200002 -4.1529999 -1.636 0.28
5.342 -4.1430001 -1.6390001 0.28999999
5.3460002 -4.119 -1.636 0.30000001
5.348 -4.0939999 -1.632 0.28999999
5.3540001 -4.086 -1.632 0.27000001
5.3779998 -4.0770001 -1.636 0.25999999
5.3889999 -4.059 -1.635 0.28
5.4029999 -4.0440001 -1.636 0.25
5.4239998 -4.0320001 -1.638 0.25
5.427 -4.0079999 -1.635 0.28
5.4460001 -3.9960001 -1.637 0.28999999
5.4460001 -3.983 -1.635 0.28
5.4629998 -3.9690001 -1.637 0.28
5.4819999 -3.9560001 -1.6390001 0.28
5.4910002 -3.937 -1.638 0.28
5.4889998 -3.9089999 -1.633 0.2
5.5110002 -3.8989999 -1.636 0.27000001
5.5279999 -3.885 -1.638 0.25
5.5229998 -3.868 -1.6339999 0.25999999
5.5450001 -3.858 -1.637 0.19
5.5619998 -3.8440001 -1.6390001 0.28
5.566 -3.8210001 -1.636 0.25
5.5819998 -3.806 -1.638 0.25999999
5.599 -3.7920001 -1.6390001 0.25999999
5.6059999 -3.7709999 -1.638 0.28
5.6069999 -3.7590001 -1.636 0.28
5.6290002 -3.7479999 -1.6390001 0.2
5.6259999 -3.721 -1.635 0.28
5.6389999 -3.704 -1.635 0.25
5.6690001 -3.698 -1.641 0.25999999
5.6880002 -3.6849999 -1.643 0.23
5.6849999 -3.658 -1.6390001 0.18000001
5.6859999 -3.6459999 -1.637 0.28
5.6880002 -3.622 -1.6339999 0.25
5.7199998 -3.618 -1.641 0.25999999
5.723 -3.5940001 -1.638 0.22
5.7280002 -3.572 -1.636 0.28
5.7389998 -3.5539999 -1.636 0.25
5.7540002 -3.5380001 -1.637 0.27000001
5.7610002 -3.53 -1.638 0.28999999
5.7649999 -3.5079999 -1.636 0.27000001
5.7810001 -3.493 -1.637 0.27000001
5.7870002 -3.4719999 -1.636 0.27000001
5.802 -3.4549999 -1.637 0.28
5.8210001 -3.4419999 -1.6390001 0.27000001
5.8200002 -3.4170001 -1.636 0.25999999
5.829 -3.4100001 -1.637 0.27000001
5.8530002 -3.3989999 -1.641 0.23999999
5.8449998 -3.3699999 -1.635 0.18000001
5.8639998 -3.3570001 -1.638 0.28999999
5.8790002 -3.3410001 -1.6390001 0.25
5.8850002 -3.3199999 -1.638 0.27000001
5.888 -3.2969999 -1.636 0.27000001
5.8990002 -3.2909999 -1.637 0.28
5.901 -3.2679999 -1.635 0.28999999
5.928 -3.2590001 -1.64 0.28999999
5.9380002 -3.24 -1.64 0.27000001
5.941 -3.2179999 -1.638 0.25999999
5.96 -3.204 -1.64 0.28
5.9699998 -3.1849999 -1.64 0.28
5.9629998 -3.1689999 -1.637 0.28999999
5.9809999 -3.155 -1.6390001 0.27000001
5.9840002 -3.132 -1.637 0.27000001
5.9889998 -3.1110001 -1.636 0.27000001
6.0159998 -3.1010001 -1.641 0.28999999
6.0120001 -3.075 -1.637 0.28
6.0250001 -3.0580001 -1.638 0.28
6.033 -3.05 -1.6390001 0.28
6.053 -3.036 -1.642 0.27000001
6.0609999 -3.016 -1.641 0.28999999
6.0739999 -2.9990001 -1.642 0.28
6.0819998 -2.9790001 -1.642 0.28999999
6.0840001 -2.957 -1.64 0.30000001
6.1020002 -2.9419999 -1.642 0.25
6.1100001 -2.934 -1.643 0.28
6.1020002 -2.9059999 -1.638 0.28999999
6.1139998 -2.8889999 -1.6390001 0.27000001
6.1300001 -2.8729999 -1.641 0.28
6.1360002 -2.852 -1.64 0.28
6.1609998 -2.8399999 -1.645 0.25
6.1659999 -2.819 -1.6440001 0.27000001
6.158 -2.8039999 -1.64 0.28999999
6.1700001 -2.786 -1.641 0.28999999
6.1880002 -2.77 -1.6440001 0.27000001
6.1999998 -2.753 -1.645 0.31999999
6.2119999 -2.7349999 -1.646 0.30000001
6.2010002 -2.707 -1.64 0.28999999
6.2259998 -2.694 -1.645 0.25999999
6.2179999 -2.6789999 -1.641 0.30000001
6.2220001 -2.658 -1.64 0.28999999
6.2360001 -2.641 -1.642 0.27000001
6.243 -2.6199999 -1.641 0.28999999
6.2470002 -2.599 -1.64 0.28
6.2620001 -2.582 -1.642 0.27000001
6.2670002 -2.5610001 -1.641 0.28
6.2870002 -2.5580001 -1.646 0.25999999
6.2839999 -2.5339999 -1.643 0.30000001
6.2919998 -2.5139999 -1.643 0.28999999
6.3000002 -2.494 -1.643 0.28999999
6.3119998 -2.4760001 -1.6440001 0.27000001
6.3210001 -2.457 -1.6440001 0.28999999
6.3340001 -2.4389999 -1.646 0.28
6.336 -2.428 -1.645 0.25999999
6.3579998 -2.414 -1.649 0.27000001
6.355 -2.3900001 -1.646 0.18000001
6.3639998 -2.3710001 -1.647 0.28999999
6.3639998 -2.348 -1.645 0.25
6.3740001 -2.329 -1.645 0.28
6.3899999 -2.312 -1.648 0.28999999
6.3899999 -2.3 -1.647 0.28
6.401 -2.2820001 -1.648 0.27000001
6.4130001 -2.2639999 -1.649 0.25999999
6.4239998 -2.2449999 -1.65 0.25999999
6.4239998 -2.2219999 -1.648 0.28999999
6.4359999 -2.204 -1.65 0.25999999
6.4520001 -2.187 -1.652 0.25
6.454 -2.1760001 -1.652 0.28999999
6.4569998 -2.154 -1.651 0.28
6.46 -2.1329999 -1.65 0.28
6.4780002 -2.1159999 -1.653 0.25999999
6.4790001 -2.0940001 -1.651 0.18000001
6.4949999 -2.0769999 -1.654 0.28999999
6.5029998 -2.0569999 -1.654 0.25
6.5120001 -2.0480001 -1.656 0.23999999
6.5029998 -2.023 -1.652 0.18000001
6.5170002 -2.0050001 -1.654 0.31999999
6.5180001 -1.983 -1.652 0.25
6.533 -1.965 -1.655 0.27000001
6.5469999 -1.947 -1.6569999 0.27000001
6.546 -1.9349999 -1.656 0.28
6.5500002 -1.914 -1.655 0.25
6.5640001 -1.896 -1.6569999 0.27000001
6.5640001 -1.874 -1.656 0.27000001
6.5760002 -1.855 -1.6569999 0.28999999
6.5780001 -1.8329999 -1.656 0.25
6.5960002 -1.816 -1.66 0.23999999
6.599 -1.806 -1.66 0.28999999
6.5970001 -1.783 -1.658 0.2
6.6100001 -1.7640001 -1.66 0.28
6.612 -1.742 -1.659 0.25
6.6269999 -1.724 -1.6619999 0.27000001
6.625 -1.701 -1.659 0.25999999
6.638 -1.682 -1.6619999 0.28
6.6589999 -1.677 -1.6670001 0.28
6.6440001 -1.65 -1.661 0.28
6.6490002 -1.63 -1.661 0.28
6.6690001 -1.612 -1.665 0.27000001
6.6609998 -1.5880001 -1.6619999 0.28999999
6.6750002 -1.5700001 -1.664 0.27000001
6.691 -1.551 -1.6670001 0.30000001
6.6830001 -1.538 -1.664 0.28999999
6.684 -1.516 -1.663 0.28999999
6.6999998 -1.498 -1.666 0.27000001
6.6989999 -1.475 -1.665 0.28999999
6.7030001 -1.454 -1.665 0.30000001
6.7150002 -1.4349999 -1.6670001 0.28
6.7010002 -1.41 -1.6619999 0.31999999
6.7010002 -1.388 -1.66 0.28
6.7360001 -1.3839999 -1.669 0.23
6.7189999 -1.359 -1.664 0.25
6.7080002 -1.335 -1.659 0.34
6.7259998 -1.316 -1.663 0.17
6.724 -1.294 -1.6619999 0.30000001
6.717 -1.271 -1.658 0.25
6.7399998 -1.253 -1.664 0.28
6.7249999 -1.239 -1.659 0.25999999
6.7480001 -1.222 -1.664 0.23
6.7379999 -1.198 -1.66 0.18000001
6.7420001 -1.177 -1.66 0.28
6.7449999 -1.156 -1.66 0.25
6.7589998 -1.136 -1.663 0.2
6.7579999 -1.114 -1.6619999 0.25999999
6.7639999 -1.104 -1.663 0.25
6.777 -1.084 -1.666 0.19
6.7709999 -1.062 -1.663 0.27000001
6.7740002 -1.04 -1.663 0.23
6.8039999 -1.023 -1.67 0.18000001
6.7979999 -1 -1.668 0.27000001
6.8119998 -0.98100001 -1.671 0.18000001
6.8179998 -0.97100002 -1.6720001 0.25
6.809 -0.94800001 -1.669 0.23
6.8309999 -0.92900002 -1.674 0.18000001
6.8379998 -0.90799999 -1.675 0.27000001
6.8369999 -0.88599998 -1.674 0.2
6.8280001 -0.86299998 -1.671 0.25
6.8439999 -0.84299999 -1.674 0.23
6.849 -0.833 -1.675 0.2
6.8439999 -0.81 -1.673 0.25
6.8470001 -0.78899997 -1.673 0.22
6.8610001 -0.76899999 -1.676 0.23
6.8520002 -0.74599999 -1.673 0.12
6.8540001 -0.72399998 -1.673 0.2
6.8639998 -0.704 -1.675 0.19
6.8569999 -0.69199997 -1.673 0.27000001
6.8540001 -0.67000002 -1.6720001 0.23999999
6.842 -0.64700001 -1.668 0.11
6.8670001 -0.62800002 -1.674 0.18000001
6.8559999 -0.60500002 -1.671 0.050000001
6.8579998 -0.583 -1.671 0.15000001
6.8610001 -0.56199998 -1.671 0.11
6.8530002 -0.55000001 -1.669 0.19
6.8579998 -0.52899998 -1.67 0.11
6.8579998 -0.50800002 -1.669 0.19
6.875 -0.48699999 -1.673 0.11
6.8720002 -0.465 -1.6720001 0.16
6.8579998 -0.44299999 -1.668 0.050000001
6.8660002 -0.421 -1.67 0.18000001
6.862 -0.41 -1.669 0.11
6.8829999 -0.38999999 -1.674 0.17
6.855 -0.36700001 -1.666 0.050000001
6.8639998 -0.34599999 -1.668 0.17
6.869 -0.324 -1.669 0.2
6.8759999 -0.303 -1.671 0.1
6.8649998 -0.292 -1.668 0.18000001
6.8730001 -0.27000001 -1.67 0.19
6.8600001 -0.248 -1.666 0.039999999
6.869 -0.227 -1.668 0.16
6.8460002 -0.205 -1.6619999 0.050000001
6.8639998 -0.184 -1.6670001 0.15000001
6.875 -0.162 -1.669 0.2
6.8920002 -0.152 -1.674 0.16
6.8850002 -0.13 -1.6720001 0.23
6.8829999 -0.108 -1.671 0.2
6.8759999 -0.086999997 -1.669 0.12
6.888 -0.064999998 -1.6720001 0.17
6.8759999 -0.043000001 -1.669 0.23
6.8800001 -0.022 -1.67 0.17
6.888 -0.011 -1.6720001 0.23
6.6630001 0.0070000002 -1.687 0.22
6.6739998 0.028999999 -1.6900001 0.20999999
6.6589999 0.048999999 -1.686 0.12
6.6550002 0.07 -1.6849999 0.20999999
6.664 0.090999998 -1.688 0.25999999
6.6560001 0.102 -1.686 0.25999999
6.664 0.123 -1.688 0.19
6.6609998 0.14399999 -1.687 0.25999999
6.6490002 0.164 -1.684 0.23999999
6.6560001 0.185 -1.686 0.18000001
6.658 0.206 -1.687 0.25999999
6.6570001 0.227 -1.687 0.25
6.6599998 0.23800001 -1.688 0.19
6.6599998 0.259 -1.688 0.27000001
6.6570001 0.28 -1.687 0.23
6.6560001 0.30000001 -1.687 0.23
6.651 0.32100001 -1.686 0.19
6.652 0.34200001 -1.687 0.30000001
6.6630001 0.36399999 -1.6900001 0.23999999
6.658 0.37400001 -1.689 0.27000001
6.6430001 0.39399999 -1.6849999 0.19
6.6539998 0.41600001 -1.688 0.14
6.652 0.43700001 -1.688 0.20999999
6.6409998 0.45699999 -1.686 0.27000001
6.6459999 0.47799999 -1.687 0.25999999
6.6500001 0.49900001 -1.689 0.2
6.6389999 0.51899999 -1.686 0.27000001
6.6360002 0.52999997 -1.686 0.22
6.6589999 0.55299997 -1.693 0.28999999
6.6459999 0.57300001 -1.689 0.25999999
6.6459999 0.59399998 -1.6900001 0.25999999
6.6500001 0.61500001 -1.692 0.23
6.6399999 0.63499999 -1.689 0.20999999
6.6350002 0.64499998 -1.688 0.27000001
6.631 0.66600001 -1.688 0.23
6.6350002 0.68699998 -1.689 0.23
6.6399999 0.70899999 -1.692 0.25
6.6360002 0.73000002 -1.691 0.19
6.638 0.75099999 -1.692 0.25
6.6389999 0.77200001 -1.693 0.19
6.6269999 0.78100002 -1.6900001 0.25
6.6389999 0.80400002 -1.694 0.19
6.6350002 0.82499999 -1.694 0.25
6.6339998 0.84600002 -1.694 0.1
6.6220002 0.86500001 -1.692 0.2
6.6170001 0.88599998 -1.691 0.2
6.6389999 0.91000003 -1.698 0.20999999
6.6230001 0.91799998 -1.694 0.22
6.6329999 0.94099998 -1.697 0.2
6.6279998 0.96200001 -1.697 0.22
6.6230001 0.98199999 -1.696 0.22
6.6139998 1.002 -1.6950001 0.2
6.6069999 1.022 -1.694 0.1
6.5999999 1.0420001 -1.693 0.2
6.6100001 1.0650001 -1.696 0.18000001
6.612 1.076 -1.697 0.27000001
6.605 1.097 -1.696 0.2
6.6040001 1.118 -1.697 0.23
6.5999999 1.138 -1.697 0.18000001
6.6020002 1.16 -1.698 0.23
6.5949998 1.1799999 -1.697 0.18000001
6.5999999 1.2029999 -1.7 0.25
6.5929999 1.212 -1.698 0.19
6.5830002 1.232 -1.697 0.25
6.5960002 1.255 -1.701 0.16
6.5869999 1.275 -1.7 0.23999999
6.5830002 1.296 -1.7 0.19
6.5770001 1.316 -1.699 0.23
6.579 1.327 -1.7 0.2
6.5669999 1.346 -1.698 0.12
6.553 1.365 -1.696 0.20999999
6.566 1.3890001 -1.7 0.23
6.5560002 1.408 -1.699 0.23
6.553 1.4299999 -1.699 0.22
6.5370002 1.448 -1.696 0.12
6.5289998 1.457 -1.6950001 0.20999999
6.5419998 1.4809999 -1.699 0.23999999
6.5240002 1.498 -1.696 0.12
6.5229998 1.52 -1.697 0.20999999
6.527 1.543 -1.699 0.25
6.5110002 1.5599999 -1.696 0.17
6.5100002 1.582 -1.697 0.28999999
6.5029998 1.602 -1.697 0.25
6.5139999 1.615 -1.7 0.23999999
6.4920001 1.631 -1.696 0.19
6.4959998 1.654 -1.698 0.28999999
6.4910002 1.674 -1.698 0.23
6.4860001 1.6950001 -1.698 0.27000001
6.4840002 1.716 -1.699 0.25999999
6.4780002 1.737 -1.699 0.27000001
6.4720001 1.7460001 -1.698 0.25999999
6.4809999 1.77 -1.7029999 0.28
6.4790001 1.7920001 -1.704 0.25
6.4720001 1.811 -1.7029999 0.27000001
6.4699998 1.8329999 -1.704 0.27000001
6.4460001 1.848 -1.699 0.2
6.4489999 1.8710001 -1.701 0.30000001
6.4419999 1.88 -1.7 0.23999999
6.4310002 1.898 -1.699 0
6.408 1.913 -1.694 0.029999999
6.4169998 1.938 -1.698 0.2
6.4109998 1.9579999 -1.698 0.27000001
6.4070001 1.979 -1.699 0.27000001
6.4000001 1.999 -1.699 0.25999999
6.3990002 2.01 -1.699 0.25999999
6.3850002 2.027 -1.697 0.25999999
6.3920002 2.052 -1.701 0.23
6.3779998 2.069 -1.699 0.23
6.375 2.0910001 -1.7 0.28
6.3740001 2.112 -1.701 0.25
6.3600001 2.1300001 -1.699 0.25
6.3660002 2.1429999 -1.702 0.23999999
6.3390002 2.1559999 -1.696 0.18000001
6.3390002 2.1789999 -1.698 0.28
6.342 2.2019999 -1.701 0.25
6.3309999 2.22 -1.7 0.2
6.3280001 2.2420001 -1.701 0.27000001
6.3080001 2.257 -1.697 0.25
6.3099999 2.2690001 -1.699 0.20999999
6.3039999 2.289 -1.699 0.27000001
6.2989998 2.3099999 -1.7 0.23999999
6.2859998 2.3269999 -1.698 0.2
6.277 2.346 -1.698 0.25999999
6.2659998 2.365 -1.697 0.25
6.2620001 2.3859999 -1.698 0.16
6.2550001 2.3940001 -1.697 0.28999999
6.2620001 2.4189999 -1.701 0.23
6.2420001 2.434 -1.697 0.19
6.2379999 2.4549999 -1.698 0.27000001
6.23 2.4749999 -1.698 0.23
6.2199998 2.494 -1.698 0.18000001
6.2160001 2.5150001 -1.699 0.27000001
6.2150002 2.526 -1.7 0.23
6.1989999 2.5420001 -1.697 0.19
6.2010002 2.566 -1.7 0.25999999
6.1900001 2.5840001 -1.699 0.22
6.1830001 2.6040001 -1.7 0.12
6.1729999 2.622 -1.699 0.18000001
6.1609998 2.6400001 -1.698 0.23
6.1659999 2.654 -1.701 0.18000001
6.158 2.6730001 -1.701 0.23
6.1529999 2.694 -1.702 0.19
6.1389999 2.711 -1.7 0.23
6.1160002 2.724 -1.696 0.23
6.125 2.7509999 -1.701 0.11
6.119 2.76 -1.701 0.18000001
6.118 2.7820001 -1.7029999 0.23
6.1040001 2.799 -1.701 0.19
6.105 2.823 -1.705 0.20999999
6.079 2.8340001 -1.699 0.19
6.072 2.8540001 -1.7 0.22
6.073 2.878 -1.7029999 0.1
6.0549998 2.881 -1.699 0.19
6.0489998 2.902 -1.7 0.1
6.0450001 2.9230001 -1.701 0.17
6.0339999 2.941 -1.701 0.20999999
6.0339999 2.9649999 -1.704 0.18000001
6.0229998 2.983 -1.7029999 0.23999999
5.9980001 2.994 -1.698 0.18000001
5.9970002 3.017 -1.701 0.23
6.0019999 3.0320001 -1.704 0.18000001
5.9879999 3.0480001 -1.7029999 0.23
5.9780002 3.0669999 -1.7029999 0.18000001
5.9770002 3.0899999 -1.705 0.25
5.9619999 3.1059999 -1.704 0.22
5.9400001 3.118 -1.7 0.17
5.941 3.142 -1.7029999 0.27000001
5.9460001 3.1570001 -1.706 0.22
5.928 3.171 -1.704 0.12
5.9180002 3.1900001 -1.704 0.20999999
5.8940001 3.201 -1.699 0.18000001
5.8920002 3.224 -1.702 0.28
5.8790002 3.2409999 -1.701 0.23
5.8720002 3.2609999 -1.702 0.2
5.8720002 3.273 -1.704 0.23999999
5.862 3.2920001 -1.704 0.20999999
5.8400002 3.303 -1.7 0.19
5.8390002 3.3269999 -1.7029999 0.27000001
5.829 3.346 -1.7029999 0.23
5.8080001 3.358 -1.7 0.18000001
5.803 3.3789999 -1.701 0.25999999
5.7909999 3.385 -1.699 0.23
5.777 3.401 -1.698 0.18000001
5.7740002 3.424 -1.701 0.27000001
5.763 3.4419999 -1.701 0.23
5.7540002 3.461 -1.701 0.2
5.743 3.4790001 -1.701 0.27000001
5.7360001 3.487 -1.701 0.25
5.7399998 3.5139999 -1.706 0.23999999
5.7030001 3.516 -1.697 0.18000001
5.7080002 3.5439999 -1.7029999 0.28999999
5.6939998 3.5599999 -1.701 0.23
5.684 3.579 -1.702 0.25999999
5.6680002 3.5940001 -1.7 0.19
5.6659999 3.618 -1.704 0.28
5.664 3.6289999 -1.705 0.23999999
5.6479998 3.6429999 -1.7029999 0.25999999
5.6300001 3.6570001 -1.701 0.19
5.6290002 3.6819999 -1.705 0.27000001
5.6290002 3.707 -1.7079999 0.20999999
5.5999999 3.7130001 -1.7029999 0.18000001
5.5960002 3.7360001 -1.705 0.28999999
5.585 3.7409999 -1.704 0.22
5.5770001 3.7609999 -1.705 0.19
5.5679998 3.7809999 -1.706 0.14
5.5430002 3.789 -1.701 0.20999999
5.5349998 3.809 -1.7029999 0.2
5.5349998 3.835 -1.707 0.28
5.5170002 3.848 -1.705 0.23999999
5.5159998 3.8599999 -1.706 0.22
5.5019999 3.8759999 -1.706 0.23999999
5.4850001 3.8900001 -1.704 0.22
5.473 3.9070001 -1.704 0.16
5.4699998 3.931 -1.707 0.28
5.447 3.941 -1.704 0.22
5.4400001 3.9619999 -1.706 0.20999999
5.4429998 3.9779999 -1.709 0.13
5.4120002 3.9809999 -1.7029999 0.20999999
5.4200001 4.013 -1.709 0.17
5.4000001 4.0240002 -1.707 0.27000001
5.375 4.0320001 -1.7029999 0.19
5.3790002 4.0619998 -1.7079999 0.25
5.3660002 4.0780001 -1.7079999 0.19
5.3660002 4.092 -1.71 0.23
5.3509998 4.1069999 -1.71 0.18000001
5.3400002 4.125 -1.71 0.23999999
5.3299999 4.1440001 -1.711 0.2
5.3150001 4.1599998 -1.711 0.22
5.3049998 4.1789999 -1.712 0.19
5.2909999 4.1810002 -1.709 0.22
5.2719998 4.1929998 -1.707 0.18000001
5.2719998 4.2210002 -1.712 0.23999999
5.25 4.23 -1.709 0.090000004
5.237 4.2459998 -1.709 0.19
5.237 4.2740002 -1.714 0.11
5.2129998 4.2810001 -1.71 0.2
5.2049999 4.2880001 -1.709 0.18000001
5.2049999 4.316 -1.714 0.25999999
5.191 4.3319998 -1.714 0.19
5.1729999 4.3449998 -1.712 0.25
5.1609998 4.362 -1.7130001 0.2
5.1479998 4.3800001 -1.714 0.12
5.132 4.3930001 -1.712 0.19
5.118 4.4089999 -1.712 0.20999999
5.118 4.4239998 -1.715 0.23999999
5.1030002 4.4390001 -1.715 0.19
5.092 4.4569998 -1.716 0.23
5.079 4.474 -1.716 0.19
5.0619998 4.4879999 -1.715 0.12
5.0450001 4.5009999 -1.714 0.18000001
5.0409999 4.526 -1.7180001 0.22
5.0209999 4.5219998 -1.7130001 0.23
5.0100002 4.5409999 -1.714 0.18000001
5 4.5599999 -1.716 0.25999999
4.9840002 4.5749998 -1.715 0.17
4.9699998 4.5900002 -1.715 0.25
4.9510002 4.6020002 -1.714 0.2
4.9429998 4.6240001 -1.716 0.25
4.9260001 4.6220002 -1.712 0.22
4.9219999 4.6469998 -1.716 0.17
4.9070001 4.6630001 -1.716 0.27000001
4.881 4.6669998 -1.712 0.23
4.8730001 4.6890001 -1.715 0.19
4.8639998 4.71 -1.717 0.25999999
4.8449998 4.7210002 -1.715 0.22
4.8270001 4.7179999 -1.711 0.19
4.8340001 4.7550001 -1.719 0.25999999
4.8049998 4.756 -1.714 0.23
4.7979999 4.7800002 -1.717 0.2
4.7789998 4.7909999 -1.716 0.27000001
4.7620001 4.803 -1.715 0.23999999
4.7519999 4.823 -1.717 0.2
4.75 4.836 -1.719 0.23
4.7319999 4.848 -1.7180001 0.22
4.7069998 4.8540001 -1.714 0.18000001
4.6960001 4.8730001 -1.716 0.28999999
4.671 4.8769999 -1.712 0.23999999
4.665 4.902 -1.716 0.25999999
4.6459999 4.9120002 -1.714 0.28
4.6389999 4.921 -1.715 0.27000001
4.6360002 4.948 -1.719 0.25999999
4.6160002 4.9590001 -1.7180001 0.25999999
4.5970001 4.9689999 -1.716 0.25999999
4.5890002 4.9920001 -1.719 0.28
4.5630002 4.9949999 -1.715 0.27000001
4.5479999 5.0100002 -1.716 0.25
4.546 5.0229998 -1.7180001 0.28999999
4.5359998 5.0450001 -1.72 0.25999999
4.5100002 5.0469999 -1.716 0.28999999
4.4959998 5.0630002 -1.717 0.28999999
4.4990001 5.099 -1.725 0.25
4.4619999 5.0900002 -1.716 0.28999999
4.46 5.1199999 -1.722 0.28999999
4.4520001 5.1269999 -1.722 0.25
4.4359999 5.1409998 -1.722 0.28
4.427 5.164 -1.725 0.28
4.4060001 5.1719999 -1.723 0.28999999
4.3790002 5.1719999 -1.7180001 0.28999999
4.3649998 5.1890001 -1.719 0.27000001
4.3499999 5.204 -1.72 0.25999999
4.349 5.2199998 -1.723 0.27000001
4.3239999 5.223 -1.719 0.28999999
4.3109999 5.2410002 -1.721 0.28999999
4.2919998 5.2509999 -1.72 0.27000001
4.2859998 5.277 -1.724 0.27000001
4.2620001 5.2810001 -1.721 0.30000001
4.2459998 5.296 -1.721 0.28999999
4.2420001 5.3070002 -1.723 0.27000001
4.2280002 5.3249998 -1.725 0.25999999
4.1989999 5.322 -1.719 0.31
4.1869998 5.3410001 -1.721 0.28999999
4.1760001 5.362 -1.723 0.27000001
4.1589999 5.375 -1.723 0.28
4.1420002 5.388 -1.723 0.28999999
4.1269999 5.4039998 -1.725 0.27000001
4.1110001 5.4000001 -1.721 0.28999999
4.098 5.4190001 -1.723 0.30000001
4.0840001 5.4349999 -1.724 0.31999999
4.0640001 5.4439998 -1.723 0.27000001
4.053 5.4650002 -1.726 0.28999999
4.0320001 5.473 -1.724 0.30000001
4.013 5.4819999 -1.723 0.31999999
4 5.4819999 -1.721 0.30000001
3.9860001 5.5 -1.722 0.28999999
3.971 5.5149999 -1.723 0.30000001
3.9619999 5.54 -1.728 0.34999999
3.9400001 5.5469999 -1.726 0.30000001
3.9189999 5.553 -1.723 0.27000001
3.892 5.552 -1.719 0.25
3.8770001 5.5489998 -1.716 0.28999999
3.8559999 5.5560002 -1.715 0.37
3.8369999 5.5650001 -1.714 0.31999999
3.813 5.5669999 -1.71 0.31999999
3.7839999 5.5630002 -1.705 0.34
3.7609999 5.5669999 -1.7029999 0.37
3.7349999 5.566 -1.698 0.31
3.723 5.5669999 -1.697 0.31999999
3.698 5.5679998 -1.693 0.33000001
3.678 5.5739999 -1.692 0.38
3.6500001 5.5700002 -1.686 0.31
3.6289999 5.5760002 -1.6849999 0.31999999
3.6010001 5.5710001 -1.679 0.37
3.5780001 5.5749998 -1.677 0.31
3.569 5.579 -1.676 0.36000001
3.54 5.572 -1.671 0.28999999
3.5150001 5.5710001 -1.6670001 0.36000001
3.4960001 5.5809999 -1.666 0.34
3.474 5.5830002 -1.664 0.34
3.45 5.5840001 -1.661 0.34
3.424 5.5799999 -1.656 0.33000001
3.4130001 5.5830002 -1.655 0.31
3.385 5.5770001 -1.65 0.33000001
3.3670001 5.586 -1.649 0.33000001
3.3429999 5.586 -1.646 0.34
3.319 5.585 -1.642 0.33000001
3.296 5.585 -1.6390001 0.31999999
3.2750001 5.5910001 -1.638 0.31999999
3.257 5.579 -1.632 0.31999999
3.2379999 5.5879998 -1.632 0.31
3.211 5.5809999 -1.627 0.31999999
3.1949999 5.5949998 -1.628 0.33000001
3.1670001 5.586 -1.622 0.30000001
3.1530001 5.6009998 -1.623 0.34
3.122 5.5869999 -1.6160001 0.33000001
3.1110001 5.5890002 -1.615 0.28999999
3.092 5.5949998 -1.614 0.33000001
3.0710001 5.598 -1.612 0.31999999
3.0469999 5.5960002 -1.608 0.31999999
3.02 5.5879998 -1.603 0.28999999
3 5.5929999 -1.601 0.34
2.98 5.599 -1.6 0.31
2.9690001 5.598 -1.599 0.33000001
2.947 5.599 -1.596 0.31
2.9230001 5.5960002 -1.592 0.27000001
2.9000001 5.5949998 -1.589 0.36000001
2.885 5.6090002 -1.591 0.33000001
2.8640001 5.6110001 -1.589 0.30000001
2.8510001 5.6290002 -1.591 0.30000001
2.8299999 5.6329999 -1.59 0.28999999
2.8199999 5.6339998 -1.589 0.30000001
2.8069999 5.6529999 -1.592 0.25
2.7880001 5.6599998 -1.591 0.27000001
2.7720001 5.6700001 -1.592 0.30000001
2.7520001 5.6760001 -1.591 0.31
2.737 5.6890001 -1.592 0.28999999
2.717 5.6950002 -1.591 0.30000001
2.7079999 5.6989999 -1.591 0.30000001
2.6889999 5.704 -1.59 0.28999999
2.6719999 5.7140002 -1.591 0.30000001
2.654 5.7220001 -1.591 0.28
2.6370001 5.7340002 -1.592 0.28999999
2.615 5.7340002 -1.589 0.28999999
2.602 5.7519999 -1.592 0.28999999
2.5940001 5.7600002 -1.594 0.28
2.573 5.7610002 -1.591 0.27000001
2.552 5.7620001 -1.589 0.30000001
2.5350001 5.7740002 -1.59 0.27000001
2.516 5.7779999 -1.589 0.27000001
2.4949999 5.7800002 -1.5880001 0.16
2.4760001 5.7849998 -1.587 0.28999999
2.4660001 5.7870002 -1.586 0.25
2.45 5.8000002 -1.5880001 0.2
2.4300001 5.8039999 -1.587 0.28
2.4089999 5.8039999 -1.585 0.25
2.3940001 5.8210001 -1.587 0.25999999
2.3740001 5.823 -1.586 0.25999999
2.358 5.836 -1.587 0.27000001
2.3510001 5.8470001 -1.589 0.23999999
2.336 5.8610001 -1.591 0.28
2.306 5.8400002 -1.5829999 0.2
2.293 5.8610001 -1.587 0.30000001
2.2750001 5.869 -1.587 0.25
2.2609999 5.888 -1.591 0.25
2.2409999 5.8899999 -1.589 0.28999999
2.2309999 5.8920002 -1.589 0.28
2.214 5.902 -1.59 0.28999999
2.1900001 5.8969998 -1.586 0.27000001
2.177 5.9159999 -1.59 0.25
2.158 5.9229999 -1.59 0.30000001
2.138 5.9260001 -1.589 0.27000001
2.1210001 5.9359999 -1.59 0.28999999
2.0999999 5.9380002 -1.5880001 0.28999999
2.089 5.9369998 -1.587 0.28999999
2.0780001 5.9660001 -1.594 0.25999999
2.0599999 5.9720001 -1.594 0.30000001
2.0409999 5.98 -1.594 0.25999999
2.017 5.9699998 -1.589 0.30000001
2.006 5.9990001 -1.596 0.27000001
1.99 6.0139999 -1.598 0.28
1.974 5.9970002 -1.592 0.30000001
1.962 6.0250001 -1.599 0.30000001
1.9400001 6.02 -1.596 0.30000001
1.9220001 6.0300002 -1.597 0.28999999
1.902 6.0320001 -1.596 0.28999999
1.881 6.033 -1.594 0.28999999
1.858 6.026 -1.59 0.27000001
1.855 6.0510001 -1.597 0.25
1.8329999 6.0440001 -1.5930001 0.30000001
1.8150001 6.0549998 -1.595 0.25
1.798 6.066 -1.596 0.28
1.772 6.0479999 -1.589 0.30000001
1.752 6.0500002 -1.5880001 0.28999999
1.7359999 6.0679998 -1.592 0.28999999
1.727 6.073 -1.592 0.28999999
1.707 6.072 -1.591 0.27000001
1.691 6.0890002 -1.594 0.28
1.664 6.066 -1.586 0.30000001
1.646 6.0770001 -1.5880001 0.27000001
1.632 6.1009998 -1.5930001 0.25999999
1.613 6.1079998 -1.594 0.27000001
1.6 6.0929999 -1.589 0.28
1.581 6.0999999 -1.589 0.28
1.563 6.1110001 -1.591 0.28999999
1.538 6.0929999 -1.585 0.27000001
1.521 6.1069999 -1.587 0.31
1.502 6.112 -1.587 0.28
1.482 6.1129999 -1.586 0.28999999
1.474 6.1230001 -1.5880001 0.25
1.456 6.1290002 -1.589 0.30000001
1.431 6.1100001 -1.582 0.27000001
1.418 6.1420002 -1.59 0.25
1.399 6.1490002 -1.59 0.31999999
1.377 6.1420002 -1.587 0.23
1.36 6.1550002 -1.59 0.34999999
1.347 6.1440001 -1.586 0.28
1.3279999 6.1500001 -1.587 0.27000001
1.3099999 6.1599998 -1.5880001 0.28999999
1.2920001 6.1700001 -1.59 0.25999999
1.273 6.1739998 -1.59 0.28
1.252 6.1700001 -1.5880001 0.25999999
1.235 6.1859999 -1.591 0.28999999
1.2130001 6.1799998 -1.5880001 0.25999999
1.207 6.1989999 -1.5930001 0.23
1.186 6.1950002 -1.591 0.28999999
1.166 6.1929998 -1.589 0.28999999
1.148 6.2059999 -1.592 0.27000001
1.128 6.21 -1.592 0.25
1.107 6.204 -1.589 0.28999999
1.092 6.2340002 -1.597 0.25
1.081 6.2259998 -1.594 0.30000001
1.059 6.2179999 -1.591 0.28
1.0420001 6.2350001 -1.595 0.25
1.023 6.2420001 -1.596 0.31999999
1.001 6.2319999 -1.592 0.27000001
0.98299998 6.2420001 -1.594 0.27000001
0.96200001 6.2399998 -1.592 0.28999999
0.95499998 6.2550001 -1.596 0.25999999
0.93400002 6.2480001 -1.594 0.30000001
0.912 6.237 -1.59 0.28
0.89300001 6.2420001 -1.59 0.28999999
0.87400001 6.2529998 -1.592 0.28
0.85399997 6.2529998 -1.592 0.23
0.81400001 6.0970001 -1.548 0.30000001
0.80400002 6.0970001 -1.548 0.34
0.78399998 6.0879998 -1.545 0.30000001
0.78500003 6.2610002 -1.591 0.25
0.76499999 6.257 -1.59 0.17
0.74400002 6.25 -1.587 0.30000001
0.72500002 6.2579999 -1.589 0.25
0.70599997 6.2680001 -1.591 0.25999999
0.69599998 6.2610002 -1.589 0.19
0.67500001 6.2600002 -1.5880001 0.30000001
0.65700001 6.277 -1.592 0.25
0.63700002 6.277 -1.591 0.28999999
0.61799997 6.2810001 -1.592 0.28
0.59799999 6.2789998 -1.591 0.28999999
0.57999998 6.302 -1.597 0.27000001
0.56 6.302 -1.596 0.28999999
0.54900002 6.2930002 -1.594 0.31999999
0.52899998 6.2950001 -1.594 0.28999999
0.50999999 6.2989998 -1.594 0.28999999
0.491 6.3119998 -1.597 0.27000001
0.47099999 6.3060002 -1.595 0.28999999
0.45100001 6.3070002 -1.595 0.31999999
0.43200001 6.3200002 -1.598 0.27000001
0.421 6.3150001 -1.597 0.28
0.40099999 6.3140001 -1.596 0.28999999
0.382 6.3169999 -1.597 0.27000001
0.36199999 6.3169999 -1.596 0.30000001
0.34200001 6.3200002 -1.597 0.27000001
0.322 6.3249998 -1.598 0.28
0.30199999 6.3200002 -1.596 0.30000001
0.292 6.3239999 -1.597 0.28999999
0.273 6.329 -1.598 0.28999999
0.252 6.3179998 -1.595 0.30000001
0.233 6.3270001 -1.597 0.27000001
0.213 6.3429999 -1.601 0.28999999
0.193 6.3239999 -1.596 0.28999999
0.17299999 6.3340001 -1.599 0.28
0.163 6.3330002 -1.598 0.28999999
0.14399999 6.3429999 -1.601 0.30000001
0.124 6.3369999 -1.599 0.28
0.104 6.3379998 -1.599 0.28
0.083999999 6.3319998 -1.598 0.28
0.064000003 6.3270001 -1.596 0.31999999
0.044 6.3439999 -1.601 0.27000001
0.034000002 6.3379998 -1.599 0.28999999
0.014 6.3390002 -1.599 0.28
-0.0060000001 6.348 -1.602 0.28999999
-0.026000001 6.3369999 -1.599 0.28
-0.046 6.3400002 -1.6 0.27000001
-0.066 6.3499999 -1.602 0.33000001
-0.086000003 6.3439999 -1.601 0.28999999
-0.096000001 6.3509998 -1.603 0.28
-0.115 6.3410001 -1.6 0.27000001
-0.13500001 6.3309999 -1.598 0.28999999
-0.155 6.3400002 -1.6 0.27000001
-0.175 6.3400002 -1.6 0.27000001
-0.19499999 6.3410001 -1.601 0.28999999
-0.215 6.3410001 -1.601 0.25
-0.22499999 6.3499999 -1.603 0.28999999
-0.245 6.3470001 -1.603 0.28999999
-0.26499999 6.348 -1.603 0.28999999
-0.28600001 6.355 -1.6059999 0.30000001
-0.30599999 6.3559999 -1.6059999 0.30000001
-0.32600001 6.3530002 -1.6059999 0.28999999
-0.34599999 6.3540001 -1.6059999 0.30000001
-0.36500001 6.3379998 -1.602 0.28999999
-0.37599999 6.3530002 -1.6059999 0.30000001
-0.396 6.3610001 -1.609 0.31
-0.41499999 6.3439999 -1.605 0.30000001
-0.43599999 6.3540001 -1.608 0.25999999
-0.456 6.3569999 -1.609 0.28
-0.47600001 6.3540001 -1.608 0.27000001
-0.49700001 6.3600001 -1.61 0.30000001
-0.50700003 6.3629999 -1.6109999 0.30000001
-0.52499998 6.3400002 -1.6059999 0.27000001
-0.546 6.3540001 -1.61 0.31999999
-0.56599998 6.3520002 -1.61 0.28999999
-0.58600003 6.3439999 -1.608 0.28999999
-0.60500002 6.335 -1.6059999 0.30000001
-0.62699997 6.3540001 -1.612 0.27000001
-0.634 6.3260002 -1.605 0.2
-0.653 6.3130002 -1.601 0.30000001
-0.66399997 6.2340002 -1.58 0.15000001
-0.667 6.0840001 -1.54 0.28
-0.69 6.1139998 -1.549 0.41
-0.72600001 6.256 -1.5880001 0.30000001
-0.741 6.2150002 -1.5779999 0.22
-0.73699999 6.105 -1.548 0.34999999
-0.75599998 6.0970001 -1.546 0.30000001
-0.796 6.2529998 -1.59 0.27000001
-0.824 6.3179998 -1.608 0.28999999
-0.84399998 6.3169999 -1.609 0.28
-0.86400002 6.3140001 -1.609 0.25
-0.884 6.3099999 -1.608 0.27000001
-0.90499997 6.3130002 -1.61 0.30000001
-0.91500002 6.3169999 -1.6109999 0.28999999
-0.93300003 6.303 -1.608 0.30000001
-0.95599997 6.3189998 -1.613 0.27000001
-0.97299999 6.2950001 -1.608 0.31
-0.99199998 6.29 -1.607 0.28
-1.013 6.2940001 -1.609 0.28
-1.033 6.2909999 -1.609 0.27000001
-1.046 6.3060002 -1.614 0.25
-1.062 6.2839999 -1.609 0.30000001
-1.082 6.283 -1.609 0.28
-1.102 6.2789998 -1.609 0.28999999
-1.122 6.2800002 -1.61 0.28999999
-1.143 6.2779999 -1.6109999 0.25
-1.16 6.2649999 -1.608 0.31999999
-1.171 6.2649999 -1.609 0.27000001
-1.1900001 6.2589998 -1.608 0.28999999
-1.2079999 6.2480001 -1.6059999 0.28
-1.228 6.2459998 -1.607 0.28999999
-1.25 6.2550001 -1.61 0.25999999
-1.27 6.2490001 -1.61 0.28999999
-1.29 6.2490001 -1.6109999 0.30000001
-1.298 6.2360001 -1.608 0.30000001
-1.3200001 6.2449999 -1.6109999 0.30000001
-1.337 6.2290001 -1.608 0.30000001
-1.3559999 6.2210002 -1.607 0.27000001
-1.375 6.2150002 -1.607 0.25
-1.396 6.217 -1.608 0.31
-1.413 6.2010002 -1.605 0.27000001
-1.421 6.1929998 -1.603 0.30000001
-1.447 6.217 -1.6109999 0.25999999
-1.461 6.1900001 -1.605 0.28999999
-1.482 6.191 -1.607 0.30000001
-1.501 6.184 -1.6059999 0.30000001
-1.522 6.1869998 -1.608 0.25
-1.538 6.1669998 -1.604 0.25
