# .PCD v0.7 - Point Cloud Data file format
VERSION 0.7
FIELDS x y z intensity
SIZE 4 4 4 4
TYPE F F F F
COUNT 1 1 1 1
WIDTH 1397
HEIGHT 1
VIEWPOINT 0 0 0 1 0 0 0
POINTS 1397
DATA ascii
-42.158001 13.15 -0.94700003 0.34
-42.602001 13.142 -0.958 0.19
-42.759998 13.044 -0.96100003 0.15000001
-43.043999 12.982 -0.96799999 0.14
-43.215 12.886 -0.97100002 0
-53.299 12.745 -1.224 0
-53.577 12.633 -1.2309999 0
-53.917999 12.535 -1.239 0
-56.866001 13.124 -1.317 0
-56.757 12.912 -1.313 0
-57.125 12.807 -1.322 0
-56.969002 12.584 -1.317 0
-57.140999 12.434 -1.3200001 0.039999999
-57.238998 12.267 -1.322 0
-57.646999 12.165 -1.332 0
-58.313999 12.21 -1.349 0
-59.140999 12.189 -1.37 0
-67.432999 13.673 -1.59 0
-67.476997 13.462 -1.59 0
-67.484001 13.243 -1.589 0
-69.071999 13.329 -1.63 0
-64.773003 12.29 -1.515 0
-64.765999 12.078 -1.513 0
-64.793999 11.978 -1.5140001 0
-65.529999 11.901 -1.5319999 0
-55.894001 7.8130002 -1.267 0
-55.889999 7.6329999 -1.266 0
-62.404999 -11.46 -1.45 0
-62.258999 -11.636 -1.447 0
-56.972 -10.831 -1.308 0
-56.816002 -10.986 -1.304 0
-56.209 -10.96 -1.289 0
-61.773998 -12.249 -1.438 0
-61.933998 -12.483 -1.443 0
-74.952003 -18.577 -1.809 0
-74.648003 -18.75 -1.802 0
-72.341003 -18.412001 -1.742 0
-71.439003 -18.421 -1.719 0
-70.364998 -18.379999 -1.692 0
-68.709999 -18.062 -1.648 0
-68.210999 -18.16 -1.636 0
-67.392998 -18.169001 -1.6160001 0
-64.194 -17.521999 -1.531 0
-64.799004 -17.906 -1.548 0
-64.606003 -18.070999 -1.545 0
-64.182999 -18.171 -1.535 0
-63.293999 -18.132999 -1.512 0
-62.438999 -17.993999 -1.49 0
-61.633999 -17.972 -1.47 0
-60.768002 -17.926001 -1.448 0
-35.469002 -10.695 -0.76099998 0.18000001
-35.438999 -10.807 -0.76099998 0.38999999
-35.452 -10.933 -0.76300001 0.2
-35.485001 -11.004 -0.764 0.36000001
-35.591 -11.16 -0.76800001 0.18000001
-29.274 -9.2749996 -0.59600002 0.28999999
-29.181999 -9.3470001 -0.59399998 0.31
-29.042 -9.4029999 -0.59100002 0
-29.041 -9.6049995 -0.59299999 0.33000001
-29.016001 -9.6470003 -0.59299999 0.25
-28.67 -9.632 -0.58399999 0.27000001
-28.613001 -9.7130003 -0.583 0.28
-28.540001 -9.7880001 -0.58200002 0.43000001
-28.528 -9.8839998 -0.583 0.28999999
-28.938999 -10.129 -0.59500003 0.19
-29.024 -10.261 -0.59799999 0
-30.972 -11.007 -0.65200001 0.16
-29.135 -10.455 -0.602 0
-47.189999 -17.120001 -1.104 0
-46.678001 -17.1 -1.092 0
-46.181999 -17.082001 -1.079 0
-45.776001 -17.096001 -1.0700001 0
-45.210999 -17.047001 -1.0549999 0
-44.099998 -16.785 -1.026 0
-44.324001 -16.950001 -1.033 0
-43.84 -16.923 -1.021 0.07
-43.301998 -16.872 -1.007 0
-42.525002 -16.723 -0.98699999 0
-42.521 -16.875 -0.98799998 0
-41.862999 -16.766001 -0.97100002 0
-41.541 -16.789 -0.96399999 0
-40.681 -16.514999 -0.94 0.13
-40.712002 -16.677 -0.94300002 0
-40.598999 -16.780001 -0.94099998 0
-40.231998 -16.775999 -0.93199998 0
-39.841999 -16.76 -0.92199999 0
-39.476002 -16.752001 -0.91399997 0
-39.091 -16.733999 -0.90399998 0
-38.771 -16.669001 -0.89600003 0
-38.341999 -16.627001 -0.88499999 0
-38.019001 -16.629 -0.87699997 0
-37.675999 -16.618999 -0.86900002 0
-37.363998 -16.622 -0.86199999 0
-36.981998 -16.591 -0.852 0
-36.694 -16.601 -0.84600002 0
-36.372002 -16.523001 -0.83700001 0.16
-36.083 -16.528999 -0.82999998 0.25
-35.754002 -16.514 -0.82200003 0.25999999
-35.437 -16.503 -0.815 0.11
-35.147999 -16.503 -0.80800003 0.15000001
-34.805 -16.475 -0.79900002 0.23
-34.509998 -16.468 -0.792 0.1
-34.217999 -16.461 -0.78500003 0.17
-33.945999 -16.395 -0.778 0.30000001
-33.644001 -16.379999 -0.77100003 0.19
-33.375999 -16.379 -0.76499999 0.18000001
-33.077999 -16.362 -0.75800002 0.12
-32.792999 -16.349001 -0.75099999 0.16
-32.534 -16.348 -0.745 0.30000001
-32.271999 -16.343 -0.73900002 0.2
-32.021999 -16.278999 -0.73199999 0.2
-31.761999 -16.273001 -0.72600001 0.30000001
-31.497999 -16.261999 -0.72000003 0.2
-31.239 -16.253 -0.71399999 0.2
-30.988001 -16.246 -0.708 0.30000001
-30.733999 -16.236 -0.70200002 0.18000001
-30.496 -16.233 -0.69599998 0.38
-30.273001 -16.174999 -0.69 0.20999999
-30.044001 -16.174 -0.685 0.31999999
-29.782 -16.153999 -0.67900002 0.23
-29.568001 -16.158001 -0.67400002 0.28999999
-29.332001 -16.148001 -0.66799998 0.27000001
-29.094 -16.136999 -0.66299999 0.25999999
-28.881001 -16.136999 -0.65799999 0.27000001
-28.677999 -16.083 -0.653 0.2
-28.462 -16.079 -0.648 0.41999999
-28.242001 -16.072001 -0.64300001 0.23
-28.028999 -16.066999 -0.63800001 0.23999999
-27.805 -16.055 -0.63300002 0.30000001
-27.597 -16.051001 -0.62800002 0.27000001
-27.379999 -16.039 -0.62300003 0.31
-27.018 -15.884 -0.61299998 0.17
-26.834 -15.89 -0.60900003 0.43000001
-26.632999 -15.884 -0.60399997 0.22
-26.507999 -15.922 -0.602 0.28999999
-26.4 -15.97 -0.60000002 0.17
-26.221001 -15.975 -0.59600002 0.44999999
-26.014 -15.961 -0.59100002 0.22
-25.820999 -15.954 -0.58700001 0.30000001
-25.658001 -15.909 -0.583 0.27000001
-25.464001 -15.899 -0.57800001 0.25
-25.296 -15.905 -0.574 0.23
-25.121 -15.905 -0.57099998 0.25999999
-24.936001 -15.898 -0.56599998 0.18000001
-24.757999 -15.894 -0.56199998 0.34999999
-24.587 -15.893 -0.55900002 0.23
-24.434999 -15.849 -0.55500001 0.27000001
-24.268 -15.849 -0.551 0.25
-24.080999 -15.835 -0.54699999 0.22
-23.921 -15.837 -0.54299998 0.38999999
-23.745001 -15.828 -0.53899997 0.23
-23.594999 -15.836 -0.53600001 0.23
-23.405001 -15.815 -0.53200001 0.2
-23.285999 -15.787 -0.52899998 0.43000001
-23.125 -15.785 -0.52499998 0.25
-22.964001 -15.78 -0.52200001 0.18000001
-22.806 -15.777 -0.51800001 0.38999999
-22.643 -15.77 -0.51499999 0.23
-22.474001 -15.757 -0.51099998 0.20999999
-22.341 -15.768 -0.50800002 0.40000001
-22.169001 -15.752 -0.50400001 0.18000001
-22.047001 -15.717 -0.50099999 0.34999999
-21.898001 -15.715 -0.498 0.23999999
-21.75 -15.712 -0.495 0.25
-21.591 -15.7 -0.491 0.2
-21.457001 -15.706 -0.48899999 0.44
-21.295 -15.691 -0.48500001 0.25
-21.145 -15.682 -0.48199999 0.27000001
-21.045 -15.659 -0.479 0.27000001
-20.924 -15.671 -0.477 0.28999999
-20.761 -15.651 -0.47299999 0.30000001
-20.635 -15.658 -0.47099999 0.28999999
-20.490999 -15.65 -0.46799999 0.23999999
-20.354 -15.647 -0.465 0.27000001
-20.209999 -15.638 -0.46200001 0.28
-20.086 -15.592 -0.458 0.30000001
-19.981001 -15.611 -0.456 0.27000001
-19.848 -15.608 -0.454 0.28999999
-19.707001 -15.597 -0.45100001 0.28999999
-19.57 -15.589 -0.44800001 0.27000001
-19.434 -15.58 -0.44499999 0.23
-19.316 -15.586 -0.44299999 0.33000001
-19.163 -15.512 -0.43799999 0.2
-18.739 -15.266 -0.426 0.28
-18.625999 -15.271 -0.42300001 0.41
-18.517 -15.279 -0.421 0.34999999
-18.496 -15.36 -0.42199999 0.34
-18.339001 -15.327 -0.419 0.41
-18.344 -15.429 -0.41999999 0.31999999
-18.233 -15.385 -0.417 0.34
-18.129999 -15.395 -0.41600001 0.38
-18.013 -15.394 -0.41299999 0.43000001
-17.999001 -15.48 -0.414 0.30000001
-17.756001 -15.368 -0.40799999 0.23999999
-17.599001 -15.329 -0.40400001 0.43000001
-17.650999 -15.472 -0.40700001 0.30000001
-17.558001 -15.439 -0.405 0.22
-17.000999 -15.043 -0.38699999 0.28999999
-16.927 -15.072 -0.38600001 0.38
-16.881001 -15.127 -0.38600001 0.36000001
-16.704 -15.063 -0.382 0.37
-16.636 -15.097 -0.38100001 0.43000001
-16.577999 -15.14 -0.38100001 0.36000001
-16.631001 -15.284 -0.384 0.30000001
-16.445999 -15.162 -0.37900001 0.41
-16.479 -15.288 -0.38100001 0.31
-16.125999 -15.055 -0.37099999 0.36000001
-16.077 -15.104 -0.37099999 0.31999999
-16.041 -15.165 -0.37099999 0.52999997
-15.894 -15.12 -0.36700001 0.30000001
-15.931 -15.252 -0.37 0.18000001
-15.621 -15.001 -0.36000001 0.52999997
-15.667 -15.14 -0.36300001 0.30000001
-15.475 -15.049 -0.35800001 0.33000001
-15.416 -15.086 -0.35800001 0.41
-15.171 -14.939 -0.34999999 0.34
-15.173 -15.036 -0.352 0.47
-15.143 -15.1 -0.35299999 0.2
-14.878 -14.882 -0.34400001 0.38999999
-14.786 -14.883 -0.34200001 0.28
-14.688 -14.878 -0.34 0.41
-14.657 -14.94 -0.34099999 0.38999999
-14.571 -14.946 -0.34 0.43000001
-14.506 -14.973 -0.33899999 0.23999999
-14.412 -14.97 -0.33700001 0.47
-14.401 -15.005 -0.338 0.33000001
-14.257 -14.949 -0.33399999 0.44
-14.13 -14.909 -0.331 0.38999999
-14.06 -14.929 -0.33000001 0.33000001
-13.984 -14.942 -0.329 0.38999999
-13.855 -14.897 -0.32600001 0.44999999
-13.79 -14.921 -0.32499999 0.36000001
-13.779 -14.956 -0.32600001 0.41
-13.698 -14.962 -0.324 0.40000001
-13.732 -15.094 -0.32699999 0.31999999
-13.692 -15.146 -0.32800001 0.47999999
-13.547 -15.08 -0.324 0.31
-13.214 -14.802 -0.31299999 0.41
-13.175 -14.852 -0.31299999 0.28999999
-13.086 -14.845 -0.31099999 0.37
-13.043 -14.843 -0.31099999 0.41
-13.038 -14.933 -0.31200001 0.31999999
-12.913 -14.883 -0.30899999 0.41
-12.848 -14.902 -0.308 0.34
-12.8 -14.941 -0.308 0.44
-12.825 -15.066 -0.31099999 0.44999999
-12.854 -15.197 -0.31400001 0.38
-12.802 -15.183 -0.31299999 0.38
-12.704 -15.164 -0.31099999 0.43000001
-12.424 -14.923 -0.30199999 0.23
-12.554 -15.177 -0.30899999 0.38999999
-12.456 -15.156 -0.30700001 0.38999999
-12.296 -15.057 -0.30199999 0.38999999
-12.118 -14.934 -0.29699999 0.23999999
-11.896 -14.707 -0.289 0.30000001
-11.843 -14.735 -0.28799999 0.49000001
-11.732 -14.691 -0.28600001 0.38999999
-11.695 -14.74 -0.28600001 0.31999999
-11.595 -14.708 -0.28400001 0.44
-11.526 -14.715 -0.28299999 0.31999999
-11.463 -14.73 -0.28200001 0.44999999
-11.451 -14.762 -0.28200001 0.38999999
-11.385 -14.772 -0.28200001 0.36000001
-11.335 -14.803 -0.28099999 0.38
-11.241 -14.777 -0.27900001 0.43000001
-11.153 -14.758 -0.278 0.34
-11.051 -14.717 -0.27500001 0.47
-11.026 -14.781 -0.27599999 0.23
-10.95 -14.727 -0.27399999 0.55000001
-10.908 -14.767 -0.27399999 0.25
-10.842 -14.775 -0.273 0.50999999
-10.775 -14.78 -0.27200001 0.34
-10.694 -14.767 -0.271 0.37
-10.656 -14.812 -0.271 0.43000001
-10.571 -14.791 -0.26899999 0.37
-10.5 -14.741 -0.26699999 0.46000001
-10.574 -14.944 -0.273 0.36000001
-10.493 -14.929 -0.271 0.37
-10.316 -14.775 -0.26499999 0.43000001
-10.255 -14.786 -0.26499999 0.28999999
-10.154 -14.739 -0.26199999 0.44999999
-10.132 -14.806 -0.26300001 0.40000001
-10.048 -14.783 -0.26100001 0.41
-9.9650002 -14.711 -0.259 0.38999999
-9.8870001 -14.694 -0.257 0.41
-9.8710003 -14.77 -0.259 0.34
-9.7889996 -14.747 -0.257 0.47
-9.7709999 -14.822 -0.25799999 0.28999999
-9.6140003 -14.683 -0.25299999 0.5
-9.5869999 -14.743 -0.25400001 0.23
-9.533 -14.71 -0.252 0.55000001
-9.4630003 -14.703 -0.25099999 0.41999999
-9.3760004 -14.668 -0.249 0.41
-9.3290005 -14.696 -0.249 0.36000001
-9.2650003 -14.698 -0.248 0.56999999
-8.9560003 -14.305 -0.235 0.25999999
-8.882 -14.287 -0.234 0.31999999
-8.8730001 -14.323 -0.235 0.23999999
-8.8079996 -14.318 -0.234 0.56999999
-8.7639999 -14.348 -0.234 0.41999999
-8.7379999 -14.406 -0.235 0.34999999
-8.9090004 -14.793 -0.24600001 0.19
-8.882 -14.854 -0.24699999 0.38999999
-8.8050003 -14.832 -0.245 0.44
-8.8450003 -14.952 -0.248 0.34
-8.7810001 -14.951 -0.24699999 0.37
-8.7139997 -14.944 -0.24600001 0.41
-8.6560001 -14.952 -0.24600001 0.34
-8.5959997 -14.956 -0.245 0.41999999
-8.526 -14.943 -0.244 0.40000001
-8.467 -14.949 -0.243 0.41
-8.4209995 -14.922 -0.242 0.41
-8.3570004 -14.917 -0.241 0.38999999
-8.2370005 -14.812 -0.237 0.38
-8.1079998 -14.688 -0.233 0.27000001
-8.0299997 -14.655 -0.23100001 0.5
-8.0039997 -14.717 -0.23199999 0.30000001
-7.9520001 -14.732 -0.23199999 0.47999999
-7.9219999 -14.732 -0.23100001 0.36000001
-7.8260002 -14.663 -0.229 0.40000001
-7.757 -14.643 -0.227 0.43000001
-7.7049999 -14.657 -0.227 0.41999999
-7.651 -14.665 -0.227 0.28999999
-7.572 -14.625 -0.22499999 0.55000001
-7.5370002 -14.672 -0.22499999 0.25999999
-7.4770002 -14.667 -0.22499999 0.56999999
-7.5120001 -14.795 -0.228 0.28999999
-7.402 -14.691 -0.22400001 0.38999999
-7.3439999 -14.69 -0.22400001 0.44999999
-7.316 -14.75 -0.22499999 0.30000001
-7.2259998 -14.683 -0.222 0.54000002
-7.2090001 -14.767 -0.22400001 0.34
-7.204 -14.876 -0.226 0.38999999
-7.1550002 -14.833 -0.22499999 0.38
-7.0100002 -14.65 -0.219 0.36000001
-6.927 -14.592 -0.21600001 0.38999999
-6.882 -14.616 -0.21699999 0.47
-6.8239999 -14.612 -0.21600001 0.28
-6.7589998 -14.592 -0.215 0.47999999
-6.7150002 -14.618 -0.215 0.28999999
-6.678 -14.596 -0.214 0.50999999
-6.631 -14.615 -0.214 0.28999999
-6.573 -14.609 -0.213 0.61000001
-6.6020002 -14.799 -0.21799999 0.33000001
-6.4640002 -14.611 -0.212 0.25
-6.3670001 -14.516 -0.20900001 0.5
-6.3010001 -14.488 -0.207 0.31
-6.256 -14.447 -0.206 0.51999998
-6.2519999 -14.562 -0.20900001 0.28
-6.164 -14.482 -0.206 0.47
-6.1290002 -14.527 -0.206 0.33000001
-6.0770001 -14.532 -0.206 0.50999999
-6.1030002 -14.724 -0.211 0.43000001
-6.0580001 -14.745 -0.211 0.23999999
-5.9419999 -14.592 -0.206 0.38999999
-5.9099998 -14.579 -0.205 0.38999999
-5.8470001 -14.555 -0.204 0.36000001
-5.7909999 -14.547 -0.204 0.58999997
-5.757 -14.597 -0.204 0.33000001
-5.698 -14.579 -0.20299999 0.46000001
-5.632 -14.545 -0.20200001 0.43000001
-5.6020002 -14.604 -0.20299999 0.44999999
-5.6389999 -14.771 -0.208 0.23
-5.5029998 -14.551 -0.20100001 0.51999998
-5.448 -14.544 -0.2 0.31
-5.3629999 -14.452 -0.197 0.44999999
-5.3150001 -14.464 -0.197 0.43000001
-5.2930002 -14.546 -0.199 0.28999999
-5.2150002 -14.472 -0.19599999 0.51999998
-5.2199998 -14.558 -0.199 0.38
-5.2179999 -14.697 -0.20200001 0.38999999
-5.086 -14.469 -0.19499999 0.28999999
-5.0159998 -14.413 -0.193 0.61000001
-4.9949999 -14.499 -0.19499999 0.25
-4.927 -14.448 -0.193 0.56999999
-4.8940001 -14.502 -0.19400001 0.27000001
-4.9380002 -14.71 -0.2 0.44999999
-4.8709998 -14.663 -0.198 0.41999999
-4.8109999 -14.635 -0.197 0.43000001
-4.73 -14.543 -0.19400001 0.23
-4.6209998 -14.36 -0.189 0.58999997
-4.5770001 -14.378 -0.189 0.27000001
-4.5170002 -14.345 -0.18700001 0.52999997
-4.4990001 -14.365 -0.18799999 0.34
-4.467 -14.423 -0.189 0.52999997
-4.5089998 -14.722 -0.197 0.22
-4.3769999 -14.451 -0.189 0.50999999
-4.3559999 -14.547 -0.191 0.27000001
-4.283 -14.471 -0.189 0.55000001
-4.2459998 -14.513 -0.19 0.31
-4.21 -14.473 -0.18799999 0.56999999
-4.198 -14.602 -0.191 0.23999999
-4.1269999 -14.528 -0.189 0.51999998
-4.1020002 -14.613 -0.191 0.34
-4.0710001 -14.681 -0.193 0.37
-4.02 -14.675 -0.192 0.38
-3.9619999 -14.643 -0.191 0.44
-3.8989999 -14.5 -0.18700001 0.28
-3.8310001 -14.429 -0.185 0.54000002
-3.78 -14.416 -0.184 0.31999999
-3.724 -14.389 -0.183 0.44999999
-3.6760001 -14.389 -0.183 0.46000001
-3.6670001 -14.544 -0.186 0.44999999
-3.6459999 -14.659 -0.189 0.31999999
-3.55 -14.365 -0.18099999 0.38
-3.487 -14.301 -0.17900001 0.38
-3.4419999 -14.313 -0.17900001 0.34999999
-3.408 -14.371 -0.18000001 0.55000001
-3.3889999 -14.494 -0.183 0.28999999
-3.3299999 -14.447 -0.182 0.44999999
-3.286 -14.463 -0.182 0.28999999
-3.256 -14.541 -0.184 0.54000002
-3.2360001 -14.558 -0.184 0.27000001
-3.165 -14.453 -0.18099999 0.47
-3.1140001 -14.436 -0.18000001 0.30000001
-3.0480001 -14.351 -0.178 0.50999999
-3.026 -14.469 -0.18099999 0.41
-2.967 -14.413 -0.17900001 0.41
-2.9200001 -14.413 -0.17900001 0.34999999
-2.8929999 -14.396 -0.178 0.43000001
-2.8429999 -14.383 -0.178 0.44
-2.8039999 -14.422 -0.178 0.47
-2.7869999 -14.583 -0.182 0.41999999
-2.7179999 -14.466 -0.17900001 0.38
-2.664 -14.428 -0.178 0.43000001
-2.6129999 -14.402 -0.177 0.40000001
-2.585 -14.375 -0.176 0.44999999
-2.5409999 -14.395 -0.176 0.34
-2.4849999 -14.338 -0.175 0.44999999
-2.4530001 -14.422 -0.177 0.34999999
-2.4059999 -14.422 -0.177 0.38
-2.359 -14.416 -0.176 0.5
-2.3180001 -14.451 -0.177 0.37
-2.2920001 -14.435 -0.176 0.55000001
-2.2449999 -14.434 -0.176 0.38
-2.2119999 -14.518 -0.178 0.34999999
-2.171 -14.559 -0.17900001 0.54000002
-2.118 -14.512 -0.178 0.31
-2.053 -14.386 -0.17399999 0.34999999
-2.0050001 -14.372 -0.17399999 0.44
-1.9809999 -14.362 -0.17299999 0.34
-1.942 -14.417 -0.175 0.56
-1.913 -14.546 -0.178 0.37
-1.867 -14.552 -0.178 0.33000001
-1.823 -14.566 -0.178 0.38999999
-1.776 -14.568 -0.178 0.31999999
-1.729 -14.561 -0.178 0.38999999
-1.7 -14.506 -0.176 0.23
-1.641 -14.394 -0.17299999 0.44
-1.594 -14.38 -0.17299999 0.41
-1.541 -14.317 -0.171 0.47
-1.497 -14.334 -0.171 0.34999999
-1.448 -14.298 -0.17 0.40000001
-1.405 -14.321 -0.171 0.38999999
-1.387 -14.371 -0.17200001 0.41
-1.341 -14.363 -0.171 0.38999999
-1.294 -14.343 -0.171 0.40000001
-1.248 -14.341 -0.171 0.43000001
-1.2029999 -14.347 -0.171 0.44
-1.159 -14.355 -0.171 0.41
-1.11 -14.311 -0.17 0.30000001
-1.062 -14.274 -0.169 0.5
-1.041 -14.302 -0.169 0.31999999
-0.99299997 -14.253 -0.168 0.44999999
-0.94800001 -14.252 -0.168 0.34999999
-0.903 -14.257 -0.168 0.54000002
-0.86299998 -14.336 -0.17 0.36000001
-0.815 -14.296 -0.169 0.38
-0.77499998 -14.389 -0.171 0.44999999
-0.75300002 -14.388 -0.171 0.36000001
-0.70499998 -14.334 -0.17 0.60000002
-0.66399997 -14.436 -0.17200001 0.31999999
-0.61500001 -14.348 -0.17 0.47
-0.57499999 -14.486 -0.17299999 0.34
-0.52899998 -14.468 -0.17299999 0.44999999
-0.48199999 -14.42 -0.171 0.34999999
-0.458 -14.378 -0.17 0.38999999
-0.412 -14.364 -0.17 0.36000001
-0.36700001 -14.351 -0.17 0.55000001
-0.324 -14.436 -0.17200001 0.34
-0.278 -14.427 -0.17200001 0.49000001
-0.234 -14.492 -0.17299999 0.25
-0.18799999 -14.452 -0.17200001 0.47999999
-0.164 -14.399 -0.171 0.28999999
-0.119 -14.309 -0.168 0.57999998
-0.074000001 -14.389 -0.171 0.28
-0.028999999 -14.25 -0.167 0.54000002
0.016000001 -14.276 -0.168 0.31
0.061000001 -14.252 -0.167 0.47999999
0.106 -14.257 -0.167 0.34
0.12800001 -14.239 -0.167 0.46000001
0.17299999 -14.247 -0.167 0.36000001
0.21699999 -14.242 -0.167 0.55000001
0.26300001 -14.269 -0.167 0.37
0.30700001 -14.246 -0.167 0.38999999
0.35299999 -14.281 -0.168 0.40000001
0.396 -14.22 -0.16599999 0.44
0.42199999 -14.337 -0.169 0.5
0.46700001 -14.352 -0.17 0.25
0.509 -14.261 -0.167 0.47999999
0.55400002 -14.261 -0.167 0.38
0.59799999 -14.247 -0.167 0.41999999
0.63999999 -14.189 -0.16599999 0.47999999
0.68400002 -14.165 -0.16500001 0.28999999
0.70599997 -14.16 -0.16500001 0.55000001
0.76300001 -14.377 -0.171 0.34
0.80900002 -14.391 -0.171 0.41999999
0.85299999 -14.368 -0.171 0.34
0.88599998 -14.19 -0.16599999 0.47
0.93099999 -14.187 -0.16599999 0.34999999
0.97799999 -14.22 -0.167 0.40000001
1.006 -14.294 -0.169 0.46000001
1.051 -14.295 -0.169 0.41
1.091 -14.228 -0.167 0.28
1.135 -14.21 -0.167 0.46000001
1.179 -14.201 -0.167 0.36000001
1.221 -14.171 -0.16599999 0.44999999
1.263 -14.141 -0.16500001 0.40000001
1.2869999 -14.157 -0.16599999 0.38
1.337 -14.213 -0.168 0.40000001
1.382 -14.205 -0.167 0.34999999
1.4299999 -14.238 -0.168 0.51999998
1.4859999 -14.337 -0.171 0.41
1.535 -14.37 -0.17200001 0.44999999
1.582 -14.387 -0.17299999 0.22
1.605 -14.183 -0.167 0.54000002
1.631 -14.212 -0.168 0.25
1.666 -14.126 -0.16599999 0.58999997
1.738 -14.351 -0.17200001 0.25
1.77 -14.236 -0.169 0.57999998
1.808 -14.181 -0.168 0.28999999
1.849 -14.147 -0.167 0.44999999
1.891 -14.124 -0.167 0.41999999
1.9119999 -14.117 -0.167 0.43000001
1.959 -14.128 -0.167 0.41
2 -14.095 -0.16599999 0.36000001
2.04 -14.064 -0.16599999 0.56999999
2.112 -14.242 -0.171 0.31999999
2.1340001 -14.089 -0.167 0.34999999
2.1719999 -14.037 -0.16599999 0.54000002
2.198 -14.059 -0.16599999 0.30000001
2.2390001 -14.034 -0.16599999 0.54000002
2.28 -14.005 -0.16500001 0.31999999
2.316 -13.951 -0.164 0.56999999
2.3759999 -14.042 -0.167 0.25
2.414 -13.999 -0.16599999 0.5
2.513 -14.298 -0.17399999 0.44999999
2.539 -14.314 -0.17399999 0.30000001
2.5829999 -14.302 -0.17399999 0.44999999
2.6289999 -14.302 -0.17399999 0.37
2.635 -14.085 -0.169 0.41
2.6960001 -14.167 -0.171 0.46000001
2.7639999 -14.275 -0.17399999 0.23
2.779 -14.119 -0.171 0.50999999
2.7920001 -14.065 -0.169 0.31999999
2.826 -14.009 -0.168 0.47999999
2.8629999 -13.965 -0.167 0.31
2.905 -13.946 -0.167 0.52999997
2.9560001 -13.972 -0.168 0.28999999
2.98 -13.873 -0.16500001 0.57999998
3.0369999 -13.924 -0.167 0.27000001
3.05 -13.88 -0.16599999 0.52999997
3.098 -13.888 -0.16599999 0.31
3.1400001 -13.871 -0.16599999 0.47999999
3.1730001 -13.814 -0.16500001 0.38999999
3.2290001 -13.859 -0.16599999 0.37
3.2809999 -13.885 -0.167 0.41
3.325 -13.877 -0.167 0.38
3.355 -13.907 -0.168 0.43000001
3.4330001 -14.032 -0.17200001 0.46000001
3.471 -13.998 -0.171 0.30000001
3.4890001 -13.884 -0.169 0.38999999
3.526 -13.85 -0.168 0.47
3.5840001 -13.891 -0.169 0.40000001
3.655 -13.984 -0.17200001 0.31999999
3.71 -14.015 -0.17299999 0.47999999
3.7409999 -14.042 -0.17399999 0.41999999
3.793 -14.059 -0.175 0.36000001
3.8169999 -13.974 -0.17299999 0.38
3.8559999 -13.944 -0.17299999 0.41
3.915 -13.988 -0.17399999 0.41
3.96 -13.979 -0.17399999 0.46000001
4.0079999 -13.98 -0.175 0.38
4.0310001 -13.976 -0.175 0.38
4.0689998 -13.946 -0.17399999 0.41999999
4.1100001 -13.922 -0.17399999 0.46000001
4.1669998 -13.955 -0.175 0.30000001
4.2069998 -13.928 -0.175 0.51999998
4.2610002 -13.947 -0.176 0.33000001
4.3169999 -13.974 -0.177 0.34
4.369 -14.063 -0.17900001 0.5
4.3790002 -13.94 -0.176 0.31999999
4.4289999 -13.947 -0.177 0.52999997
4.473 -13.933 -0.177 0.30000001
4.5100002 -13.9 -0.176 0.51999998
4.6350002 -14.133 -0.183 0.36000001
4.7160001 -14.226 -0.186 0.38999999
4.6919999 -14.082 -0.182 0.38
4.7350001 -14.064 -0.182 0.41
4.7740002 -14.034 -0.182 0.41999999
4.8309999 -14.054 -0.183 0.38999999
4.8600001 -13.998 -0.182 0.5
4.921 -14.029 -0.183 0.40000001
5.0279999 -14.189 -0.18799999 0.36000001
5.0689998 -14.234 -0.189 0.44999999
5.1149998 -14.223 -0.189 0.43000001
5.1680002 -14.23 -0.19 0.34
5.2160001 -14.221 -0.19 0.31999999
5.2160001 -14.087 -0.18700001 0.38999999
5.2800002 -14.123 -0.18799999 0.38999999
5.3520002 -14.177 -0.19 0.44
5.3969998 -14.23 -0.192 0.36000001
5.4510002 -14.235 -0.193 0.41
5.5019999 -14.235 -0.193 0.38
5.546 -14.216 -0.193 0.38
5.6009998 -14.224 -0.19400001 0.37
5.6539998 -14.229 -0.19499999 0.31
5.7010002 -14.217 -0.19499999 0.36000001
5.737 -14.241 -0.19599999 0.22
5.756 -14.16 -0.19400001 0.60000002
5.7989998 -14.138 -0.19400001 0.31
5.8639998 -14.17 -0.19499999 0.44999999
5.902 -14.135 -0.19499999 0.31
5.9229999 -14.063 -0.193 0.55000001
6.0359998 -14.204 -0.198 0.41
6.066 -14.213 -0.198 0.34
6.125 -14.227 -0.199 0.38
6.1810002 -14.233 -0.2 0.37
6.2280002 -14.219 -0.2 0.40000001
6.2800002 -14.216 -0.20100001 0.34
6.3379998 -14.225 -0.20100001 0.34999999
6.388 -14.218 -0.20200001 0.36000001
6.4419999 -14.218 -0.20200001 0.44999999
6.4749999 -14.231 -0.20299999 0.38999999
6.5209999 -14.215 -0.20299999 0.30000001
6.579 -14.221 -0.204 0.34
6.6259999 -14.206 -0.204 0.30000001
6.6830001 -14.212 -0.205 0.31999999
6.7389998 -14.215 -0.205 0.25
6.79 -14.208 -0.206 0.38
6.822 -14.217 -0.206 0.40000001
6.8779998 -14.219 -0.207 0.33000001
6.9330001 -14.219 -0.208 0.38
6.9899998 -14.222 -0.20900001 0.36000001
7.04 -14.209 -0.20900001 0.38999999
7.0929999 -14.205 -0.20900001 0.37
7.1550002 -14.216 -0.20999999 0.33000001
7.184 -14.219 -0.211 0.38999999
7.243 -14.223 -0.211 0.38
7.3039999 -14.232 -0.212 0.34999999
7.3569999 -14.225 -0.213 0.38
7.415 -14.229 -0.214 0.38999999
7.4679999 -14.219 -0.214 0.36000001
7.5219998 -14.215 -0.215 0.30000001
7.5510001 -14.216 -0.215 0.41
7.6259999 -14.248 -0.21699999 0.20999999
7.652 -14.189 -0.21600001 0.54000002
7.724 -14.216 -0.21699999 0.30000001
7.7639999 -14.183 -0.21699999 0.47999999
7.8299999 -14.197 -0.21799999 0.43000001
7.8990002 -14.216 -0.219 0.37
7.9330001 -14.224 -0.22 0.34
7.9850001 -14.213 -0.22 0.34
8.0459995 -14.216 -0.221 0.37
8.1129999 -14.231 -0.222 0.31999999
8.1669998 -14.221 -0.223 0.38999999
8.224 -14.216 -0.22400001 0.36000001
8.2880001 -14.224 -0.22499999 0.37
8.3210001 -14.229 -0.22499999 0.31999999
8.3780003 -14.223 -0.226 0.22
8.3800001 -14.126 -0.22400001 0.5
8.4309998 -14.11 -0.22400001 0.40000001
8.4969997 -14.119 -0.22499999 0.36000001
8.5550003 -14.115 -0.226 0.49000001
8.6239996 -14.129 -0.227 0.43000001
8.7180004 -14.233 -0.23100001 0.34999999
8.7840004 -14.239 -0.23199999 0.28999999
8.835 -14.222 -0.23199999 0.33000001
8.9020004 -14.23 -0.233 0.34999999
8.9589996 -14.22 -0.234 0.38999999
9.0209999 -14.221 -0.234 0.37
9.0830002 -14.219 -0.235 0.38999999
9.1239996 -14.233 -0.236 0.36000001
9.184 -14.228 -0.237 0.31999999
9.2460003 -14.226 -0.23800001 0.34
9.3140001 -14.232 -0.23899999 0.34
9.3739996 -14.226 -0.23999999 0.34
9.4300003 -14.213 -0.23999999 0.38999999
9.4949999 -14.215 -0.241 0.36000001
9.5360003 -14.227 -0.242 0.31999999
9.6000004 -14.226 -0.243 0.38999999
9.6700001 -14.233 -0.244 0.33000001
9.7299995 -14.225 -0.245 0.34
9.7860003 -14.211 -0.245 0.34999999
9.8570004 -14.218 -0.24600001 0.36000001
9.9219999 -14.216 -0.24699999 0.36000001
9.96 -14.222 -0.248 0.34999999
10.035 -14.235 -0.249 0.36000001
10.092 -14.219 -0.25 0.36000001
10.16 -14.22 -0.25099999 0.38
10.229 -14.222 -0.252 0.34999999
10.286 -14.208 -0.25299999 0.36000001
10.356 -14.209 -0.25400001 0.34
10.409 -14.235 -0.255 0.36000001
10.47 -14.225 -0.25600001 0.34999999
10.536 -14.221 -0.257 0.38
10.605 -14.219 -0.25799999 0.34
10.669 -14.212 -0.259 0.34999999
10.741 -14.215 -0.25999999 0.34999999
10.812 -14.216 -0.26100001 0.36000001
10.852 -14.221 -0.26199999 0.34
10.927 -14.226 -0.26300001 0.31999999
10.997 -14.225 -0.264 0.36000001
11.063 -14.217 -0.26499999 0.31
11.133 -14.216 -0.266 0.37
11.203 -14.212 -0.26699999 0.27000001
11.272 -14.208 -0.26800001 0.36000001
11.349 -14.213 -0.27000001 0.34999999
11.399 -14.23 -0.271 0.36000001
11.469 -14.225 -0.27200001 0.41
11.544 -14.226 -0.273 0.28999999
11.621 -14.23 -0.27399999 0.38999999
11.669 -14.196 -0.27399999 0.37
11.698 -14.141 -0.27399999 0.37
11.752 -14.117 -0.27399999 0.34999999
11.8 -14.129 -0.27500001 0.28
11.878 -14.131 -0.27700001 0.34999999
11.956 -14.134 -0.278 0.28
12.02 -14.119 -0.27900001 0.34999999
12.101 -14.123 -0.28 0.31
12.17 -14.114 -0.28099999 0.31999999
12.298 -14.172 -0.285 0.31
12.383 -14.225 -0.287 0.31
12.466 -14.23 -0.289 0.30000001
12.54 -14.223 -0.28999999 0.31999999
12.619 -14.223 -0.29100001 0.37
12.693 -14.216 -0.292 0.33000001
12.777 -14.219 -0.294 0.34999999
12.855 -14.216 -0.29499999 0.33000001
12.911 -14.233 -0.296 0.36000001
12.99 -14.23 -0.29800001 0.44
13.069 -14.226 -0.29899999 0.34999999
13.149 -14.223 -0.30000001 0.31
13.23 -14.221 -0.30199999 0.37
13.312 -14.219 -0.303 0.31
13.391 -14.213 -0.30500001 0.34
13.454 -14.236 -0.30599999 0.33000001
13.545 -14.241 -0.308 0.28999999
13.623 -14.233 -0.30899999 0.46000001
13.703 -14.228 -0.31 0.37
13.781 -14.219 -0.31200001 0.28999999
13.865 -14.216 -0.31299999 0.31
13.956 -14.219 -0.315 0.28999999
14.02 -14.24 -0.31600001 0.30000001
14.096 -14.227 -0.31799999 0.34
14.173 -14.215 -0.31900001 0.28999999
14.273 -14.226 -0.32100001 0.34999999
14.365 -14.227 -0.322 0.34
14.451 -14.223 -0.324 0.34
14.531 -14.212 -0.32499999 0.31999999
14.604 -14.238 -0.32699999 0.27000001
14.697 -14.239 -0.329 0.41999999
14.773 -14.223 -0.33000001 0.34999999
14.866 -14.222 -0.33199999 0.31
14.96 -14.222 -0.33399999 0.36000001
15.045 -14.214 -0.33500001 0.30000001
15.147 -14.22 -0.33700001 0.36000001
15.235 -14.213 -0.33899999 0.28999999
15.307 -14.235 -0.34 0.36000001
15.397 -14.229 -0.34200001 0.30000001
15.491 -14.225 -0.34400001 0.37
15.591 -14.228 -0.34599999 0.28
15.689 -14.227 -0.34799999 0.34999999
15.777 -14.216 -0.34900001 0.31
15.849 -14.235 -0.35100001 0.34
15.946 -14.232 -0.35299999 0.31999999
16.042999 -14.228 -0.354 0.30000001
16.146999 -14.231 -0.35699999 0.28999999
16.247999 -14.229 -0.35800001 0.38999999
16.341 -14.219 -0.36000001 0.28999999
16.438 -14.214 -0.36199999 0.31999999
16.517 -14.236 -0.36399999 0.30000001
16.615999 -14.231 -0.366 0.31
16.709 -14.22 -0.36700001 0.31999999
16.820999 -14.224 -0.37 0.31999999
16.921 -14.217 -0.37200001 0.34
17.027 -14.215 -0.37400001 0.34999999
17.132 -14.212 -0.37599999 0.30000001
17.247 -14.216 -0.37799999 0.28999999
17.327 -14.236 -0.38 0.30000001
17.443001 -14.239 -0.382 0.31999999
17.532 -14.221 -0.384 0.25999999
17.649 -14.224 -0.38600001 0.25999999
17.756001 -14.218 -0.38800001 0.33000001
17.858 -14.208 -0.38999999 0.30000001
17.981001 -14.214 -0.39300001 0.27000001
18.066 -14.235 -0.39500001 0.34999999
18.169001 -14.224 -0.39700001 0.30000001
18.287001 -14.223 -0.39899999 0.31999999
18.393 -14.213 -0.40099999 0.31
18.511 -14.211 -0.40400001 0.30000001
18.622 -14.204 -0.40599999 0.34
18.698 -14.169 -0.40700001 0.37
18.733 -14.149 -0.40700001 0.33000001
18.826 -14.127 -0.40900001 0.27000001
18.941999 -14.121 -0.41100001 0.31
19.065001 -14.12 -0.414 0.30000001
19.201 -14.127 -0.417 0.25
19.441 -14.209 -0.42300001 0.28999999
19.559 -14.201 -0.426 0.33000001
19.667999 -14.233 -0.428 0.31999999
19.806 -14.238 -0.43099999 0.30000001
19.927999 -14.231 -0.43399999 0.27000001
20.046 -14.221 -0.43599999 0.37
20.184 -14.223 -0.43900001 0.25999999
20.320999 -14.224 -0.442 0.34
20.452 -14.22 -0.44499999 0.2
20.572001 -14.255 -0.44800001 0.27000001
20.674 -14.23 -0.44999999 0.27000001
20.829 -14.241 -0.45300001 0.33000001
20.958 -14.232 -0.456 0.27000001
21.089001 -14.224 -0.45899999 0.34
21.235001 -14.226 -0.46200001 0.31999999
21.375999 -14.223 -0.465 0.31999999
21.479 -14.243 -0.46700001 0.31999999
21.635 -14.249 -0.47099999 0.30000001
21.771999 -14.241 -0.47400001 0.34
21.900999 -14.227 -0.47600001 0.28999999
22.054001 -14.228 -0.47999999 0.28999999
22.205 -14.226 -0.48300001 0.28
22.344 -14.217 -0.486 0.28999999
22.469999 -14.247 -0.48899999 0.30000001
22.621 -14.243 -0.49200001 0.28
22.767 -14.235 -0.495 0.28
22.921 -14.231 -0.49900001 0.27000001
23.069 -14.223 -0.50199997 0.28
23.212999 -14.211 -0.505 0.16
17.938999 -10.912 -0.34299999 0.36000001
17.948999 -10.88 -0.34299999 0.31999999
17.929001 -10.79 -0.34099999 0.44999999
17.968 -10.737 -0.34099999 0.36000001
17.990999 -10.675 -0.34099999 0.55000001
18.068001 -10.643 -0.34200001 0.54000002
24.329 -14.219 -0.52999997 0.16
24.493 -14.211 -0.53399998 0.41999999
24.646999 -14.249 -0.53799999 0.2
24.813 -14.241 -0.54100001 0.14
18.559 -10.581 -0.352 0.46000001
18.656 -10.559 -0.354 0.30000001
18.75 -10.535 -0.35600001 0.27000001
25.51 -14.217 -0.55699998 0.23
25.702 -14.218 -0.56099999 0.23999999
25.847 -14.245 -0.565 0.16
26.030001 -14.24 -0.56900001 0.5
26.054001 -14.146 -0.56800002 0.23999999
26.225 -14.133 -0.57200003 0.19
26.398001 -14.119 -0.57599998 0.38999999
26.67 -14.157 -0.583 0.18000001
17.653999 -9.2390003 -0.315 0.47999999
17.639 -9.1960001 -0.31400001 0.51999998
27.579 -14.252 -0.60500002 0.14
27.777 -14.244 -0.60900003 0.38999999
27.971001 -14.232 -0.61400002 0.23
28.181999 -14.228 -0.61900002 0.25
28.368999 -14.211 -0.62300003 0.2
28.58 -14.204 -0.62800002 0.44
28.773001 -14.244 -0.63300002 0.25
28.988001 -14.237 -0.63700002 0.2
29.218 -14.236 -0.64300001 0.37
29.438999 -14.229 -0.648 0.20999999
29.650999 -14.217 -0.653 0.34
29.871 -14.207 -0.65799999 0.22
30.089001 -14.194 -0.66299999 0.14
24.542999 -11.536 -0.50199997 0.30000001
30.533001 -14.228 -0.67400002 0.2
30.778999 -14.225 -0.67900002 0.30000001
31.032 -14.224 -0.685 0.2
31.245001 -14.202 -0.69 0.33000001
31.499001 -14.198 -0.69599998 0.25999999
31.764 -14.198 -0.70300001 0.19
31.962 -14.226 -0.708 0.13
32.210999 -14.216 -0.713 0.16
32.472 -14.209 -0.72000003 0.31
32.743999 -14.205 -0.72600001 0.23999999
33.011002 -14.198 -0.73199999 0.11
33.244999 -14.174 -0.73799998 0.18000001
33.374001 -14.106 -0.74000001 0.20999999
33.564999 -14.124 -0.745 0.18000001
33.901001 -14.14 -0.75300002 0.27000001
34.359001 -14.205 -0.76499999 0.19
34.657001 -14.2 -0.77200001 0.18000001
34.938999 -14.187 -0.77899998 0
35.247002 -14.183 -0.78600001 0.12
35.57 -14.183 -0.79400003 0.28999999
35.835999 -14.224 -0.801 0.11
36.144001 -14.215 -0.80800003 0.090000004
36.487 -14.217 -0.81599998 0.090000004
36.811001 -14.211 -0.824 0.090000004
37.185001 -14.22 -0.833 0
37.491001 -14.202 -0.84100002 0
37.841 -14.199 -0.84899998 0.07
38.174 -14.255 -0.85799998 0.14
38.536999 -14.253 -0.86699998 0
38.870998 -14.238 -0.875 0
39.220001 -14.226 -0.88300002 0
39.498001 -14.186 -0.88999999 0
39.703999 -14.119 -0.89399999 0
40.164001 -14.14 -0.90600002 0
40.671001 -14.247 -0.91900003 0
41.084 -14.247 -0.92900002 0
41.459 -14.231 -0.93800002 0
41.881001 -14.228 -0.949 0
42.271999 -14.213 -0.958 0
42.671001 -14.198 -0.96799999 0
43.082001 -14.184 -0.97799999 0
43.473 -14.237 -0.98799998 0
43.724998 -14.167 -0.99400002 0
43.733002 -14.018 -0.99299997 0
43.762001 -13.876 -0.99199998 0
44.07 -13.822 -1 0
44.243 -13.723 -1.003 0
44.092999 -13.525 -0.99800003 0
44.356998 -13.53 -1.005 0
44.404999 -13.392 -1.005 0
44.526001 -13.276 -1.007 0.039999999
36.868 -10.871 -0.79799998 0.1
36.316002 -10.585 -0.78200001 0.14
36.970001 -10.649 -0.79900002 0.19
38.292 -10.834 -0.833 0
41.792 -11.68 -0.92699999 0
41.900002 -11.569 -0.92900002 0
45.465 -12.397 -1.024 0
43.860001 -11.813 -0.98000002 0
45.851002 -12.193 -1.033 0
44.859001 -11.704 -1.0039999 0.28999999
45.119999 -11.621 -1.01 0.2
45.814999 -11.646 -1.028 0.17
46.296001 -11.613 -1.04 0.1
47.092999 -11.656 -1.0599999 0.16
47.429001 -11.58 -1.068 0
47.673 -11.481 -1.074 0
48.493 -11.517 -1.095 0
41.374001 -9.7620001 -0.90399998 0
41.214001 -9.5880003 -0.89899999 0
41.401001 -9.4940004 -0.903 0
42.553001 -9.6169996 -0.93300003 0
42.786999 -9.5290003 -0.93800002 0
43.075001 -9.4499998 -0.94499999 0
43.418999 -9.3830004 -0.954 0.050000001
43.639 -9.3590002 -0.95899999 0.079999998
43.666 -9.2209997 -0.95899999 0.14
43.699001 -9.085 -0.95899999 0.28999999
43.91 -8.9840002 -0.96399999 0.11
43.945 -8.8479996 -0.96399999 0.15000001
44.063 -8.7279997 -0.96700001 0.28999999
44.234001 -8.6169996 -0.97000003 0
44.353001 -8.5679998 -0.97299999 0
44.826 -8.5129995 -0.98500001 0
46.426998 -8.665 -1.027 0
46.419998 -8.5129995 -1.026 0
46.515999 -8.3800001 -1.028 0.079999998
46.592999 -8.243 -1.029 0.090000004
46.939999 -8.1520004 -1.038 0.079999998
47.636002 -8.1949997 -1.056 0.079999998
48.103001 -8.1199999 -1.067 0.14
48.436001 -8.0190001 -1.076 0
48.766998 -7.9169998 -1.084 0.07
49.594002 -7.8909998 -1.105 0
50.199001 -7.8249998 -1.12 0
50.709999 -7.7410002 -1.133 0
51.382 -7.7610002 -1.15 0
52.011002 -7.6890001 -1.166 0
52.581001 -7.6040001 -1.181 0
53.209 -7.5240002 -1.197 0
53.688 -7.4190001 -1.209 0
54.334999 -7.335 -1.225 0
54.844002 -7.2280002 -1.238 0
55.004002 -7.1609998 -1.242 0
54.528999 -6.23 -1.227 0
54.644001 -6.0689998 -1.229 0
55.716 -3.7179999 -1.251 0
56.007 -3.648 -1.2589999 0
41.293999 -1.916 -0.87300003 0
57.071999 -2.369 -1.285 0
49.176998 0.097000003 -1.37 0
49.387001 0.252 -1.376 0
49.507999 0.40799999 -1.38 0
49.557999 0.56400001 -1.382 0
49.537998 0.72000003 -1.381 0
49.428001 0.87300003 -1.378 0
49.397999 0.94999999 -1.377 0
49.432999 1.1059999 -1.378 0
49.389 1.261 -1.377 0
49.449001 1.418 -1.3789999 0
49.453999 1.573 -1.3789999 0
49.485001 1.73 -1.38 0
49.563 1.8890001 -1.383 0
49.584 1.967 -1.3839999 0
49.605999 2.1240001 -1.385 0
49.651001 2.283 -1.386 0
49.668999 2.4400001 -1.387 0
49.727001 2.599 -1.3890001 0
49.755001 2.757 -1.391 0
49.748001 2.914 -1.391 0
49.778999 2.994 -1.392 0
49.783001 3.151 -1.392 0
49.833 3.312 -1.3940001 0
49.882 3.4719999 -1.396 0
49.917 3.632 -1.398 0
49.904999 3.789 -1.398 0
49.915001 3.948 -1.398 0
49.916 4.1059999 -1.399 0
49.948002 4.1869998 -1.4 0
49.758999 4.329 -1.3940001 0
49.786999 4.4889998 -1.396 0
49.827999 4.6500001 -1.397 0
49.985001 4.823 -1.403 0
50.092999 4.993 -1.4069999 0
50.268002 5.1700001 -1.413 0
50.716 5.7800002 -1.429 0
50.870998 5.9590001 -1.4349999 0
51 6.1370001 -1.4400001 0
51.127998 6.3150001 -1.4450001 0
51.265999 6.414 -1.449 0
52.179001 7.5289998 -1.483 0
52.890999 8.2259998 -1.5089999 0
52.972 8.4090004 -1.512 0
53.073002 8.5959997 -1.516 0
53.217999 8.7910004 -1.522 0
53.313999 8.8929996 -1.526 0
53.379002 9.0760002 -1.529 0
53.507999 9.2709999 -1.534 0
53.630001 9.4659996 -1.539 0
53.665001 9.6459999 -1.541 0
53.782001 9.8409996 -1.546 0
53.897999 10.037 -1.55 0
54.217999 10.185 -1.561 0
54.319 10.381 -1.566 0
53.757 10.449 -1.548 0
53.206001 10.515 -1.5319999 0
52.776001 10.603 -1.5190001 0
52.778 10.776 -1.52 0
52.73 10.939 -1.5190001 0
52.681999 11.102 -1.5190001 0
52.648998 11.181 -1.518 0
52.536999 11.33 -1.516 0
52.388 11.47 -1.512 0
52.18 11.597 -1.507 0
52.132 11.758 -1.506 0
51.831001 11.862 -1.497 0
51.623001 11.985 -1.492 0
51.243 11.982 -1.48 0.07
50.587002 11.996 -1.46 0.14
49.903999 12 -1.438 0.20999999
49.555 12.081 -1.428 0.25
49.208 12.161 -1.418 0.23999999
48.691002 12.196 -1.402 0.25999999
48.473999 12.304 -1.396 0.2
48.290001 12.338 -1.391 0.18000001
48.075001 12.444 -1.385 0.20999999
47.964001 12.576 -1.383 0.2
47.821999 12.7 -1.3789999 0.20999999
47.77 12.847 -1.3789999 0.2
47.646 12.974 -1.376 0.23
47.594002 13.121 -1.376 0.2
47.528999 13.183 -1.374 0.22
47.369999 13.299 -1.37 0.2
47.279999 13.435 -1.369 0.20999999
47.231998 13.581 -1.369 0.20999999
47.134998 13.714 -1.367 0.22
47.047001 13.849 -1.365 0.19
47.008999 13.999 -1.3660001 0.22
47.000999 14.076 -1.3660001 0.18000001
47.028999 14.246 -1.368 0
47.058998 14.416 -1.3710001 0
51.966999 16.096001 -1.5369999 0
52.157001 16.334 -1.545 0.059999999
51.916 16.438 -1.539 0.14
51.494999 16.483 -1.526 0
51.330002 16.52 -1.522 0
51.391998 16.718 -1.525 0
51.837002 17.042999 -1.5420001 0
51.904999 17.246 -1.546 0
51.630001 17.334999 -1.539 0
51.854 17.591 -1.548 0
51.929001 17.799 -1.553 0
52.118 17.955 -1.5599999 0
37.023998 12.893 -1.05 0
35.646 12.54 -1.005 0.079999998
36.702999 13.041 -1.0420001 0.16
36.886002 13.236 -1.05 0.19
35.957001 13.031 -1.02 0
36.521999 13.365 -1.04 0.07
36.901001 13.569 -1.054 0.14
33.471001 12.43 -0.93800002 0.13
33.441002 12.539 -0.93900001 0.14
32.792999 12.414 -0.91799998 0.12
32.928001 12.583 -0.92400002 0.12
31.857 12.29 -0.889 0.13
31.878 12.413 -0.89099997 0.14
32.096001 12.556 -0.89899999 0.12
34.375999 13.571 -0.97899997 0
33.376999 13.298 -0.94599998 0
31.816999 12.794 -0.89300001 0.059999999
31.884001 12.937 -0.89700001 0.14
31.527 12.908 -0.88599998 0.34
31.587999 13.049 -0.88999999 0.20999999
31.329 13.058 -0.88200003 0.25999999
31.205 13.064 -0.87800002 0.28999999
31.129 13.147 -0.87699997 0.36000001
31.018999 13.216 -0.875 0.30000001
31.073 13.354 -0.87800002 0
31.976 13.86 -0.91100001 0
31.919001 13.955 -0.91100001 0
31.865999 14.051 -0.91000003 0
31.766001 14.067 -0.90799999 0
31.752001 14.18 -0.90899998 0
28.856001 12.998 -0.80900002 0
28.777 13.181 -0.80900002 0.039999999
36.810001 17.202999 -1.096 0.86000001
36.796001 17.337 -1.098 0.55000001
34.778 16.521999 -1.028 0.28999999
34.362999 16.458 -1.015 0.2
34.112999 16.469999 -1.008 0.2
33.877998 16.488001 -1.002 0.31
33.625 16.496 -0.99400002 0.2
33.417999 16.459999 -0.98799998 0.19
33.242001 16.503 -0.98400003 0.31
32.958 16.492001 -0.97500002 0.18000001
32.709999 16.496 -0.96799999 0.25999999
32.486 16.511999 -0.96200001 0.20999999
32.238998 16.514 -0.95499998 0.17
32.066002 16.552999 -0.95099998 0.38999999
31.860001 16.51 -0.94400001 0.18000001
31.472 16.434999 -0.93199998 0.36000001
31.202 16.419001 -0.92400002 0.23
31.034 16.455999 -0.92000002 0.23999999
30.857 16.486 -0.91500002 0.34
30.773001 16.566 -0.91399997 0.14
30.308001 16.438999 -0.89899999 0.38999999
30.120001 16.399 -0.89300001 0.22
29.92 16.412001 -0.88800001 0.18000001
29.719 16.423 -0.88200003 0.40000001
29.535999 16.444 -0.87800002 0.25
29.316999 16.443001 -0.87099999 0.2
29.110001 16.448 -0.866 0.41
28.912001 16.455999 -0.86000001 0.23999999
28.742001 16.419001 -0.85500002 0.18000001
28.568001 16.438999 -0.85100001 0.38999999
28.407 16.465 -0.847 0.22
28.198 16.462999 -0.84100002 0.23
28.013 16.473 -0.83600003 0.25999999
27.768999 16.447001 -0.829 0.2
27.591 16.459999 -0.824 0.20999999
31.632 18.933001 -0.97600001 0.27000001
27.327 16.476999 -0.81699997 0.16
21.271999 13.016 -0.59399998 0.44999999
21.193001 13.06 -0.59200001 0.38999999
21.121 13.107 -0.59100002 0.31999999
21.082001 13.174 -0.59100002 0.41
21.316999 13.368 -0.60100001 0.19
28.294001 17.857 -0.866 0.15000001
27.957001 17.768 -0.85600001 0.23
27.924999 17.871 -0.85699999 0.31999999
27.917 17.99 -0.85900003 0.28999999
27.589001 17.900999 -0.84799999 0.20999999
27.42 17.915001 -0.84399998 0.41999999
27.323999 17.913 -0.84100002 0.25
27.316 18.030001 -0.84299999 0.36000001
27.392 18.204 -0.84799999 0.28999999
29.341 19.631001 -0.926 0.18000001
29.195 19.666 -0.92199999 0.33000001
29.040001 19.695 -0.91900003 0.34999999
28.886 19.723 -0.91500002 0.38
28.764 19.705999 -0.912 0.36000001
28.603001 19.728001 -0.90799999 0.31999999
28.445999 19.752001 -0.90399998 0.34
28.295 19.778999 -0.90100002 0.34999999
28.150999 19.811001 -0.89700001 0.36000001
27.997 19.834 -0.89399999 0.34
27.851999 19.863001 -0.89099997 0.36000001
27.709 19.893999 -0.88700002 0.34999999
27.591 19.874001 -0.884 0.36000001
27.438999 19.896 -0.88 0.36000001
27.296 19.923 -0.87699997 0.36000001
27.152 19.950001 -0.87400001 0.36000001
27.007 19.975 -0.87099999 0.38
26.868999 20.003 -0.86799997 0.37
26.726 20.028 -0.86500001 0.34
26.552 19.962999 -0.85900003 0.38
26.466999 20.028999 -0.85799998 0
26.315001 20.045 -0.85399997 0
26.167999 20.063 -0.85100001 0.079999998
26.028999 20.086 -0.84799999 0.079999998
25.891001 20.110001 -0.84500003 0.079999998
25.763 20.141001 -0.84200001 0.090000004
25.642 20.111 -0.83899999 0.079999998
25.52 20.146 -0.83600003 0
25.254 20.195 -0.83099997 0.14
25.141001 20.233999 -0.829 0.34999999
25.017 20.264 -0.82599998 0.31999999
24.882999 20.285999 -0.82300001 0.54000002
24.723 20.219999 -0.81800002 0.28999999
24.594 20.243999 -0.815 0.34
24.472 20.273001 -0.81300002 0.31999999
24.337 20.291 -0.81 0.31
24.215 20.318001 -0.80699998 0.31
24.09 20.343 -0.80500001 0.33000001
23.966999 20.368 -0.80199999 0.31
23.884001 20.363001 -0.80000001 0.30000001
23.782 20.405001 -0.79900002 0.28
23.686001 20.452999 -0.79699999 0.27000001
23.584 20.493999 -0.796 0.22
23.416 20.476999 -0.79100001 0.23999999
23.299 20.504999 -0.78899997 0.56999999
23.184999 20.534 -0.787 0.18000001
18.893 16.792999 -0.60500002 0.34
18.757 16.777 -0.60100001 0.37
18.725 16.855 -0.602 0.37
18.555 16.808001 -0.597 0.31
18.323 16.702999 -0.58899999 0.23999999
18.194 16.691 -0.58600003 0.31
18.153 16.759001 -0.58600003 0.47
17.987 16.658001 -0.57999998 0.30000001
17.938999 16.719 -0.58099997 0.33000001
18.002001 16.882999 -0.58600003 0.38999999
18.01 16.997 -0.588 0.22
17.643 16.756001 -0.574 0.34
17.832001 17.042 -0.58499998 0.31999999
17.466999 16.799 -0.57099998 0.31999999
17.329 16.771999 -0.56800002 0.36000001
17.225 16.724001 -0.56400001 0.25999999
17.114 16.721001 -0.56099999 0.47
17.073 16.785999 -0.56199998 0.28
16.879999 16.702 -0.55599999 0.31999999
16.823999 16.75 -0.55500001 0.44999999
16.747999 16.780001 -0.55400002 0.36000001
16.67 16.808001 -0.55299997 0.25999999
16.540001 16.729 -0.54900002 0.47
16.483999 16.778 -0.54799998 0.28999999
16.400999 16.798 -0.54699999 0.47
16.302 16.802 -0.54500002 0.38
16.254 16.858999 -0.54500002 0.36000001
17.643 18.410999 -0.61199999 0.28999999
17.612 18.495001 -0.61299998 0.50999999
16.448999 17.330999 -0.56 0.34999999
16.292999 17.275 -0.55599999 0.25999999
16.041 17.115 -0.546 0.47
15.901 17.073 -0.542 0.31
15.662 16.924 -0.53399998 0.30000001
15.541 16.899 -0.52999997 0.31
15.415 16.868 -0.52700001 0.34
15.402 16.907 -0.528 0.38999999
15.346 16.952999 -0.528 0.23999999
15.107 16.794001 -0.51899999 0.33000001
15.058 16.846001 -0.51899999 0.41
14.984 16.870001 -0.51800001 0.33000001
14.846 16.820999 -0.514 0.31999999
14.757 16.827 -0.51200002 0.46000001
14.749 16.871 -0.51300001 0.23
11.412 13.145 -0.35299999 0.34
11.333 13.137 -0.35100001 0.44
11.287 13.168 -0.35100001 0.40000001
11.215 13.167 -0.34900001 0.38999999
11.162 13.189 -0.34900001 0.38999999
11.112 13.214 -0.34799999 0.54000002
11.117 13.262 -0.34999999 0.36000001
11.094 13.319 -0.34999999 0.60000002
14.014 16.922001 -0.49900001 0.31999999
13.911 16.906 -0.49599999 0.36000001
13.829 16.914 -0.495 0.46000001
13.784 16.968 -0.495 0.23
13.77 17.059 -0.49700001 0.56
13.793 17.198 -0.50099999 0.30000001
13.573 16.979 -0.491 0.28999999
13.421 16.898001 -0.486 0.27000001
13.295 16.848 -0.48300001 0.44
13.231 16.875 -0.48199999 0.36000001
13.367 17.159 -0.49200001 0.38
13.059 16.872999 -0.479 0.31999999
12.943 16.833 -0.47499999 0.43000001
12.931 16.872 -0.47600001 0.34
12.897 16.937 -0.477 0.28
12.724 16.819 -0.47099999 0.40000001
12.71 16.912001 -0.47299999 0.40000001
12.681 16.983999 -0.47400001 0.38
12.611 17.000999 -0.47299999 0.20999999
12.416 16.849001 -0.46599999 0.44
12.397 16.878 -0.46599999 0.34999999
12.319 16.882999 -0.465 0.47999999
12.247 16.896 -0.46399999 0.30000001
12.173 16.905001 -0.46200001 0.44999999
12.039 16.830999 -0.458 0.30000001
11.976 16.854 -0.45699999 0.31999999
11.896 16.854 -0.456 0.55000001
11.959 16.999001 -0.461 0.31999999
11.924 17.063 -0.46200001 0.25999999
11.748 16.924 -0.45500001 0.36000001
11.623 16.858 -0.45100001 0.34
11.536 16.844999 -0.449 0.40000001
11.553 16.983 -0.45300001 0.41
11.495 17.013 -0.45300001 0.30000001
11.334 16.832001 -0.44499999 0.40000001
11.207 16.757999 -0.44100001 0.38
11.353 17.091 -0.45199999 0.44999999
11.287 17.108 -0.45199999 0.20999999
11.233 17.143999 -0.45199999 0.41
10.951 16.829 -0.43799999 0.28
10.877 16.83 -0.43700001 0.44
10.911 16.941 -0.44100001 0.34
10.799 16.884001 -0.43700001 0.34999999
10.696 16.839001 -0.43399999 0.43000001
10.599 16.802999 -0.43099999 0.33000001
10.596 16.916 -0.43399999 0.27000001
10.506 16.889999 -0.43200001 0.44999999
10.483 16.972 -0.43399999 0.36000001
10.547 17.195 -0.44100001 0.50999999
10.415 17.040001 -0.435 0.23999999
10.228 16.854 -0.42699999 0.43000001
10.211 16.945999 -0.42899999 0.33000001
10.162 16.985001 -0.42899999 0.18000001
10.143 17.075001 -0.43099999 0.58999997
10.103 17.129 -0.43200001 0.23999999
9.9519997 16.995001 -0.426 0.38999999
9.9169998 16.997 -0.42500001 0.28
9.9029999 17.094999 -0.428 0.57999998
9.9169998 17.243999 -0.43200001 0.33000001
9.698 16.987 -0.42199999 0.17
9.5209999 16.799999 -0.414 0.37
9.4709997 16.834999 -0.414 0.31999999
9.3649998 16.771 -0.41 0.41999999
9.3940001 16.882999 -0.414 0.36000001
9.3330002 16.899 -0.414 0.37
9.2860003 16.940001 -0.414 0.38
9.2880001 17.069 -0.41800001 0.36000001
9.1780005 16.995001 -0.414 0.47
9.1199999 17.014999 -0.414 0.25999999
9.0629997 17.038 -0.41299999 0.27000001
8.9650002 16.982 -0.41 0.52999997
8.9209995 16.964001 -0.40900001 0.37
8.8769999 17.01 -0.41 0.34999999
8.8479996 17.083 -0.41100001 0.25
8.7810001 17.086 -0.41100001 0.63999999
8.6230001 16.909 -0.403 0.34999999
8.474 16.747 -0.396 0.27000001
8.4250002 16.781 -0.39700001 0.46000001
8.408 16.813999 -0.39700001 0.27000001
8.3050003 16.74 -0.39399999 0.44999999
8.2250004 16.709999 -0.39199999 0.41
8.2040005 16.799 -0.39399999 0.49000001
8.2880001 17.107 -0.40400001 0.27000001
8.165 16.989 -0.39899999 0.23999999
8.0369997 16.858999 -0.39300001 0.46000001
7.993 16.834 -0.39199999 0.34999999
7.9580002 16.899 -0.39300001 0.38999999
7.9819999 17.087 -0.39899999 0.40000001
7.9429998 17.143999 -0.40000001 0.50999999
10.102 21.966999 -0.56900001 0.27000001
10.061 22.059999 -0.57200003 0.23999999
7.756 17.162001 -0.398 0.44
7.6690001 17.042999 -0.39399999 0.18000001
7.573 16.972 -0.38999999 0.5
7.7140002 17.431999 -0.40599999 0.31
7.6059999 17.336 -0.40200001 0.22
7.5149999 17.277 -0.39899999 0.52999997
7.395 17.148001 -0.39300001 0.31
7.401 17.311001 -0.398 0.40000001
7.46 17.601 -0.40700001 0.20999999
7.4419999 17.635 -0.40799999 0.57999998
7.1040001 16.985001 -0.38499999 0.23
7.0419998 16.987 -0.384 0.27000001
6.9819999 16.993 -0.384 0.51999998
6.9499998 17.066 -0.38499999 0.40000001
7.1690001 17.763 -0.40900001 0.41999999
6.9759998 17.441999 -0.39700001 0.16
7.3590002 18.479 -0.43200001 0.38999999
6.6989999 16.983999 -0.38 0.23999999
6.651 17.018 -0.38 0.47999999
6.6110001 17.073999 -0.382 0.28
6.4320002 16.768 -0.37 0.61000001
6.8189998 17.941 -0.41 0.18000001
6.5339999 17.358 -0.389 0.38
6.3309999 16.902 -0.373 0.47999999
6.5159998 17.561001 -0.39500001 0.46000001
6.1570001 16.757999 -0.36700001 0.23999999
6.3319998 17.400999 -0.38800001 0.25
6.0229998 16.716 -0.36399999 0.31999999
5.9359999 16.639999 -0.361 0.50999999
5.8779998 16.642 -0.361 0.20999999
5.8790002 16.811001 -0.366 0.63999999
6.2049999 17.83 -0.40000001 0.19
5.835 16.941 -0.36899999 0.46000001
5.7259998 16.969999 -0.36899999 0.58999997
5.8319998 17.462999 -0.38499999 0.28999999
5.4840002 16.599001 -0.35499999 0.37
5.5180001 16.878 -0.36399999 0.31999999
5.4840002 16.864 -0.36300001 0.61000001
