# .PCD v0.7 - Point Cloud Data file format
VERSION 0.7
FIELDS x y z intensity
SIZE 4 4 4 4
TYPE F F F F
COUNT 1 1 1 1
WIDTH 1465
HEIGHT 1
VIEWPOINT 0 0 0 1 0 0 0
POINTS 1465
DATA ascii
-45.699001 -4.165 -2.392 0
-45.502998 -4.2909999 -2.381 0
-45.287998 -4.415 -2.3699999 0
-45.075001 -4.5370002 -2.358 0
-44.789001 -4.651 -2.3429999 0
-44.606998 -4.7740002 -2.3340001 0
-44.140999 -4.8639998 -2.3080001 0.12
-42.806 -4.7859998 -2.2320001 0
-42.035 -4.8340001 -2.1889999 0.1
-40.995998 -4.8460002 -2.131 0.18000001
-40.306999 -4.8930001 -2.0929999 0.090000004
-39.875 -4.9679999 -2.069 0
-38.646999 -4.9390001 -2 0.12
-38.500999 -5.0440001 -1.992 0.22
-38.075001 -5.0489998 -1.969 0.25
-37.759998 -5.1279998 -1.952 0
-37.498001 -5.2129998 -1.938 0.13
-31.902 -4.5409999 -1.619 0.090000004
-31.934999 -4.6479998 -1.622 0.14
-32.668999 -4.8590002 -1.665 0.18000001
-33.070999 -5.0250001 -1.688 0.12
-32.534 -5.0479999 -1.659 0.38
-32.418999 -5.0830002 -1.652 0.12
-32.131001 -5.1409998 -1.637 0.15000001
-31.732 -5.1799998 -1.615 0
-30.325001 -5.0489998 -1.535 0
-33.301998 -5.6500001 -1.707 0.14
-29.624001 -5.125 -1.497 0
-29.440001 -5.1880002 -1.487 0
-33.622002 -5.9759998 -1.728 0.07
-29.006001 -5.3470001 -1.465 0
-29.627001 -5.5580001 -1.501 0
-28.926001 -5.5209999 -1.462 0
-33.651001 -6.5279999 -1.735 0
-31.479 -6.211 -1.6109999 0
-31.503 -6.2670002 -1.613 0.11
-24.782 -5.0170002 -1.227 0.11
-24.966 -5.1360002 -1.238 0
-46.092999 -9.6099997 -2.4590001 0
-45.908001 -9.7220001 -2.45 0
-29.723 -6.402 -1.516 0
-29.545 -6.46 -1.507 0
-45.521 -10.014 -2.4319999 0
-30.723 -6.869 -1.577 0
-44.897999 -10.174 -2.4000001 0
-44.308998 -10.187 -2.368 0
-30.886 -7.211 -1.59 0
-43.198002 -10.219 -2.3069999 0
-42.522999 -10.2 -2.27 0
-44.387001 -10.868 -2.381 0
-43.963001 -10.911 -2.358 0
-43.749001 -11.004 -2.348 0
-43.284 -11.032 -2.323 0
-43.062 -11.119 -2.312 0
-42.944 -11.233 -2.3069999 0
-42.960999 -11.31 -2.309 0
-42.867001 -11.429 -2.3050001 0
-42.997002 -11.608 -2.3150001 0
-43.477001 -11.884 -2.345 0
-43.312 -11.986 -2.3380001 0
-42.839001 -12 -2.312 0
-42.584 -12.073 -2.3 0
-42.063999 -12.069 -2.2709999 0
-41.632999 -12.016 -2.247 0
-41.164001 -12.021 -2.2219999 0
-40.630001 -12.004 -2.1919999 0
-40.112999 -11.989 -2.164 0
-43.32 -13.094 -2.3559999 0
-43.153999 -13.192 -2.348 0
-42.758999 -13.219 -2.3280001 0
-42.646999 -13.257 -2.322 0
-42.512001 -13.362 -2.3169999 0
-42.301998 -13.442 -2.3069999 0
-41.863998 -13.448 -2.283 0
-41.598 -13.507 -2.27 0
-41.187 -13.517 -2.2479999 0
-40.647999 -13.411 -2.217 0
-40.437 -13.483 -2.207 0
-39.987 -13.473 -2.1830001 0
-39.551998 -13.465 -2.1589999 0
-39.127998 -13.458 -2.1370001 0
-38.685001 -13.442 -2.1129999 0
-40.717999 -14.363 -2.2379999 0
-40.358002 -14.379 -2.2190001 0
-39.924 -14.366 -2.1960001 0.07
-39.539001 -14.368 -2.1760001 0.079999998
-39.240002 -14.399 -2.1600001 0.16
-38.875999 -14.405 -2.141 0.17
-38.535 -14.416 -2.1229999 0.31999999
-38.234001 -14.441 -2.108 0.20999999
-37.945999 -14.401 -2.092 0.18000001
-37.514999 -14.372 -2.0680001 0.28
-37.176998 -14.377 -2.0510001 0.11
-36.713001 -14.331 -2.0250001 0.17
-36.529999 -14.392 -2.017 0.30000001
-36.089001 -14.35 -1.993 0.25999999
-35.800999 -14.366 -1.978 0.2
-35.577 -14.341 -1.966 0.2
-35.334 -14.372 -1.954 0.20999999
-35.048 -14.385 -1.939 0.18000001
-34.786999 -14.405 -1.926 0.13
-34.435001 -14.387 -1.9069999 0.16
-34.193001 -14.412 -1.895 0.16
-33.966 -14.442 -1.8839999 0.33000001
-33.876999 -14.468 -1.88 0.20999999
-33.682999 -14.51 -1.8710001 0.18000001
-33.299999 -14.47 -1.85 0.17
-33.053001 -14.486 -1.837 0.1
-32.706001 -14.457 -1.819 0.079999998
-33.074001 -14.744 -1.844 0.19
-33.068001 -14.866 -1.847 0.25
-32.853001 -14.831 -1.835 0.1
-32.512001 -14.801 -1.817 0.090000004
-32.070999 -14.722 -1.7920001 0.090000004
-31.898001 -14.764 -1.784 0.079999998
-31.783001 -14.832 -1.78 0.079999998
-31.667 -14.9 -1.776 0.16
-31.406 -14.898 -1.762 0.12
-31.086 -14.806 -1.744 0.13
-31.114 -14.939 -1.749 0.34
-30.959999 -14.986 -1.742 0.2
-30.353001 -14.81 -1.707 0.14
-29.688 -14.602 -1.668 0.14
-30.15 -14.947 -1.7 0.14
-29.724001 -14.852 -1.676 0.25
-29.737 -14.917 -1.678 0.16
-29.788 -15.06 -1.684 0.18000001
-29.628 -15.096 -1.677 0.33000001
-29.587999 -15.193 -1.678 0.22
-29.455 -15.242 -1.6720001 0.25
-29.195999 -15.225 -1.659 0.20999999
-28.992001 -15.235 -1.649 0.31
-28.804001 -15.194 -1.638 0.19
-28.343 -15.065 -1.612 0.18000001
-28.266001 -15.138 -1.61 0.15000001
-28.143999 -15.187 -1.605 0.31999999
-28.073999 -15.263 -1.604 0.23999999
-28.089001 -15.386 -1.608 0.2
-27.945999 -15.422 -1.602 0.28
-27.922001 -15.523 -1.603 0.2
-26.285 -14.669 -1.499 0.30000001
-26.408001 -14.846 -1.51 0.25999999
-27.118999 -15.358 -1.559 0.25
-27.027 -15.418 -1.556 0.19
-27.021999 -15.528 -1.559 0.20999999
-26.948999 -15.599 -1.558 0.27000001
-26.789 -15.619 -1.55 0.23
-26.749001 -15.652 -1.549 0.23
-26.653999 -15.708 -1.546 0
-26.343 -15.637 -1.529 0
-26.457001 -15.817 -1.54 0
-25.250999 -15.206 -1.464 0.07
-25.349001 -15.373 -1.473 0
-25.282 -15.441 -1.472 0.07
-25.094 -15.381 -1.461 0
-24.941999 -15.396 -1.454 0.12
-24.997 -15.538 -1.461 0.25
-23.579 -14.865 -1.373 0.46000001
-23.594 -14.978 -1.377 0.18000001
-23.518 -15.034 -1.375 0.34999999
-23.32 -14.959 -1.364 0.22
-23.268 -15.029 -1.363 0.19
-23.098 -15.023 -1.355 0.44
-23.049 -15.094 -1.355 0
-22.99 -15.159 -1.354 0
-28.896999 -19.176001 -1.758 0
-28.771 -19.223 -1.753 0
-28.700001 -19.24 -1.751 0
-28.549999 -19.27 -1.745 0
-28.469 -19.346001 -1.743 0.07
-28.354 -19.399 -1.739 0
-28.283001 -19.481001 -1.739 0.07
-22.136999 -15.357 -1.3200001 0.2
-28.042 -19.576 -1.7309999 0.18000001
-27.893 -19.538 -1.723 0.1
-27.714001 -19.542 -1.714 0.14
-27.586 -19.582001 -1.71 0.18000001
-27.535999 -19.677 -1.711 0.13
-27.318001 -19.650999 -1.7 0.17
-27.160999 -19.667999 -1.693 0.25
-26.992001 -19.676001 -1.686 0.25
-26.823999 -19.618 -1.676 0.28
-26.695999 -19.653999 -1.671 0.28
-26.601 -19.712 -1.669 0.28999999
-26.459999 -19.737 -1.663 0.28999999
-26.431999 -19.846001 -1.666 0.28
-26.246 -19.836 -1.6569999 0.28999999
-26.007999 -19.784 -1.645 0.28999999
-25.837 -19.719 -1.635 0.28
-25.657 -19.709999 -1.626 0.25
-25.559999 -19.763 -1.624 0.28999999
-25.431999 -19.792 -1.619 0.28999999
-25.239 -19.77 -1.61 0.28999999
-25.083 -19.775 -1.603 0.28
-24.938999 -19.789 -1.597 0.28
-24.864 -19.794001 -1.594 0.28999999
-24.726999 -19.812 -1.589 0.31999999
-24.59 -19.829 -1.5829999 0.31
-24.452999 -19.846001 -1.5779999 0.30000001
-24.326 -19.870001 -1.573 0.31
-24.215 -19.907 -1.569 0.28999999
-24.056 -19.903 -1.562 0.28999999
-23.964001 -19.891001 -1.558 0.30000001
-23.847 -19.92 -1.554 0.28
-23.489 -19.747 -1.5319999 0.27000001
-23.375999 -19.778 -1.528 0.31999999
-23.312 -19.85 -1.528 0.28999999
-23.211 -19.889999 -1.525 0.31999999
-23.153999 -19.968 -1.526 0.31
-23.014999 -19.910999 -1.518 0.28
-22.830999 -19.877001 -1.5089999 0.27000001
-22.729 -19.915001 -1.506 0.28999999
-22.620001 -19.945 -1.502 0.28999999
-22.549999 -20.01 -1.502 0.33000001
-22.466 -20.062 -1.5 0.34
-22.382999 -20.115 -1.499 0.28999999
-22.267 -20.073999 -1.492 0.27000001
-22.239 -20.176001 -1.495 0.28999999
-22.152 -20.224001 -1.493 0.31
-22.077999 -20.284 -1.492 0.30000001
-21.972 -20.313999 -1.489 0.31999999
-21.858 -20.337 -1.485 0.30000001
-21.802 -20.412001 -1.4859999 0.25999999
-21.780001 -20.455999 -1.4859999 0.28999999
-21.686001 -20.497 -1.484 0.22
-21.648001 -20.59 -1.4859999 0.38999999
-21.408001 -20.490999 -1.473 0.16
-21.452999 -20.663 -1.4809999 0.36000001
-21.341999 -20.686001 -1.478 0.23
-21.347 -20.820999 -1.483 0.25999999
-21.215 -20.757 -1.475 0.23
-21.075001 -20.750999 -1.469 0.37
-20.830999 -20.639999 -1.455 0.23
-20.868 -20.806999 -1.4630001 0.20999999
-20.853001 -20.923 -1.467 0.28999999
-20.726999 -20.927 -1.462 0.18000001
-20.298 -20.624001 -1.433 0.27000001
-20.246 -20.701 -1.434 0.31999999
-20.103001 -20.620001 -1.425 0.31
-20.233 -20.882999 -1.441 0.31999999
-20.108999 -20.886 -1.436 0.28999999
-20.191 -21.104 -1.448 0.28
-20.131001 -21.174 -1.449 0.31
-20.042999 -21.214001 -1.447 0.30000001
-20.014 -21.318001 -1.45 0.31999999
-19.568001 -20.909 -1.416 0.22
-19.333 -20.788 -1.402 0.33000001
-19.254999 -20.834999 -1.401 0.33000001
-19.122 -20.822001 -1.395 0.30000001
-19.084999 -20.913 -1.398 0.31
-18.756001 -20.683001 -1.376 0.27000001
-18.709 -20.763 -1.377 0.38
-18.709 -20.827999 -1.38 0.23
-18.565001 -20.799 -1.373 0.34
-18.483 -20.839001 -1.372 0.31999999
-18.403 -20.881001 -1.3710001 0.30000001
-18.427999 -21.042 -1.3789999 0.27000001
-18.486 -21.240999 -1.3890001 0.30000001
-18.461 -21.347 -1.393 0.25
-18.364 -21.304001 -1.387 0.47999999
-18.167 -21.209999 -1.376 0.23999999
-17.677 -20.77 -1.339 0.27000001
-17.612 -20.826 -1.339 0.27000001
-17.351999 -20.65 -1.322 0.27000001
-17.309 -20.731001 -1.324 0.37
-17.325001 -20.882999 -1.331 0.30000001
-17.252001 -20.861 -1.3279999 0.34
-17.198999 -20.931 -1.329 0.31999999
-17.181 -21.042999 -1.3329999 0.25
-17.062 -21.032 -1.3279999 0.2
-17.023001 -21.120001 -1.331 0.31999999
-16.556999 -20.674999 -1.295 0.15000001
-16.413 -20.628 -1.288 0.30000001
-16.344999 -20.608999 -1.284 0.34
-16.237 -20.605 -1.28 0.31
-16.181 -20.667 -1.281 0.20999999
-16.152 -20.764999 -1.285 0.2
-16.129999 -20.871 -1.288 0.20999999
-16.219999 -21.124001 -1.303 0.20999999
-16.427999 -21.533001 -1.3279999 0.28999999
-16.448 -21.631001 -1.334 0.28
-16.332001 -21.618999 -1.329 0.23
-15.435 -20.566999 -1.251 0.31999999
-15.4 -20.655001 -1.2539999 0.34999999
-15.129 -20.426001 -1.234 0.28999999
-15.284 -20.771 -1.255 0.23
-14.923 -20.415001 -1.227 0.30000001
-14.896 -20.445999 -1.227 0.23
-14.906 -20.594999 -1.235 0.5
-14.908 -20.733999 -1.2410001 0.18000001
-14.676 -20.548 -1.225 0.25999999
-14.6 -20.577999 -1.224 0.36000001
-14.42 -20.461 -1.212 0.30000001
-14.292 -20.414 -1.206 0.34
-14.071 -20.167 -1.187 0.22
-13.791 -19.899 -1.166 0.30000001
-13.802 -20.049 -1.173 0.31
-13.662 -19.981001 -1.166 0.28
-13.652 -20.101 -1.171 0.33000001
-13.552 -20.089001 -1.1670001 0.27000001
-13.421 -20.030001 -1.16 0.41
-13.446 -20.136 -1.166 0.27000001
-13.316 -20.079 -1.159 0.17
-13.12 -19.919001 -1.146 0.37
-12.893 -19.709 -1.1289999 0.31
-12.788 -19.683001 -1.124 0.34
-12.68 -19.652 -1.119 0.28
-12.6 -19.664 -1.118 0.33000001
-12.569 -19.683001 -1.118 0.25999999
-12.442 -19.620001 -1.1109999 0.46000001
-12.407 -19.701 -1.113 0.34999999
-12.305 -19.676001 -1.109 0.28
-12.239 -19.708 -1.109 0.31999999
-12.146 -19.697001 -1.105 0.41
-12.056 -19.688999 -1.102 0.27000001
-11.948 -19.582001 -1.094 0.37
-11.895 -19.632999 -1.095 0.31999999
-11.799 -19.614 -1.091 0.34
-11.78 -19.722 -1.096 0.25
-11.671 -19.68 -1.091 0.34
-11.59 -19.684 -1.089 0.46000001
-11.663 -19.950001 -1.104 0.30000001
-11.524 -19.785 -1.092 0.22
-11.373 -19.667999 -1.082 0.46000001
-11.4 -19.857 -1.092 0.30000001
-11.14 -19.548 -1.069 0.28
-11.1 -19.618999 -1.072 0.36000001
-11.165 -19.879999 -1.086 0.30000001
-10.96 -19.660999 -1.0700001 0.34
-10.91 -19.643 -1.068 0.38
-10.781 -19.555 -1.0599999 0.41
-10.852 -19.83 -1.075 0.25999999
-10.747 -19.785 -1.0700001 0.33000001
-10.581 -19.628 -1.058 0.33000001
-10.475 -19.577999 -1.053 0.36000001
-10.561 -19.889 -1.0700001 0.38
-10.54 -19.924999 -1.072 0.28999999
-10.419 -19.847 -1.064 0.34
-10.445 -20.048 -1.075 0.36000001
-10.41 -20.135 -1.079 0.20999999
-10.142 -19.77 -1.053 0.44999999
-10.011 -19.667 -1.045 0.30000001
-9.8629999 -19.528999 -1.034 0.18000001
-10.238 -20.349001 -1.085 0.44999999
-7.6630001 -15.365 -0.76800001 0.28999999
-9.934 -20.056999 -1.063 0.28999999
-9.6000004 -19.540001 -1.028 0.31999999
-9.5710001 -19.636 -1.0319999 0.25999999
-9.3870001 -19.413 -1.016 0.28
-9.3789997 -19.552 -1.023 0.34
-9.3459997 -19.563 -1.023 0.25999999
-9.1800003 -19.372 -1.0089999 0.49000001
-9.2329998 -19.643 -1.024 0.28999999
-6.9850001 -14.996 -0.73199999 0.25
-9.0480003 -19.568001 -1.016 0.25999999
-8.948 -19.511 -1.011 0.46000001
-8.9460001 -19.67 -1.0190001 0.25999999
-8.9549999 -19.771999 -1.024 0.31
-8.7189999 -19.415001 -1 0.33000001
-8.6450005 -19.412001 -0.99900001 0.34
-8.6300001 -19.542999 -1.005 0.34999999
-8.6120005 -19.669001 -1.011 0.31
-8.4759998 -19.527 -1.001 0.38
-8.427 -19.580999 -1.002 0.31999999
-8.3690004 -19.532 -0.99900001 0.41
-8.2419996 -19.403999 -0.98900002 0.33000001
-8.184 -19.437 -0.99000001 0.40000001
-8.1529999 -19.535 -0.99400002 0.28
-8.073 -19.514 -0.991 0.41
-8.0059996 -19.525999 -0.99000001 0.37
-7.9629998 -19.598 -0.99299997 0.31999999
-7.9000001 -19.530001 -0.98799998 0.36000001
-7.8899999 -19.683001 -0.99599999 0.43000001
-7.842 -19.740999 -0.99800003 0.33000001
-7.7420001 -19.671 -0.99199998 0.36000001
-7.6329999 -19.572001 -0.98500001 0.38
-7.5440001 -19.527 -0.98100001 0.38999999
-7.5029998 -19.603001 -0.98400003 0.31999999
-7.447 -19.549999 -0.98000002 0.34
-7.349 -19.476 -0.97399998 0.31999999
-7.2579999 -19.42 -0.96899998 0.23
-7.1789999 -19.393999 -0.96600002 0.5
-7.2360001 -19.737 -0.986 0.27000001
-7.1139998 -19.594999 -0.97600001 0.34
-7.026 -19.544001 -0.97100002 0.34
-6.9809999 -19.514999 -0.96899998 0.43000001
-6.9790001 -19.702999 -0.97899997 0.28999999
-6.9559999 -19.836 -0.986 0.38999999
-6.8850002 -19.833 -0.98400003 0.25999999
-6.7880001 -19.754 -0.97799999 0.50999999
-6.7839999 -19.945999 -0.98799998 0.23
-6.7309999 -19.995001 -0.99000001 0.41
-6.6680002 -19.913 -0.98400003 0.30000001
-6.5869999 -19.877001 -0.98100001 0.28999999
-6.5170002 -19.875 -0.98000002 0.46000001
-6.3509998 -19.577999 -0.96100003 0.25999999
-6.302 -19.636 -0.963 0.23
-6.1199999 -19.281 -0.94099998 0.49000001
-6.1079998 -19.452999 -0.94999999 0.28999999
-6.1589999 -19.721001 -0.96499997 0.34
-6.1240001 -19.827999 -0.97000003 0.31999999
-6.0110002 -19.681 -0.96100003 0.38
-5.8769999 -19.462999 -0.94700003 0.34
-5.8270001 -19.518 -0.949 0.38
-5.756 -19.504 -0.94700003 0.34
-5.7059999 -19.559999 -0.949 0.36000001
-5.7210002 -19.726 -0.958 0.30000001
-5.5900002 -19.504 -0.94400001 0.51999998
-5.5279999 -19.521 -0.94400001 0.20999999
-5.3769999 -19.219999 -0.926 0.31
-5.3429999 -19.330999 -0.93099999 0.43000001
-5.302 -19.419001 -0.935 0.30000001
-5.1570001 -19.127001 -0.917 0.40000001
-5.1750002 -19.312 -0.92799997 0.31
-5.1110001 -19.315001 -0.92699999 0.34
-5.02 -19.216999 -0.92000002 0.38
-4.9349999 -19.139999 -0.91500002 0.31
-4.9159999 -19.316 -0.92400002 0.44999999
-4.8639998 -19.364 -0.926 0.27000001
-4.7529998 -19.177999 -0.91399997 0.34
-4.7059999 -19.249001 -0.917 0.25
-4.6830001 -19.285 -0.91900003 0.38
-4.645 -19.393 -0.92500001 0.44999999
-4.5689998 -19.341999 -0.921 0.28
-4.4489999 -19.105 -0.90600002 0.33000001
-4.3709998 -19.041 -0.90200001 0.38
-4.3850002 -19.378 -0.92000002 0.28
-4.3299999 -19.278 -0.91399997 0.38999999
-4.2750001 -19.316 -0.91600001 0.33000001
-4.184 -19.188999 -0.90799999 0.25
-4.138 -19.273001 -0.912 0.43000001
-4.039 -19.104 -0.90100002 0.31
-3.9679999 -19.063999 -0.898 0.27000001
-3.954 -19.299 -0.91100001 0.38
-3.8989999 -19.181999 -0.90399998 0.44
-3.823 -19.118 -0.89899999 0.30000001
-3.7720001 -19.173 -0.90200001 0.30000001
-3.6960001 -19.104 -0.89700001 0.37
-3.6719999 -19.306 -0.90799999 0.46000001
-3.598 -19.249001 -0.90399998 0.30000001
-3.5450001 -19.297001 -0.90600002 0.31999999
-3.5139999 -19.301001 -0.90600002 0.38999999
-3.4360001 -19.214001 -0.90100002 0.31999999
-3.3789999 -19.242001 -0.90200001 0.28999999
-3.3329999 -19.339001 -0.90700001 0.37
-3.2479999 -19.205999 -0.898 0.38999999
-3.191 -19.236 -0.89999998 0.34999999
-3.1389999 -19.297001 -0.90200001 0.38999999
-3.0829999 -19.336 -0.90399998 0.38
-3.03 -19.197001 -0.89600003 0.31
-2.9779999 -19.261999 -0.89899999 0.43000001
-2.9159999 -19.264999 -0.89899999 0.41999999
-2.8540001 -19.26 -0.898 0.31999999
-2.7880001 -19.233 -0.89600003 0.36000001
-2.723 -19.207001 -0.89399999 0.47999999
-2.704 -19.290001 -0.898 0.30000001
-2.6389999 -19.267 -0.89700001 0.31999999
-2.5769999 -19.264999 -0.89600003 0.33000001
-2.507 -19.204 -0.89200002 0.36000001
-2.4619999 -19.332001 -0.89899999 0.38999999
-2.4089999 -19.400999 -0.90200001 0.46000001
-2.3410001 -19.353001 -0.89899999 0.33000001
-2.3139999 -19.381001 -0.90100002 0.34
-2.2550001 -19.402 -0.90100002 0.36000001
-2.181 -19.302 -0.89499998 0.31999999
-2.1210001 -19.309999 -0.89499998 0.47999999
-2.0599999 -19.311001 -0.89499998 0.28
-2.0109999 -19.429001 -0.90100002 0.31999999
-1.9400001 -19.341 -0.89600003 0.37
-1.9069999 -19.313 -0.89399999 0.46000001
-1.851 -19.372 -0.89700001 0.33000001
-1.7869999 -19.346001 -0.89600003 0.33000001
-1.719 -19.268 -0.89099997 0.34
-1.6619999 -19.316999 -0.89300001 0.34999999
-1.5930001 -19.225 -0.88800001 0.38
-1.5470001 -19.399 -0.89700001 0.38999999
-1.52 -19.448999 -0.89999998 0.37
-1.461 -19.486 -0.90200001 0.38
-1.398 -19.466 -0.90100002 0.28999999
-1.326 -19.311001 -0.89200002 0.40000001
-1.277 -19.497 -0.90200001 0.36000001
-1.211 -19.423 -0.89700001 0.38999999
-1.161 -19.610001 -0.90799999 0.30000001
-1.122 -19.468 -0.89999998 0.36000001
-1.064 -19.518999 -0.90200001 0.34
-1.003 -19.545 -0.90399998 0.38
-0.94199997 -19.540001 -0.903 0.33000001
-0.875 -19.427 -0.89700001 0.38999999
-0.81699997 -19.497 -0.89999998 0.33000001
-0.75599998 -19.506001 -0.90100002 0.41
-0.727 -19.555 -0.903 0.31999999
-0.66399997 -19.525 -0.90200001 0.41999999
-0.60100001 -19.452999 -0.898 0.31999999
-0.53899997 -19.431 -0.89600003 0.38999999
-0.47799999 -19.437 -0.89600003 0.30000001
-0.417 -19.427999 -0.89600003 0.36000001
-0.35699999 -19.493 -0.89899999 0.41999999
-0.329 -19.673 -0.91000003 0.34
-0.266 -19.591999 -0.90499997 0.38999999
-0.204 -19.537001 -0.90200001 0.30000001
-0.142 -19.506001 -0.89999998 0.31
-0.081 -19.452 -0.89700001 0.44999999
-0.02 -19.502001 -0.89999998 0.34
0.041000001 -19.6 -0.90499997 0.31999999
0.103 -19.535999 -0.90200001 0.41
0.133 -19.431999 -0.89600003 0.38
0.19400001 -19.393999 -0.89399999 0.36000001
0.255 -19.459 -0.89700001 0
0.075999998 -3.335 0.014 0
0.086000003 -3.293 0.017000001 0
0.096000001 -3.2969999 0.016000001 0
0.101 -3.2850001 0.017000001 0
0.11 -3.25 0.018999999 0
0.12 -3.2479999 0.018999999 0.07
0.13 -3.2320001 0.02 0.079999998
0.14 -3.233 0.02 0.090000004
0.15000001 -3.217 0.021 0.14
0.16 -3.21 0.021 0.1
0.16500001 -3.2160001 0.021 0.15000001
0.175 -3.2019999 0.022 0.1
0.185 -3.2030001 0.021 0.14
0.19400001 -3.1960001 0.022 0.1
0.205 -3.198 0.022 0.14
0.214 -3.191 0.022 0.1
0.22400001 -3.1889999 0.022 0.16
0.23 -3.194 0.022 0.16
0.23899999 -3.1889999 0.022 0.16
0.249 -3.1849999 0.022 0.2
0.25999999 -3.1919999 0.022 0
0.273 -3.2309999 0.02 0
0.28200001 -3.214 0.02 0
0.29800001 -3.289 0.016000001 0
0.31099999 -3.3239999 0.014 0
0.31799999 -3.345 0.013 0
0.331 -3.368 0.012 0
0.34099999 -3.3570001 0.012 0
0.352 -3.368 0.011 0
0.36199999 -3.3570001 0.012 0
0.37400001 -3.3729999 0.011 0
0.377 -3.3510001 0.012 0
0.38800001 -3.352 0.012 0
0.40000001 -3.358 0.012 0
0.41100001 -3.3610001 0.011 0
0.42699999 -3.4089999 0.0089999996 0
2.47 -19.718 -0.921 0.16
2.4920001 -19.646 -0.917 0.23
2.5510001 -19.615 -0.91500002 0.31
2.6140001 -19.615 -0.91600001 0.33000001
2.6800001 -19.643999 -0.91799998 0.47999999
2.756 -19.736 -0.92400002 0.34
2.7980001 -19.587 -0.91600001 0.30000001
2.878 -19.705 -0.92299998 0.38999999
2.9159999 -19.747999 -0.926 0.33000001
2.9679999 -19.669001 -0.92199999 0.38999999
3.052 -19.806 -0.93000001 0.31999999
3.098 -19.691999 -0.92400002 0.41
3.164 -19.707001 -0.926 0.31999999
3.2260001 -19.701 -0.926 0.41
3.3010001 -19.771999 -0.93000001 0.41
3.3629999 -19.948 -0.94099998 0.30000001
3.3829999 -19.687 -0.92699999 0.40000001
2.73 -15.565 -0.69099998 0.25999999
3.5320001 -19.811001 -0.935 0.34
3.6040001 -19.851 -0.93800002 0.30000001
3.6689999 -19.857 -0.93900001 0.38
3.7449999 -19.916 -0.94300002 0.41
3.7750001 -19.902 -0.94199997 0.30000001
3.859 -20.004 -0.949 0.38999999
3.911 -19.937 -0.94599998 0.34
3.9760001 -19.938 -0.94700003 0.40000001
4.0040002 -19.754 -0.93699998 0.38
4.0749998 -19.785999 -0.93900001 0.34
4.158 -19.868999 -0.94499999 0.38999999
4.1890001 -19.864 -0.94499999 0.34999999
4.2620001 -19.9 -0.94800001 0.43000001
4.3080001 -19.808001 -0.94300002 0.33000001
4.3720002 -19.806 -0.94400001 0.31
4.4520001 -19.872 -0.949 0.43000001
4.5029998 -19.808001 -0.94599998 0.38
4.5749998 -19.836 -0.94800001 0.37
4.6170001 -19.875999 -0.95099998 0.38999999
4.6750002 -19.84 -0.94999999 0.36000001
4.7160001 -19.736 -0.94400001 0.31999999
4.7859998 -19.754 -0.94599998 0.38999999
4.8530002 -19.76 -0.94800001 0.41999999
4.9050002 -19.705999 -0.94499999 0.33000001
4.9619999 -19.669001 -0.94400001 0.38999999
5.0430002 -19.861 -0.95599997 0.40000001
5.125 -19.922001 -0.95999998 0.28999999
5.165 -19.819 -0.95499998 0.31999999
5.25 -19.889 -0.95999998 0.34
5.336 -19.962 -0.96499997 0.33000001
5.4190001 -20.018 -0.97000003 0.44
5.5640001 -20.302999 -0.98699999 0.34999999
5.527 -20.044001 -0.97299999 0.25
5.5250001 -19.790001 -0.95899999 0.37
5.6199999 -19.892 -0.96600002 0.40000001
5.724 -20.018 -0.97399998 0.27000001
5.7919998 -20.017 -0.97500002 0.38999999
5.8000002 -19.811001 -0.96399999 0.36000001
5.8769999 -19.844 -0.96700001 0.33000001
5.921 -19.879 -0.97000003 0.46000001
6.006 -19.933001 -0.97399998 0.34
6.0949998 -20.002001 -0.97899997 0.31
6.0879998 -19.756001 -0.96600002 0.38999999
6.2069998 -19.922001 -0.977 0.27000001
6.2750001 -19.917 -0.97799999 0.41999999
6.3470001 -19.927999 -0.98000002 0.36000001
6.3800001 -19.924 -0.98000002 0.38
6.474 -20 -0.986 0.30000001
6.526 -19.948 -0.98400003 0.36000001
6.5739999 -19.882999 -0.98100001 0.41
6.651 -19.903999 -0.98400003 0.38
6.684 -19.796 -0.97799999 0.37
6.7690001 -19.843 -0.98299998 0.30000001
6.8109999 -19.865 -0.98400003 0.38
6.8779998 -19.855 -0.98500001 0.44999999
6.9510002 -19.865 -0.98699999 0.27000001
7.0710001 -20.007 -0.99699998 0.47999999
7.1999998 -20.171 -1.008 0.31
7.3400002 -20.360001 -1.021 0.25
7.276 -19.986 -1 0.38
7.316 -19.997 -1.001 0.34999999
7.414 -20.07 -1.007 0.31999999
7.4520001 -19.979 -1.003 0.36000001
7.6149998 -20.223 -1.0190001 0.30000001
7.6100001 -20.018 -1.008 0.41
7.7579999 -20.216 -1.021 0.30000001
7.8099999 -20.160999 -1.02 0.38
7.8540001 -20.183001 -1.022 0.31999999
7.9450002 -20.228001 -1.026 0.41999999
8.0299997 -20.257 -1.029 0.37
8.1020002 -20.254 -1.031 0.34
8.1300001 -20.138 -1.025 0.31999999
8.2069998 -20.146999 -1.027 0.43000001
8.276 -20.225 -1.033 0.36000001
8.382 -20.302 -1.039 0.20999999
8.4440002 -20.271999 -1.039 0.31
8.5279999 -20.295 -1.0420001 0.50999999
8.6009998 -20.289 -1.043 0.34999999
8.651 -20.23 -1.041 0.19
8.6789999 -20.120001 -1.036 0.31
8.7709999 -20.159 -1.04 0.34999999
8.8140001 -20.171 -1.0420001 0.34
8.8660002 -20.118999 -1.04 0.40000001
8.941 -20.117001 -1.0420001 0.27000001
9.0559998 -20.205 -1.049 0.34
7.2410002 -16.007999 -0.79000002 0.38999999
9.1999998 -20.186001 -1.051 0.2
9.2559996 -20.141001 -1.05 0.37
9.2860003 -20.122999 -1.05 0.34999999
9.3369999 -20.066 -1.048 0.33000001
9.4370003 -20.115999 -1.053 0.30000001
9.5340004 -20.159 -1.058 0.46000001
9.5939999 -20.122 -1.057 0.22
9.6730003 -20.124001 -1.0599999 0.28
9.7659998 -20.155001 -1.063 0.28999999
9.7740002 -20.091999 -1.0599999 0.34
9.8669996 -20.121 -1.064 0.38999999
9.9460001 -20.122 -1.066 0.33000001
10.026 -20.125999 -1.068 0.23999999
10.076 -20.068001 -1.067 0.52999997
6.9530001 -13.722 -0.667 0.18000001
6.9390001 -13.64 -0.662 0.20999999
6.973 -13.602 -0.66100001 0.23999999
7.0180001 -13.583 -0.662 0.41999999
7.0500002 -13.542 -0.66000003 0.5
7.1110001 -13.555 -0.66299999 0.46000001
7.1700001 -13.563 -0.66500002 0.30000001
10.65 -20.021 -1.079 0.19
10.736 -20.030001 -1.082 0.36000001
10.797 -20.069 -1.086 0.36000001
10.878 -20.068001 -1.0880001 0.36000001
10.957 -20.063999 -1.09 0.30000001
11.036 -20.056999 -1.091 0.34
11.117 -20.056 -1.094 0.37
11.196 -20.049 -1.095 0.38
11.262 -20.018999 -1.096 0.27000001
11.302 -20.017 -1.097 0.36000001
11.37 -19.990999 -1.097 0.30000001
11.43 -19.950001 -1.097 0.33000001
11.51 -19.944 -1.099 0.38
11.593 -19.944 -1.101 0.25999999
11.658 -19.910999 -1.102 0.41
11.757 -19.936001 -1.1059999 0.25999999
11.802 -19.940001 -1.107 0.28999999
11.875 -19.922001 -1.108 0.23
11.934 -19.877001 -1.108 0.16
12.019 -19.877001 -1.11 0.47999999
12.085 -19.846001 -1.1109999 0.19
12.159 -19.827 -1.112 0.38
12.211 -19.841999 -1.114 0.23
12.282 -19.816999 -1.115 0.15000001
12.347 -19.783001 -1.1160001 0.44999999
12.433 -19.782 -1.118 0.23999999
12.498 -19.747999 -1.118 0.18000001
12.583 -19.745001 -1.1210001 0.28999999
12.654 -19.719 -1.122 0.18000001
12.681 -19.693001 -1.1210001 0.28
12.766 -19.690001 -1.124 0.37
12.82 -19.638 -1.123 0.16
12.886 -19.604 -1.124 0.41
12.956 -19.575001 -1.124 0.22
13.023 -19.542 -1.125 0.14
13.082 -19.497999 -1.125 0.14
13.134 -19.509001 -1.127 0.17
13.197 -19.471001 -1.127 0.23
13.251 -19.42 -1.126 0.11
13.327 -19.399 -1.128 0.090000004
13.392 -19.364 -1.128 0.14
13.45 -19.316999 -1.128 0.090000004
13.518 -19.285999 -1.1289999 0.14
13.559 -19.278999 -1.13 0.1
13.615 -19.23 -1.1289999 0.15000001
13.661 -19.167999 -1.128 0.30000001
13.746 -19.159 -1.13 0.11
13.808 -19.118999 -1.131 0.17
13.875 -19.084999 -1.131 0.12
13.951 -19.062 -1.133 0.15000001
13.991 -19.055 -1.1339999 0.1
14.076 -19.045 -1.136 0.14
14.137 -19.002001 -1.136 0.13
14.202 -18.965 -1.137 0.16
14.288 -18.955999 -1.1390001 0.23
14.336 -18.895 -1.138 0.2
14.429 -18.893999 -1.141 0.28
14.461 -18.875 -1.141 0.16
14.546 -18.862 -1.1440001 0.14
14.618 -18.834 -1.145 0.15000001
14.674 -18.783001 -1.145 0.2
14.751 -18.761 -1.146 0.20999999
14.809 -18.712999 -1.146 0.18000001
14.897 -18.702999 -1.149 0.31
14.938 -18.694 -1.15 0.17
15.027 -18.684 -1.153 0.36000001
15.083 -18.634001 -1.153 0.22
15.169 -18.621 -1.155 0.12
15.245 -18.594999 -1.1569999 0.17
15.313 -18.559 -1.158 0.28
15.401 -18.546 -1.16 0.25
15.426 -18.517 -1.16 0.2
15.507 -18.496 -1.1619999 0.17
15.568 -18.451 -1.1619999 0.2
15.647 -18.426001 -1.164 0.28
15.723 -18.398001 -1.165 0.11
13.914 -16.174 -1.003 0.079999998
14.022 -16.197001 -1.008 0.14
14.08 -16.212 -1.011 0.16
14.142 -16.18 -1.012 0.23999999
14.27 -16.224001 -1.0190001 0.13
14.371 -16.236 -1.023 0.36000001
14.445 -16.216 -1.025 0.22
14.506 -16.183001 -1.026 0.28
14.596 -16.18 -1.029 0.28
14.588 -16.120001 -1.026 0.30000001
14.665 -16.104 -1.029 0.36000001
14.705 -16.046 -1.028 0.31999999
14.704 -15.944 -1.023 0.31999999
14.776 -15.921 -1.025 0.30000001
14.847 -15.898 -1.027 0.36000001
14.899 -15.852 -1.027 0.34999999
14.843 -15.743 -1.02 0.28999999
14.88 -15.683 -1.0190001 0.31999999
14.91 -15.616 -1.018 0.27000001
14.938 -15.548 -1.016 0.34
14.948 -15.461 -1.013 0.28999999
15.076 -15.495 -1.0190001 0.28999999
15.093 -15.464 -1.0190001 0.36000001
15.037 -15.31 -1.01 0.34
15.079 -15.257 -1.01 0.31
15.093 -15.175 -1.007 0.38
15.341 -15.329 -1.023 0.36000001
15.394 -15.285 -1.024 0.27000001
15.459 -15.253 -1.025 0.25999999
15.595 -15.291 -1.0319999 0.28
15.692 -15.338 -1.038 0.31999999
15.793 -15.34 -1.0420001 0.38
16.014 -15.458 -1.056 0.23999999
16.097 -15.441 -1.058 0.36000001
16.035 -15.284 -1.05 0.34999999
16.09 -15.241 -1.05 0.28
16.023001 -15.082 -1.041 0.31
16.164 -15.167 -1.05 0.36000001
16.132 -15.042 -1.044 0.34
16.084999 -14.904 -1.0369999 0.23999999
16.278999 -14.989 -1.048 0.31999999
16.226 -14.846 -1.041 0.30000001
16.311001 -14.83 -1.043 0.36000001
16.365999 -14.786 -1.044 0.31999999
16.469 -14.833 -1.05 0.23
16.650999 -14.902 -1.061 0.31999999
16.681 -14.835 -1.059 0.33000001
16.686001 -14.746 -1.056 0.34999999
16.636 -14.609 -1.049 0.31999999
16.669001 -14.545 -1.048 0.23
16.941999 -14.69 -1.0650001 0.30000001
16.586 -14.335 -1.0369999 0.36000001
16.837 -14.46 -1.052 0.20999999
16.563 -14.135 -1.028 0.27000001
16.593 -14.07 -1.027 0.46000001
16.799999 -14.155 -1.039 0.23999999
16.504999 -13.818 -1.0140001 0.33000001
16.625 -13.83 -1.02 0.36000001
16.597 -13.763 -1.016 0.20999999
16.711 -13.769 -1.021 0.41999999
16.764 -13.724 -1.022 0.37
17.309999 -13.992 -1.056 0.57999998
17.132999 -13.759 -1.04 0.22
17.77 -14.226 -1.084 0.28999999
17.780001 -14.143 -1.082 0.28
17.84 -14.099 -1.0829999 0.18000001
17.521 -13.757 -1.057 0.19
17.690001 -13.8 -1.066 0
6.6700001 -5.1490002 -0.27399999 0.07
6.6690001 -5.1149998 -0.27200001 0.15000001
6.6690001 -5.098 -0.27200001 0.31
6.6849999 -5.0770001 -0.27200001 0.23
6.6859999 -5.0450001 -0.271 0.25
6.697 -5.0209999 -0.27000001 0.28999999
6.7189999 -5.0040002 -0.271 0.40000001
6.73 -4.98 -0.271 0.34999999
6.7410002 -4.9549999 -0.27000001 0.25
6.763 -4.9549999 -0.271 0.22
6.7849998 -4.9380002 -0.27200001 0
6.8379998 -4.9439998 -0.27399999 0
6.8990002 -4.9549999 -0.27700001 0.090000004
18.919001 -13.555 -1.113 0.20999999
19.122999 -13.611 -1.124 0.31
19.284 -13.635 -1.132 0.31999999
19.216 -13.541 -1.126 0.27000001
19.530001 -13.671 -1.145 0.30000001
19.614 -13.638 -1.148 0.37
19.698999 -13.606 -1.151 0.34
19.701 -13.516 -1.148 0.31
19.773001 -13.474 -1.15 0.33000001
20.063 -13.58 -1.1670001 0.25
20.17 -13.607 -1.173 0.34999999
20.243 -13.563 -1.175 0.31
20.42 -13.59 -1.184 0.31
20.476 -13.534 -1.1849999 0.31
20.566 -13.502 -1.188 0.31999999
20.676001 -13.481 -1.193 0.30000001
20.775999 -13.454 -1.197 0.36000001
20.794001 -13.419 -1.196 0.31
20.934999 -13.417 -1.2029999 0.27000001
21.07 -13.41 -1.209 0.34999999
21.243999 -13.427 -1.2180001 0.28999999
21.327999 -13.387 -1.221 0.34
21.329 -13.295 -1.2180001 0.27000001
21.459 -13.282 -1.224 0.28999999
21.697001 -13.383 -1.238 0.30000001
21.698999 -13.29 -1.2359999 0.34
21.75 -13.228 -1.2359999 0.31
21.898001 -13.223 -1.243 0.31
21.982 -13.18 -1.2460001 0.31999999
22.264999 -13.255 -1.262 0.25999999
22.42 -13.253 -1.27 0.28
22.492001 -13.248 -1.273 0.31999999
22.643999 -13.242 -1.28 0.31
22.870001 -13.278 -1.2920001 0.25
22.855 -13.173 -1.289 0.30000001
22.969 -13.143 -1.293 0.25
23.277 -13.223 -1.311 0.31
23.346001 -13.165 -1.313 0.28999999
23.43 -13.164 -1.317 0.28999999
23.579 -13.151 -1.324 0.31
23.701 -13.121 -1.329 0.23
23.787001 -13.072 -1.332 0.25
23.944 -13.06 -1.339 0.18000001
24.097 -13.046 -1.346 0.34999999
24.27 -13.041 -1.355 0.16
24.445 -13.086 -1.365 0.31999999
24.556 -13.047 -1.369 0.31
24.65 -12.997 -1.373 0.20999999
24.775999 -12.964 -1.378 0.25999999
24.983 -12.973 -1.3890001 0
24.983 -12.874 -1.386 0
23.243 -11.882 -1.273 0
23.358999 -11.896 -1.279 0.07
23.532 -11.891 -1.288 0.090000004
23.712999 -11.89 -1.2970001 0.090000004
23.945 -11.912 -1.309 0
24.205 -11.947 -1.323 0
24.438999 -11.967 -1.336 0
24.638 -11.969 -1.346 0
24.815001 -12.007 -1.3559999 0.11
24.941 -11.972 -1.3609999 0.13
24.927999 -11.869 -1.358 0.34
24.996 -11.805 -1.36 0.17
25.024 -11.722 -1.359 0.090000004
25.017 -11.624 -1.357 0.14
25.042999 -11.54 -1.3559999 0.090000004
25.023001 -11.483 -1.354 0.14
25.031 -11.392 -1.352 0.090000004
25.065001 -11.312 -1.352 0
25.052999 -11.212 -1.349 0
24.995001 -11.092 -1.3430001 0
23.785999 -10.465 -1.266 0
23.943001 -10.444 -1.274 0
24.183001 -10.504 -1.288 0
24.421 -10.517 -1.3 0
24.659 -10.528 -1.313 0
24.865 -10.524 -1.324 0
25.073 -10.519 -1.334 0
25.347 -10.541 -1.349 0
25.539 -10.527 -1.359 0
25.771 -10.576 -1.372 0
25.837999 -10.508 -1.374 0
25.886999 -10.434 -1.375 0
25.877001 -10.335 -1.373 0
25.938999 -10.266 -1.374 0
25.917999 -10.163 -1.3710001 0
25.775999 -10.014 -1.3609999 0.07
25.839001 -9.9919996 -1.363 0.090000004
25.833 -9.8959999 -1.3609999 0.14
25.888 -9.8240004 -1.363 0.22
25.937 -9.75 -1.364 0.25
26.030001 -9.691 -1.367 0.23999999
26.094999 -9.6230001 -1.37 0.11
26.209999 -9.5719995 -1.375 0.16
26.264 -9.5450001 -1.377 0.12
26.437 -9.5139999 -1.386 0.14
26.546 -9.4589996 -1.39 0.12
26.551001 -9.3669996 -1.3890001 0.16
26.742001 -9.3400002 -1.399 0.17
26.879 -9.2930002 -1.405 0
27.072001 -9.2650003 -1.415 0
25.311001 -8.6160002 -1.309 0
25.481001 -8.585 -1.317 0.07
25.773001 -8.5939999 -1.3329999 0
26.124001 -8.6199999 -1.352 0
26.476 -8.6440001 -1.372 0
26.726999 -8.6330004 -1.385 0
27.098 -8.6599998 -1.406 0
27.5 -8.7410002 -1.429 0
27.702 -8.71 -1.439 0.14
27.85 -8.6599998 -1.446 0.18000001
28.069 -8.632 -1.457 0.23
28.174999 -8.5679998 -1.462 0.25
28.201 -8.4790001 -1.462 0.2
28.266001 -8.4020004 -1.464 0
28.082001 -8.2989998 -1.4529999 0
28.080999 -8.2030001 -1.451 0
19.666 -5.6700001 -0.954 0.059999999
28.148001 -8.0310001 -1.452 0.13
19.823999 -5.5809999 -0.96200001 0.17
21.620001 -6.0159998 -1.066 0.1
21.489 -5.9060001 -1.057 0.16
22.639999 -6.1090002 -1.123 0.19
22.15 -5.902 -1.0930001 0.17
21.767 -5.7259998 -1.0700001 0.22
21.864 -5.678 -1.074 0.36000001
22.323 -5.723 -1.1 0.15000001
22.368 -5.6599998 -1.102 0.30000001
22.804001 -5.7329998 -1.127 0.14
22.737 -5.6399999 -1.122 0.20999999
22.766001 -5.5710001 -1.122 0.46000001
22.865 -5.52 -1.127 0.2
23.219999 -5.5289998 -1.147 0.14
23.740999 -5.5739999 -1.176 0.37
24.054001 -5.5689998 -1.193 0.18000001
24.268999 -5.5780001 -1.205 0.18000001
24.921 -5.6469998 -1.242 0.46000001
25.319 -5.6539998 -1.2640001 0.23999999
25.757 -5.6669998 -1.288 0.25
26.148001 -5.6669998 -1.3099999 0.28999999
26.415001 -5.6389999 -1.324 0.30000001
26.698999 -5.6560001 -1.34 0.22
26.871 -5.6040001 -1.349 0.41999999
26.726999 -5.4860001 -1.34 0.16
14.285 -2.8269999 -0.62 0.94
14.265 -2.776 -0.61900002 0.99000001
14.271 -2.7309999 -0.61900002 0.99000001
14.276 -2.6849999 -0.61799997 0.99000001
14.272 -2.661 -0.61799997 0.99000001
13.87 -2.54 -0.59399998 0.81999999
14.196 -2.5550001 -0.61299998 0
27.263 -4.842 -1.363 0.12
27.320999 -4.7639999 -1.365 0.1
27.391001 -4.6880002 -1.368 0.15000001
27.443001 -4.6079998 -1.37 0.1
27.493 -4.572 -1.373 0.15000001
27.570999 -4.4959998 -1.377 0.1
27.622 -4.415 -1.3789999 0.15000001
27.688999 -4.3369999 -1.382 0.16
27.76 -4.2589998 -1.385 0.17
27.827999 -4.1799998 -1.388 0.16
27.907 -4.1020002 -1.392 0
24.507 -3.5599999 -1.197 0.13
28.046 -3.9879999 -1.399 0.12
26.096001 -3.5409999 -1.286 0.40000001
27.323999 -3.622 -1.3559999 0.23999999
29.502001 -3.8180001 -1.479 0.20999999
30.068001 -3.8440001 -1.511 0.23
30.084 -3.75 -1.511 0
30.104 -3.6570001 -1.512 0
30.083 -3.5580001 -1.51 0
30.077 -3.4619999 -1.5089999 0
30.077 -3.3659999 -1.508 0
30.059999 -3.2690001 -1.507 0
30.093 -3.224 -1.508 0
30.097 -3.1289999 -1.508 0
30.111 -3.0350001 -1.508 0
30.114 -2.9400001 -1.508 0
30.105 -2.8429999 -1.507 0
30.110001 -2.7479999 -1.507 0
30.115 -2.654 -1.506 0
30.094999 -2.6040001 -1.505 0
30.087 -2.5079999 -1.5039999 0
30.113001 -2.415 -1.505 0
30.104 -2.319 -1.5039999 0
30.136999 -2.227 -1.506 0
30.094 -2.128 -1.503 0
30.121 -2.0350001 -1.5039999 0
30.075001 -1.937 -1.501 0
30.118 -1.892 -1.503 0
30.086 -1.796 -1.501 0
30.094999 -1.701 -1.501 0
30.105 -1.607 -1.502 0
30.099001 -1.512 -1.501 0
30.106001 -1.4170001 -1.501 0
30.110001 -1.323 -1.501 0
30.122 -1.276 -1.502 0
30.125999 -1.181 -1.502 0
30.128 -1.087 -1.502 0
30.143 -0.99199998 -1.502 0
30.152 -0.898 -1.503 0
30.113001 -0.80199999 -1.5 0
30.076 -0.75400001 -1.498 0
30.063999 -0.65899998 -1.497 0
30.052 -0.56400001 -1.497 0
30.002001 -0.46900001 -1.494 0
29.961 -0.37400001 -1.4910001 0
29.92 -0.27900001 -1.489 0
29.879 -0.185 -1.4859999 0
29.84 -0.138 -1.484 0
29.796 -0.044 -1.482 0
27.398001 0.077 -1.492 0.14
27.372 0.163 -1.4910001 0.090000004
27.382999 0.206 -1.4910001 0
27.325001 0.29100001 -1.488 0
27.323999 0.377 -1.488 0
27.337999 0.463 -1.489 0
27.375 0.55000001 -1.4910001 0
27.358999 0.63599998 -1.49 0
27.337 0.72100002 -1.489 0
27.332001 0.764 -1.489 0.11
27.341 0.85000002 -1.489 0.11
27.294001 0.935 -1.487 0.15000001
27.267 1.0190001 -1.485 0.17
27.284 1.1059999 -1.4859999 0.28999999
27.252001 1.1900001 -1.485 0.19
27.223 1.232 -1.483 0.31999999
27.197001 1.316 -1.482 0.2
27.181999 1.401 -1.4809999 0.18000001
27.190001 1.487 -1.482 0.1
27.212999 1.574 -1.483 0.16
27.195999 1.659 -1.483 0.1
27.173 1.743 -1.482 0.16
27.191999 1.7869999 -1.483 0.14
27.188 1.873 -1.483 0.31
27.188 1.959 -1.483 0.22
27.156 2.0420001 -1.482 0.27000001
27.136999 2.1270001 -1.4809999 0.23999999
27.118999 2.211 -1.48 0.38
27.121 2.2969999 -1.4809999 0.2
27.142 2.342 -1.482 0.17
27.177999 2.431 -1.485 0.1
27.222 2.5209999 -1.488 0.15000001
27.233999 2.608 -1.49 0.13
27.306999 2.7019999 -1.495 0.15000001
27.294001 2.7869999 -1.494 0.5
27.319 2.8770001 -1.497 0.11
27.421 2.9749999 -1.503 0.14
27.458 3.0220001 -1.506 0.090000004
27.504 3.115 -1.51 0
27.605 3.214 -1.516 0
27.694 3.313 -1.523 0
27.702999 3.4030001 -1.524 0
27.777 3.5 -1.529 0
27.799999 3.592 -1.531 0
27.861 3.645 -1.535 0
27.878 3.7360001 -1.5369999 0
27.907 3.829 -1.54 0
27.941 3.9230001 -1.543 0
27.948 4.0139999 -1.544 0
27.969 4.1069999 -1.546 0
28.011999 4.158 -1.549 0
28.073 4.257 -1.554 0
28.073999 4.348 -1.5549999 0
28.113001 4.4439998 -1.558 0
28.181999 4.546 -1.563 0
28.224001 4.6440001 -1.567 0
28.282 4.7449999 -1.571 0
28.35 4.802 -1.576 0
28.393999 4.901 -1.58 0
28.457001 5.0040002 -1.585 0
28.5 5.1040001 -1.5880001 0
28.554001 5.2069998 -1.5930001 0
28.579 5.3039999 -1.595 0
28.608999 5.4029999 -1.598 0
28.631001 5.5 -1.601 0
28.705 5.5609999 -1.6059999 0
28.733999 5.6609998 -1.609 0
28.752001 5.7579999 -1.6109999 0
28.767 5.855 -1.613 0
28.766001 5.9489999 -1.614 0
28.778 6.046 -1.6160001 0
28.798 6.145 -1.619 0
28.809999 6.1950002 -1.62 0
28.841 6.296 -1.623 0
28.879 6.4000001 -1.627 0
28.941 6.5089998 -1.632 0
28.973 6.612 -1.636 0
29.030001 6.7210002 -1.641 0
29.08 6.829 -1.645 0
29.136 6.8899999 -1.649 0
29.202999 7.0029998 -1.655 0
29.226999 7.1069999 -1.658 0
29.273001 7.2150002 -1.6619999 0
29.26 7.309 -1.663 0
29.312 7.421 -1.668 0
29.289 7.513 -1.668 0
29.323 7.5710001 -1.671 0
29.368999 7.6810002 -1.675 0.13
29.429001 7.796 -1.681 0.22
29.436001 7.8959999 -1.682 0.27000001
29.486 8.0089998 -1.687 0.23
29.438999 8.0959997 -1.686 0.12
29.514 8.2159996 -1.692 0
29.583 8.2860003 -1.698 0
29.611 8.3940001 -1.701 0
31.400999 9.1169996 -1.8200001 0.34999999
31.305 9.1960001 -1.816 0.23
30.995001 9.21 -1.7970001 0.25
30.546 9.1809998 -1.77 0.14
28.841999 8.717 -1.661 0.090000004
29.827999 9.118 -1.727 0.11
29.945999 9.257 -1.7359999 0.13
29.871 9.3369999 -1.733 0
30.094999 9.5109997 -1.75 0
30.167999 9.6379995 -1.756 0
30.087999 9.717 -1.753 0
30.023001 9.7480001 -1.75 0
29.937 9.8249998 -1.7460001 0
29.867001 9.9049997 -1.744 0
29.782 9.9809999 -1.74 0
29.667999 10.047 -1.735 0
29.555 10.112 -1.73 0
29.455 10.181 -1.725 0
29.384001 10.208 -1.722 0
29.275 10.273 -1.716 0
29.163 10.337 -1.711 0
29.075001 10.409 -1.7079999 0
28.989 10.481 -1.704 0
28.910999 10.555 -1.701 0
28.837 10.631 -1.698 0
28.750999 10.651 -1.694 0
28.667999 10.723 -1.691 0.14
28.489 10.757 -1.681 0.22
28.200001 10.749 -1.664 0.28
27.978001 10.765 -1.652 0.28
27.827999 10.808 -1.6440001 0.27000001
27.795 10.845 -1.643 0.19
27.794001 10.946 -1.645 0.43000001
27.774 11.039 -1.646 0.19
27.747999 11.13 -1.647 0.36000001
27.716999 11.219 -1.647 0.18000001
27.693001 11.31 -1.648 0.14
27.664 11.4 -1.648 0.18000001
27.634001 11.489 -1.649 0.28
27.645 11.545 -1.651 0.19
27.589001 11.623 -1.649 0.18000001
27.507999 11.691 -1.646 0.090000004
25.916 11.109 -1.541 0.14
25.684999 11.105 -1.528 0.17
25.462 11.104 -1.516 0.25
25.226 11.095 -1.502 0.18000001
24.989 11.038 -1.487 0.12
24.736 11.018 -1.472 0.17
24.506001 11.008 -1.459 0.28999999
24.290001 11.003 -1.447 0
24.048 10.984 -1.433 0
27.16 12.513 -1.647 0
27.073 12.576 -1.6440001 0
27.049999 12.617 -1.6440001 0.07
26.943001 12.67 -1.6390001 0.14
22.865999 10.837 -1.363 0.18000001
26.858 12.837 -1.6390001 0.20999999
26.733 12.88 -1.633 0.33000001
26.601999 12.92 -1.627 0.28999999
26.459 12.954 -1.62 0.31999999
26.254999 12.904 -1.607 0.25
25.940001 12.851 -1.5880001 0.23
15.342 7.7090001 -0.85900003 0.99000001
15.296 7.7459998 -0.85799998 0.99000001
15.314 7.816 -0.861 0.99000001
15.212 7.7940001 -0.85500002 0.88999999
15.231 7.8639998 -0.85799998 0.38999999
25.42 13.246 -1.5700001 0.2
25.207001 13.236 -1.558 0.20999999
25.000999 13.228 -1.5470001 0.27000001
24.91 13.28 -1.543 0.18000001
20.215 10.853 -1.217 0.23
24.028999 12.955 -1.4859999 0.20999999
23.870001 12.966 -1.478 0.20999999
23.822001 13.037 -1.477 0.38
23.645 13.037 -1.4680001 0.25
23.625 13.123 -1.469 0.2
23.601 13.207 -1.47 0.36000001
23.518999 13.258 -1.467 0.2
23.547001 13.371 -1.472 0.28999999
23.568001 13.432 -1.475 0.31999999
23.377001 13.421 -1.465 0.27000001
23.065001 13.338 -1.4450001 0.25
22.964001 13.376 -1.441 0.31999999
22.798 13.375 -1.432 0.28
22.794001 13.469 -1.4349999 0.25999999
22.916 13.639 -1.447 0.23
17.690001 10.635 -1.074 0.58999997
17.688999 10.71 -1.077 0.23999999
22.582001 13.779 -1.434 0.27000001
22.398001 13.763 -1.423 0.34
22.433001 13.881 -1.429 0.38999999
20.523001 12.786 -1.293 0.22
20.427 12.771 -1.288 0.31
20.301001 12.781 -1.281 0.31999999
20.149 12.774 -1.273 0.30000001
20.004999 12.77 -1.265 0.30000001
19.877001 12.777 -1.2589999 0.30000001
19.834 12.837 -1.2589999 0.34999999
19.843 12.888 -1.261 0.34999999
19.843 12.976 -1.2640001 0.38
19.851999 13.072 -1.268 0.40000001
19.733999 13.083 -1.262 0.2
21.893 14.617 -1.426 0.25
21.917 14.732 -1.431 0.33000001
19.417 13.137 -1.248 0.37
19.362 13.144 -1.245 0.2
22.232 15.2 -1.4630001 0.23
22.166 15.257 -1.462 0.36000001
22.267 15.43 -1.473 0.16
20.643 14.399 -1.354 0
23.768999 16.695999 -1.594 0.16
23.780001 16.815001 -1.599 0.15000001
23.757 16.855 -1.599 0.33000001
23.715 16.938 -1.6 0.31999999
23.673 17.02 -1.601 0.34999999
23.636 17.106001 -1.602 0.25
23.841999 17.370001 -1.622 0
19.273001 14.128 -1.276 0
23.700001 17.496 -1.62 0
23.792999 17.622 -1.6289999 0
19.110001 14.241 -1.272 0
17.292999 12.968 -1.1339999 0
26.472 19.999001 -1.85 0
26.363001 20.047001 -1.846 0
26.52 20.299 -1.863 0
26.450001 20.377001 -1.863 0
26.438 20.434 -1.864 0
26.426001 20.558001 -1.868 0
26.388 20.662001 -1.87 0
26.329 20.749001 -1.8710001 0.07
26.302999 20.863001 -1.874 0.16
18.618999 14.855 -1.271 0
26.209999 21.059 -1.877 0
26.17 21.163 -1.8789999 0
26.165001 21.226999 -1.881 0.07
10.14 8.3120003 -0.60799998 0.33000001
10.097 8.3299999 -0.60699999 0.22
10.04 8.3360004 -0.60500002 0.17
10.096 8.4370003 -0.611 0
25.969999 21.823 -1.896 0
25.924999 21.924999 -1.898 0
25.875999 22.024 -1.899 0
25.826 22.122 -1.901 0
25.775 22.218 -1.902 0
25.711 22.304001 -1.903 0
25.642 22.386 -1.903 0.07
10.127 8.9040003 -0.63200003 0.28
10.096 8.934 -0.63099998 0.49000001
10.123 9.0139999 -0.63599998 0.2
10.09 9.0419998 -0.63499999 0.28
15.457 13.958 -1.086 0.25
15.276 13.882 -1.074 0.25
15.139 13.801 -1.0650001 0.38
15.094 13.847 -1.064 0.41
15.146 13.983 -1.072 0.30000001
15.049 13.981 -1.068 0.34
15.047 14.068 -1.072 0.55000001
15.196 14.297 -1.0880001 0.28999999
14.938 14.143 -1.0700001 0.37
10.69 10.143 -0.70899999 0.15000001
10.609 10.129 -0.70499998 0.38999999
10.569 10.154 -0.704 0.31999999
10.528 10.179 -0.70300001 0.38
10.483 10.2 -0.70200002 0.44999999
10.114 9.901 -0.67299998 0.31
10.083 9.9329996 -0.67299998 0.54000002
10.101 9.9820004 -0.676 0.16
10.109 10.053 -0.67900002 0.36000001
10.093 10.101 -0.68099999 0.52999997
14.675 14.795 -1.086 0.20999999
14.714 14.928 -1.094 0.34999999
15.593 15.922 -1.176 0.23999999
15.493 15.92 -1.171 0.61000001
10.137 10.436 -0.69700003 0.22
10.049 10.41 -0.69199997 0.51999998
10.101 10.531 -0.69999999 0.17
10.083 10.645 -0.704 0.55000001
10.069 10.697 -0.70599997 0.25999999
12.701 13.59 -0.94800001 0.27000001
12.557 13.52 -0.93900001 0.30000001
12.496 13.497 -0.935 0.38
12.444 13.526 -0.93400002 0.38
12.333 13.489 -0.92799997 0.40000001
12.153 13.376 -0.91500002 0.41999999
12.124 13.429 -0.917 0.28
11.903 13.267 -0.89999998 0.34999999
11.871 13.315 -0.90100002 0.40000001
11.927 13.42 -0.90799999 0.31
11.928 13.507 -0.912 0.31
11.858 13.513 -0.90899998 0.41999999
11.299 12.957 -0.861 0.31
11.229 12.957 -0.85799998 0.30000001
11.097 12.887 -0.84899998 0.27000001
11.075 12.903 -0.84899998 0.33000001
11.098 13.012 -0.85500002 0.27000001
11.043 13.03 -0.85399997 0.41999999
10.969 13.025 -0.85100001 0.27000001
10.985 13.128 -0.85600001 0.50999999
11.018 13.252 -0.86299998 0.23
10.767 13.032 -0.84299999 0.33000001
10.73 13.029 -0.84100002 0.31
10.666 13.035 -0.83899999 0.38
10.654 13.104 -0.84200001 0.34
10.629 13.157 -0.84399998 0.41999999
10.608 13.216 -0.84600002 0.38999999
10.529 13.202 -0.84200001 0.40000001
10.55 13.315 -0.84799999 0.36000001
10.631 13.46 -0.85799998 0.28999999
10.423 13.283 -0.84200001 0.34
10.355 13.281 -0.83899999 0.41
10.391 13.414 -0.847 0.38999999
10.379 13.486 -0.85000002 0.34
10.398 13.6 -0.85600001 0.31
10.163 13.378 -0.83700001 0.38
10.097 13.378 -0.83399999 0.38999999
10.15 13.493 -0.84200001 0.31999999
10.177 13.617 -0.84899998 0.34
10.089 13.588 -0.84399998 0.34999999
9.9560003 13.498 -0.83499998 0.38
10.035 13.695 -0.84799999 0.38999999
10.047 13.802 -0.85299999 0.36000001
10.104 13.973 -0.86400002 0.34
10.053 13.948 -0.861 0.34
10.02 13.995 -0.86199999 0.37
10.016 14.083 -0.866 0.41
10.053 14.23 -0.875 0.28999999
10.138 14.447 -0.889 0.28
9.9399996 14.259 -0.87300003 0.50999999
9.9449997 14.362 -0.87800002 0.22
16.223 23.537001 -1.566 0.20999999
16.125 23.552999 -1.563 0.27000001
16.007999 23.541 -1.558 0.49000001
15.901 23.541 -1.5549999 0.25
15.797 23.546 -1.551 0.44999999
15.695 23.554001 -1.548 0.36000001
15.583 23.545 -1.544 0.44999999
15.515 23.523001 -1.54 0.36000001
15.415 23.531 -1.5369999 0.43000001
15.312 23.535999 -1.534 0.36000001
15.204 23.531 -1.53 0.41999999
15.103 23.535999 -1.527 0.34
14.987 23.518 -1.522 0.44999999
14.891 23.528999 -1.52 0.36000001
14.822 23.502001 -1.516 0.44
14.724 23.51 -1.513 0.36000001
14.62 23.507999 -1.51 0.44
14.521 23.513 -1.507 0.37
14.415 23.506001 -1.503 0.47
14.317 23.511999 -1.5 0.38
14.213 23.507 -1.497 0.44999999
14.16 23.502001 -1.495 0.38
14.052 23.49 -1.4910001 0.44999999
13.956 23.496 -1.488 0.37
13.851 23.487 -1.484 0.47
13.76 23.500999 -1.482 0.38
13.658 23.495001 -1.478 0.38999999
13.557 23.490999 -1.475 0.38999999
13.5 23.478001 -1.473 0.38999999
13.406 23.483999 -1.47 0.38999999
13.299 23.469 -1.466 0.47
13.204 23.472 -1.4630001 0.36000001
13.101 23.461 -1.46 0.43000001
13.001 23.455 -1.456 0.41999999
12.893 23.433001 -1.452 0.38
12.831 23.407 -1.449 0.38
12.728 23.393 -1.4450001 0.41999999
12.635 23.396 -1.442 0.36000001
12.538 23.393 -1.439 0.38
12.439 23.382999 -1.436 0.43000001
12.346 23.385 -1.433 0.38999999
12.252 23.385 -1.4299999 0.38999999
12.195 23.365 -1.428 0.41
12.106 23.372999 -1.426 0.37
12.023 23.393 -1.424 0.40000001
11.942 23.417 -1.423 0.34
11.86 23.436001 -1.4220001 0.30000001
11.791 23.483999 -1.423 0.28
11.717 23.518999 -1.423 0.28
11.63 23.531 -1.421 0.28
11.582 23.525999 -1.419 0.30000001
11.498 23.542999 -1.418 0.31999999
11.41 23.549999 -1.416 0.30000001
11.325 23.562 -1.414 0.33000001
11.231 23.554001 -1.411 0.41
11.139 23.552 -1.409 0.43000001
11.031 23.514 -1.404 0.34999999
11.001 23.548 -1.405 0.36000001
10.909 23.542 -1.402 0.38
10.817 23.538 -1.4 0.38999999
10.73 23.542999 -1.398 0.38999999
10.646 23.552999 -1.396 0.33000001
10.554 23.546 -1.393 0.41999999
10.468 23.554001 -1.392 0.41
10.422 23.548 -1.39 0.34
10.325 23.530001 -1.387 0.43000001
10.241 23.538 -1.385 0.34
10.152 23.535 -1.383 0.44999999
10.067 23.541 -1.381 0.37
9.9809999 23.545 -1.3789999 0.44999999
9.8970003 23.552999 -1.378 0.36000001
9.8380003 23.514999 -1.374 0.47
9.757 23.528999 -1.373 0.37
9.6669998 23.521 -1.37 0.44999999
9.5810003 23.521 -1.368 0.38
9.4949999 23.521999 -1.3660001 0.38999999
9.4099998 23.521999 -1.364 0.38999999
9.323 23.52 -1.362 0.47999999
9.2799997 23.518 -1.3609999 0.34999999
9.1899996 23.506001 -1.359 0.5
9.085 23.454 -1.353 0.27000001
8.9989996 23.451 -1.351 0.49000001
8.9209995 23.468 -1.35 0.31
8.8299999 23.448999 -1.347 0.56999999
8.8039999 23.606001 -1.3559999 0.38999999
8.8520002 23.85 -1.3710001 0.30000001
8.8730001 24.139999 -1.388 0.37
8.8620005 24.344 -1.4 0.31
8.8509998 24.554001 -1.4119999 0.36000001
8.8380003 24.764 -1.424 0.34
8.8269997 24.98 -1.436 0.31999999
8.8179998 25.208 -1.449 0.31999999
8.8479996 25.421 -1.462 0.31
8.8369999 25.650999 -1.476 0.28
8.8140001 25.847 -1.487 0.36000001
8.8129997 26.113001 -1.502 0.23999999
8.8000002 26.349001 -1.516 0.47
8.7600002 26.504999 -1.524 0.22
8.7220001 26.673 -1.533 0.12
8.71 26.923 -1.548 0
8.6859999 26.995001 -1.551 0.079999998
8.6610003 27.211 -1.564 0.19
8.5970001 27.306 -1.568 0.19
