# .PCD v0.7 - Point Cloud Data file format
VERSION 0.7
FIELDS x y z intensity
SIZE 4 4 4 4
TYPE F F F F
COUNT 1 1 1 1
WIDTH 1376
HEIGHT 1
VIEWPOINT 0 0 0 1 0 0 0
POINTS 1376
DATA ascii
-4.3559999 12.585 -0.222 0.36000001
-4.3959999 12.571 -0.222 0.44
-4.4219999 12.583 -0.223 0.36000001
-4.4660001 12.581 -0.223 0.46000001
-4.5040002 12.563 -0.223 0.41999999
-4.5560002 12.584 -0.22400001 0.31
-4.599 12.577 -0.22400001 0.44
-4.6399999 12.569 -0.22400001 0.40000001
-4.6859999 12.571 -0.22499999 0.38
-4.7129998 12.582 -0.226 0.38999999
-4.7579999 12.582 -0.226 0.38
-4.7969999 12.567 -0.226 0.44999999
-4.849 12.584 -0.227 0.31999999
-4.8889999 12.57 -0.227 0.41999999
-6.1149998 15.594 -0.33199999 0.33000001
-6.1370001 15.506 -0.329 0.54000002
-6.1290002 15.416 -0.32699999 0.40000001
-6.2909999 15.681 -0.336 0.40000001
-6.2810001 15.515 -0.331 0.37
-6.3410001 15.521 -0.33199999 0.38
-6.3740001 15.464 -0.331 0.36000001
-6.4260001 15.451 -0.331 0.66000003
-6.9250002 16.51 -0.36899999 0.33000001
-6.5700002 15.592 -0.33700001 0.27000001
-6.4660001 15.209 -0.32499999 0.41
-6.5650001 15.31 -0.329 0.46000001
-6.619 15.302 -0.329 0.31
-6.6209998 15.175 -0.32600001 0.52999997
-6.6240001 15.053 -0.322 0.28999999
-6.6339998 14.948 -0.31900001 0.44
-6.816 15.228 -0.33000001 0.43000001
-6.8119998 15.156 -0.32699999 0.41
-6.927 15.284 -0.333 0.28999999
-6.9850001 15.284 -0.333 0.62
-7.0760002 15.356 -0.33700001 0.18000001
-7.1020002 15.285 -0.33500001 0.5
-7.1500001 15.264 -0.33500001 0.38
-7.2309999 15.31 -0.338 0.44999999
-7.256 15.303 -0.338 0.38999999
-7.3080001 15.287 -0.338 0.30000001
-7.4089999 15.374 -0.34200001 0.63999999
-7.533 15.507 -0.347 0.20999999
-7.4260001 15.165 -0.336 0.30000001
-7.3119998 14.812 -0.324 0.70999998
-7.4910002 15.057 -0.33399999 0.23999999
-7.5139999 15.044 -0.33399999 0.52999997
-7.5739999 15.045 -0.33500001 0.36000001
-7.6269999 15.034 -0.33500001 0.41
-7.7090001 15.077 -0.338 0.36000001
-7.7649999 15.071 -0.338 0.60000002
-7.927 15.267 -0.34599999 0.43000001
-7.8990002 15.096 -0.34099999 0.34999999
-8.0299997 15.231 -0.347 0.47999999
-8.5010004 16.066999 -0.377 0.20999999
-8.2159996 15.408 -0.35499999 0.34
-8.2589998 15.372 -0.354 0.62
-8.3660002 15.455 -0.35800001 0.27000001
-8.4209995 15.441 -0.359 0.54000002
-8.5500002 15.561 -0.36399999 0.34
-8.7440004 15.797 -0.37400001 0.57999998
-21.596001 38.952 -1.221 0.12
-11.097 19.841 -0.523 0.2
-11.136 19.766001 -0.52200001 0.43000001
-11.212 19.754999 -0.523 0.36000001
-11.248 19.674 -0.52100003 0.38
-11.291 19.606001 -0.51999998 0.34
-11.392 19.638 -0.52200001 0.23
-11.343 19.483 -0.51700002 0.20999999
-10.544 17.976 -0.463 0.51999998
-11.492 19.457001 -0.51899999 0.23
-11.43 19.212 -0.51099998 0.30000001
-10.468 17.466 -0.447 0.55000001
-10.095 16.722 -0.421 0.20999999
-10.079 16.577 -0.417 0.25
-10.105 16.561001 -0.417 0.28999999
-10.17 16.552 -0.417 0.31999999
-10.212 16.503 -0.417 0.30000001
-10.236 16.426001 -0.41499999 0.28999999
-10.29 16.398001 -0.41499999 0.34
-10.355 16.386999 -0.41600001 0.28
-10.429 16.389999 -0.417 0.28999999
-10.458 16.379 -0.41800001 0.28
-10.508 16.344 -0.41800001 0.30000001
-10.549 16.294001 -0.417 0.28999999
-10.58 16.231001 -0.41600001 0.25999999
-10.621 16.181999 -0.41499999 0.37
-10.684 16.167 -0.41600001 0.25999999
-10.755 16.164 -0.417 0.28999999
-10.8 16.121 -0.417 0.31
-10.815 16.089001 -0.41600001 0.27000001
-10.862 16.049999 -0.41600001 0.34
-10.903 16.000999 -0.41499999 0.31999999
-10.974 15.998 -0.417 0.25
-11.051 16.002001 -0.41800001 0.30000001
-11.104 15.972 -0.41800001 0.30000001
-11.158 15.942 -0.41800001 0.31999999
-11.176 15.914 -0.41800001 0.30000001
-11.189 15.827 -0.41600001 0.28999999
-11.224 15.771 -0.41499999 0.34
-11.289 15.758 -0.41600001 0.28
-11.345 15.731 -0.41600001 0.31999999
-11.388 15.687 -0.41600001 0.30000001
-11.437 15.651 -0.41600001 0.37
-11.433 15.593 -0.414 0.31
-11.486 15.563 -0.41499999 0.2
-11.999 16.153 -0.44 0.31999999
-12.242 16.372999 -0.44999999 0.23999999
-12.259 16.289 -0.44800001 0.41
-12.287 16.219999 -0.447 0.28999999
-12.291 16.118999 -0.44400001 0.55000001
-12.338 16.075001 -0.44400001 0.33000001
-12.36 16.052999 -0.44400001 0.46000001
-12.419 16.025 -0.44499999 0.40000001
-12.487 16.007999 -0.44499999 0.38999999
-12.559 15.997 -0.447 0.55000001
-12.649 16.007999 -0.449 0.31999999
-15.152 19.059 -0.57499999 0.44999999
-13.142 16.42 -0.46900001 0.23
-10.979 13.666 -0.35699999 0.28999999
-12.931 16 -0.454 0.31999999
-13.02 16.007 -0.456 0.23
-13.005 15.886 -0.45300001 0.5
-13.675 16.6 -0.484 0.20999999
-13.127 15.832 -0.454 0.33000001
-13.701 16.42 -0.47999999 0.41999999
-13.293 15.879 -0.458 0.38999999
-13.742 16.313 -0.47799999 0.28999999
-12.58 14.835 -0.41800001 0.34
-12.774 14.969 -0.42500001 0.33000001
-12.76 14.857 -0.42199999 0.34
-12.841 14.856 -0.42399999 0.34999999
-12.129 13.942 -0.38699999 0.23999999
-12.14 13.866 -0.38499999 0.38
-12.141 13.823 -0.384 0.36000001
-12.175 13.774 -0.384 0.38
-12.22 13.739 -0.384 0.37
-12.268 13.705 -0.384 0.43000001
-12.339 13.697 -0.38600001 0.36000001
-12.347 13.62 -0.384 0.56
-12.525 13.687 -0.389 0.33000001
-12.555 13.633 -0.389 0.38999999
-12.593 13.589 -0.389 0.43000001
-14.735 15.806 -0.48699999 0.33000001
-14.307 15.249 -0.465 0.28
-14.37 15.22 -0.46599999 0.25999999
-14.354 15.108 -0.463 0.47999999
-15.59 16.361 -0.51899999 0.38
-14.739 15.368 -0.477 0.19
-14.445 14.966 -0.461 0.16
-12.679 13.05 -0.37799999 0.44
-12.742 13.033 -0.37900001 0.38
-12.755 12.965 -0.37799999 0.23999999
-12.924 13.054 -0.384 0.28999999
-17.995001 18.134001 -0.61299998 0.34
-14.035 14.046 -0.43099999 0.19
-15.101 15.021 -0.477 0.2
-15.152 14.978 -0.47799999 0.47
-13.768 13.435 -0.41100001 0.55000001
-13.856 13.437 -0.41299999 0.25999999
-13.852 13.349 -0.41100001 0.5
-13.868 13.323 -0.41100001 0.28
-13.893 13.262 -0.41 0.46000001
-14.166 13.439 -0.421 0.44999999
-14.092 13.285 -0.41499999 0.27000001
-17.037001 15.968 -0.54299998 0.2
-14.387 13.394 -0.42500001 0.56999999
-15.385 14.235 -0.46599999 0.22
-14.437 13.314 -0.42399999 0.31999999
-14.228 13.038 -0.41299999 0.33000001
-14.157 12.891 -0.40799999 0.27000001
-14.174 12.825 -0.40700001 0.34
-14.187 12.756 -0.40599999 0.50999999
-14.345 12.817 -0.41100001 0.30000001
-14.403 12.788 -0.412 0.46000001
-14.483 12.818 -0.41499999 0.41
-14.454 12.712 -0.412 0.31
-14.47 12.645 -0.41100001 0.44999999
-14.473 12.568 -0.40900001 0.41999999
-14.576 12.578 -0.412 0.30000001
-14.573 12.495 -0.41 0.44
-14.675 12.503 -0.41299999 0.38999999
-14.662 12.452 -0.41100001 0.36000001
-14.718 12.421 -0.412 0.51999998
-15.233 12.774 -0.43200001 0.36000001
-15.18 12.648 -0.428 0.20999999
-15.216 12.598 -0.428 0.58999997
-15.387 12.658 -0.433 0.19
-15.519 12.686 -0.43700001 0.58999997
-16.612 13.538 -0.48199999 0.25
-15.621 12.647 -0.43900001 0.28999999
-15.626 12.57 -0.43799999 0.28
-16.875999 13.491 -0.48699999 0.54000002
-17.184 13.649 -0.498 0.30000001
-17.115999 13.507 -0.493 0.23
-17.056 13.373 -0.48899999 0.41
-17.169001 13.375 -0.49200001 0.38999999
-17.169001 13.332 -0.491 0.28
-17.205999 13.274 -0.491 0.52999997
-17.704 13.571 -0.50999999 0.38
-18.316 13.949 -0.53299999 0.30000001
-17.979 13.603 -0.51700002 0.14
-17.723 13.322 -0.505 0.41
-17.947001 13.402 -0.51300001 0.34
-18.052999 13.438 -0.51599997 0.27000001
-18.108 13.39 -0.51599997 0.50999999
-17.976 13.205 -0.50999999 0.31999999
-17.955999 13.104 -0.50700003 0.17
-17.823999 12.922 -0.5 0.31999999
-17.907 12.896 -0.50199997 0.38999999
-17.92 12.82 -0.50099999 0.34
-18.106001 12.91 -0.50700003 0.34999999
-18.160999 12.864 -0.50800002 0.49000001
-18.9 13.3 -0.53500003 0.23999999
-20.312 14.2 -0.58899999 0.30000001
-19.896 13.816 -0.57099998 0.34999999
-20.573999 14.192 -0.59600002 0.23
-19.921 13.649 -0.56900001 0.36000001
-19.954 13.625 -0.56900001 0.28999999
-19.888 13.488 -0.565 0.34
-19.905001 13.409 -0.56400001 0.38999999
-20.073 13.431 -0.56900001 0.43000001
-20.222 13.439 -0.57300001 0.31999999
-20.337 13.424 -0.57599998 0.28999999
-20.320999 13.321 -0.57300001 0.47
-20.274 13.199 -0.56999999 0.25999999
-20.268 13.15 -0.56900001 0.33000001
-20.292 13.076 -0.56800002 0.44999999
-20.327999 13.009 -0.56800002 0.28999999
-20.253 12.871 -0.56400001 0.18000001
-20.087 12.676 -0.55599999 0.38999999
-20.516001 12.858 -0.57099998 0.43000001
-22.563999 14.046 -0.64600003 0.27000001
-22.739 14.106 -0.65200001 0.36000001
-23.197001 14.289 -0.66799998 0.2
-20.273001 12.396 -0.55599999 0.44999999
-20.351999 12.358 -0.55800003 0.19
-20.431999 12.318 -0.55900002 0.31999999
-22.181999 13.186 -0.62199998 0.49000001
-21.705999 12.857 -0.60299999 0.30000001
-21.789 12.814 -0.60500002 0.5
-26.448999 15.449 -0.77600002 0.38
-21.596001 12.518 -0.59500003 0.22
-21.656 12.462 -0.59500003 0.28
-21.281 12.156 -0.57999998 0.25
-21.268 12.061 -0.57800001 0.37
-21.715 12.27 -0.59399998 0.22
-21.580999 12.105 -0.588 0.27000001
-21.783001 12.128 -0.59399998 0.37
-21.908001 12.108 -0.597 0.25999999
-22.042999 12.092 -0.60000002 0.30000001
-22.139 12.055 -0.602 0.31999999
-22.268999 12.035 -0.60600001 0.31999999
-22.396999 12.059 -0.61000001 0.30000001
-22.566999 12.06 -0.61500001 0.34
-22.695 12.037 -0.61799997 0.30000001
-22.848 12.026 -0.62199998 0.30000001
-23.054001 12.042 -0.62800002 0.31999999
-23.16 12.006 -0.63099998 0.30000001
-23.316999 11.994 -0.63499999 0.27000001
-23.445999 12.014 -0.639 0.31999999
-23.607 12.003 -0.64300001 0.28
-23.757999 11.987 -0.64700001 0.28
-23.926001 11.977 -0.65200001 0.28
-24.093 11.966 -0.65700001 0.25
-24.233999 11.942 -0.66000003 0.18000001
-24.408001 11.933 -0.66500002 0.41999999
-24.577999 11.92 -0.67000002 0.2
-24.73 11.946 -0.67500001 0.34
-24.908001 11.936 -0.68000001 0.20999999
-25.068001 11.916 -0.68400002 0.2
-25.23 11.896 -0.68800002 0.14
-25.436001 11.896 -0.69400001 0.44999999
-25.559999 11.856 -0.69700003 0.25999999
-25.752001 11.847 -0.70300001 0.25999999
-25.906 11.869 -0.708 0.27000001
-26.089001 11.854 -0.713 0.18000001
-26.274 11.839 -0.71799999 0.18000001
-26.475 11.83 -0.72399998 0.18000001
-26.662001 11.813 -0.72899997 0.17
-26.863001 11.802 -0.73500001 0.23
-27.274 11.83 -0.74699998 0.46000001
-27.452999 11.805 -0.75199997 0.19
-27.667999 11.795 -0.75800002 0.38
-27.867001 11.776 -0.764 0.25
-28.056999 11.753 -0.76899999 0.17
-28.284 11.744 -0.77600002 0.40000001
-28.483 11.722 -0.78100002 0.23999999
-28.672001 11.747 -0.787 0.18000001
-28.893 11.732 -0.79400003 0.41999999
-29.118999 11.718 -0.80000001 0.18000001
-29.327 11.695 -0.80599999 0.38
-29.549 11.676 -0.81300002 0.19
-29.754999 11.65 -0.81800002 0.34999999
-29.993 11.634 -0.82499999 0.20999999
-30.173 11.65 -0.83099997 0.23
-30.407 11.631 -0.838 0.41
-30.646999 11.613 -0.84500003 0.22
-30.900999 11.598 -0.852 0.23
-31.076 11.553 -0.85699999 0.25
-31.351999 11.543 -0.86500001 0.36000001
-31.58 11.515 -0.87099999 0.22
-31.754999 11.466 -0.87599999 0.33000001
-32.078999 11.527 -0.88700002 0.28
-32.326 11.501 -0.89399999 0.27000001
-32.606998 11.486 -0.90200001 0.25999999
-32.852001 11.457 -0.90899998 0.23
-33.105999 11.428 -0.917 0.31
-33.374001 11.404 -0.92400002 0.19
-33.603001 11.365 -0.93099999 0.1
-33.883999 11.401 -0.94 0.17
-34.148998 11.371 -0.94800001 0.23
-34.448002 11.35 -0.95700002 0.1
-34.716 11.318 -0.96399999 0.079999998
-35.027 11.298 -0.97399998 0.14
-35.325001 11.272 -0.98199999 0.23
-35.620998 11.244 -0.991 0.27000001
-35.933998 11.281 -1.001 0.2
-36.251999 11.256 -1.011 0.18000001
-36.560001 11.226 -1.02 0.23
-36.859001 11.191 -1.029 0.18000001
-37.212002 11.171 -1.039 0.22
-37.511002 11.133 -1.048 0.2
-37.824001 11.096 -1.057 0.31
-38.119999 11.118 -1.067 0.11
-38.485001 11.094 -1.0779999 0.2
-38.833 11.063 -1.0880001 0.11
-39.182999 11.03 -1.098 0.090000004
-39.557999 11.001 -1.11 0.15000001
-39.898998 10.961 -1.12 0.28999999
-40.275002 10.929 -1.131 0.27000001
-40.604 10.95 -1.142 0.19
-40.945999 10.905 -1.152 0.1
-41.341 10.871 -1.164 0.090000004
-41.679001 10.82 -1.174 0.19
-42.016998 10.767 -1.184 0.1
-42.43 10.732 -1.196 0
-42.768002 10.674 -1.206 0.079999998
-43.189999 10.708 -1.22 0.079999998
-43.626999 10.671 -1.233 0
-43.973999 10.61 -1.243 0
-44.438 10.575 -1.258 0
-44.837002 10.521 -1.27 0
-45.264999 10.472 -1.283 0
-45.737999 10.43 -1.2970001 0
-46.194 10.382 -1.311 0
-46.692001 10.417 -1.327 0
-47.147999 10.364 -1.341 0
-47.589001 10.304 -1.354 0
-48.102001 10.257 -1.37 0.1
-48.476002 10.178 -1.381 0.28999999
-48.654999 10.056 -1.386 0
-49.196999 10.008 -1.403 0.12
-49.655998 10.02 -1.4170001 0.17
-50.046001 9.9350004 -1.429 0
-50.803001 9.9200001 -1.452 0
-51.289001 9.8479996 -1.467 0.13
-51.673 9.7539997 -1.479 0.17
-52.213001 9.6859999 -1.495 0.16
-52.844002 9.632 -1.515 0.090000004
-53.477001 9.6610003 -1.535 0
-53.988998 9.5790005 -1.551 0.07
-54.424999 9.4799995 -1.564 0
-55.004002 9.4029999 -1.582 0
-55.617001 9.3280001 -1.601 0
-56.228001 9.25 -1.619 0
-56.914001 9.1789999 -1.641 0
-56.659 9.0469999 -1.632 0.07
-59.973999 9.3839998 -1.739 0
-60.91 9.335 -1.768 0
-60.518002 9.0810003 -1.7539999 0
-60.880001 8.9399996 -1.765 0
-61.433998 8.8240004 -1.7819999 0
-62.320999 8.7519999 -1.8099999 0
-63.327999 8.691 -1.842 0
-64.069 8.691 -1.865 0
-64.956001 8.6040001 -1.893 0
-66.646004 8.6149998 -1.947 0
-66.716003 8.4110003 -1.948 0
-66.496002 8.1709995 -1.9400001 0
-66.791 7.9949999 -1.949 0
-67.462997 7.8610001 -1.97 0
-68.337997 7.8540001 -1.997 0
-68.966003 7.7069998 -2.017 0
-70.164001 7.618 -2.0550001 0
-70.716003 7.454 -2.072 0
-72.516998 7.414 -2.1289999 0
-77.254997 7.6550002 -2.28 0
-77.195 7.4039998 -2.2780001 0
-77.192001 7.2810001 -2.277 0
-77.709999 7.0840001 -2.293 0
-79.431 6.9899998 -2.348 0
-74.000999 5.8080001 -2.171 0
-72.907997 3.652 -2.132 0
-76.662003 3.358 -2.2520001 0
-76.468002 3.109 -2.2449999 0
-76.761002 2.8800001 -2.2539999 0
-76.991997 2.6459999 -2.2609999 0
-78.317001 2.0769999 -2.303 0
-79.339996 1.855 -2.336 0
-65.459 -3.3099999 -1.893 0
-65.339996 -3.4070001 -1.89 0
-76.957001 -10.475 -2.2820001 0
-75.621002 -10.778 -2.2409999 0
-76.100998 -11.091 -2.257 0
-76.208 -11.351 -2.2620001 0
-73.294998 -17.979 -2.211 0
-73.024002 -23.49 -2.2509999 0
-69.727997 -24.013 -2.1559999 0
-69.195 -24.073 -2.141 0
-68.872002 -24.202999 -2.132 0
-68.662003 -24.372 -2.128 0
-68.363998 -24.386999 -2.119 0
-67.999001 -24.497999 -2.109 0
-67.689003 -24.627001 -2.1010001 0
-67.349998 -24.743999 -2.092 0
-67.033997 -24.867001 -2.0840001 0
-66.748001 -25 -2.0769999 0
-66.487999 -25.021999 -2.069 0
-56.639 -23.063999 -1.753 0
-57.235001 -23.937 -1.781 0
-53.117001 -24.812 -1.6720001 0
-52.884998 -24.906 -1.6670001 0
-52.625999 -24.986 -1.66 0
-52.421001 -24.99 -1.654 0
-52.056 -25.017 -1.6440001 0
-51.860001 -25.124001 -1.64 0
-51.754002 -25.273001 -1.6390001 0
-51.689999 -25.444 -1.64 0
-51.661999 -25.632 -1.642 0.12
-51.646 -25.826 -1.6440001 0.20999999
-51.606998 -26.01 -1.645 0.1
-51.585999 -26.101 -1.646 0.090000004
-51.397999 -26.209 -1.642 0.079999998
-50.837002 -26.125 -1.625 0.090000004
-50.362999 -26.082001 -1.6109999 0
-49.914001 -26.048 -1.598 0
-49.255001 -25.902 -1.577 0.07
-49.005001 -25.868999 -1.569 0.11
-48.622002 -25.863001 -1.558 0.13
-45.900002 -24.601999 -1.462 0.14
-45.487 -24.565001 -1.45 0.12
-45.178001 -24.582001 -1.442 0.17
-37.014 -20.296 -1.147 0.20999999
-36.875999 -20.371 -1.1440001 0.38999999
-36.604 -20.372 -1.136 0.25
-36.478001 -20.377001 -1.133 0.19
-36.362999 -20.462999 -1.131 0.41
-36.316002 -20.587 -1.132 0.22
-36.098 -20.614 -1.126 0.33000001
-36.150002 -20.794001 -1.13 0.19
-36.063 -20.895 -1.13 0.38
-33.768002 -19.780001 -1.048 0.46000001
-33.391998 -19.701 -1.0369999 0.22
-33.282001 -19.778 -1.035 0.28999999
-33.151001 -19.841 -1.0319999 0.28
-33.066002 -19.931999 -1.031 0.25999999
-32.687 -19.844 -1.02 0.23
-32.956001 -20.148001 -1.0319999 0.20999999
-32.361 -19.856001 -1.011 0.20999999
-32.290001 -19.952 -1.011 0.17
-32.345001 -20.125999 -1.015 0.13
-27.716 -17.371 -0.84299999 0.14
-27.643999 -17.448 -0.84200001 0.22
-30.341 -19.280001 -0.94599998 0.28999999
-30.339001 -19.413 -0.94800001 0.27000001
-30.194 -19.386999 -0.94400001 0.31
-30.077999 -19.445999 -0.94199997 0.34
-29.996 -19.527 -0.94099998 0.30000001
-29.968 -19.643 -0.94300002 0.33000001
-29.830999 -19.688 -0.94 0.28
-29.796 -19.799 -0.94099998 0.33000001
-29.694 -19.865999 -0.93900001 0.28999999
-29.712 -19.945999 -0.94099998 0.30000001
-29.691 -20.066999 -0.94300002 0.34999999
-29.611 -20.149 -0.94199997 0.28999999
-29.566 -20.254999 -0.94300002 0.36000001
-29.559999 -20.386999 -0.94499999 0.28999999
-29.639999 -20.58 -0.95099998 0.31999999
-29.656 -20.729 -0.954 0.38
-29.903 -20.972 -0.96499997 0.23
-30.312 -21.400999 -0.98299998 0.20999999
-30.302 -21.535999 -0.986 0.34
-30.294001 -21.674 -0.98799998 0.18000001
-31.972 -23.025 -1.057 0.25999999
-31.761999 -23.025999 -1.051 0.28
-31.490999 -22.981001 -1.043 0.28999999
-31.226999 -22.864 -1.034 0.28
-30.985001 -22.836 -1.028 0.30000001
-30.804001 -22.853001 -1.023 0.30000001
-30.579 -22.836 -1.017 0.30000001
-30.264999 -22.749001 -1.007 0.28
-30.091999 -22.768 -1.003 0.31
-29.914 -22.782 -0.99900001 0.31999999
-29.75 -22.805 -0.995 0.25999999
-29.421 -22.627001 -0.98400003 0.25999999
-29.143 -22.559 -0.97500002 0.30000001
-28.948999 -22.554001 -0.97000003 0.27000001
-28.757 -22.549999 -0.96499997 0.33000001
-28.544001 -22.528999 -0.95999998 0.25999999
-28.327999 -22.503 -0.954 0.33000001
-28.129 -22.49 -0.94800001 0.31999999
-28.104 -22.542999 -0.949 0.31
-27.98 -22.587999 -0.94700003 0.28999999
-27.721001 -22.524 -0.93900001 0.30000001
-27.5 -22.488001 -0.93300003 0.25999999
-27.190001 -22.378 -0.92299998 0.33000001
-26.978001 -22.346001 -0.917 0.28999999
-26.805 -22.344999 -0.91299999 0.33000001
-26.704 -22.332001 -0.91000003 0.34
-26.558001 -22.351999 -0.90700001 0.27000001
-26.275999 -22.256001 -0.898 0.30000001
-26.076 -22.229 -0.89200002 0.31
-25.923 -22.239 -0.889 0.34
-25.716999 -22.202999 -0.88300002 0.30000001
-25.544001 -22.194 -0.87900001 0.28
-25.377001 -22.118999 -0.87300003 0.36000001
-25.218 -22.121 -0.86900002 0.34
-25.032 -22.097 -0.86400002 0.30000001
-24.822001 -22.051001 -0.85799998 0.31
-24.618999 -22.01 -0.85299999 0.34999999
-24.431 -21.981001 -0.847 0.31
-24.278999 -21.982 -0.84399998 0.31999999
-24.143999 -21.929001 -0.83999997 0.28999999
-23.964001 -21.903999 -0.83499998 0.36000001
-23.841 -21.929001 -0.83200002 0.34999999
-23.768999 -22.000999 -0.83200002 0.25999999
-23.504999 -21.893999 -0.824 0.34999999
-23.315001 -21.855 -0.81800002 0.28999999
-23.167 -21.854 -0.815 0.36000001
-23.033001 -21.795 -0.81099999 0.30000001
-22.91 -21.816999 -0.80800003 0.36000001
-22.729 -21.781 -0.80299997 0.33000001
-22.596001 -21.790001 -0.80000001 0.34999999
-22.466 -21.801001 -0.79799998 0.30000001
-22.294001 -21.771 -0.79299998 0.34999999
-22.077 -21.695 -0.78600001 0.30000001
-21.957001 -21.646 -0.78200001 0.38
-21.82 -21.646 -0.77899998 0.31
-21.695 -21.658001 -0.77700001 0.40000001
-17.150999 -17.237 -0.574 0.17
-17.108999 -17.304001 -0.574 0.31
-17.047001 -17.349001 -0.574 0.54000002
-21.677999 -22.191 -0.78899997 0.2
-21.577999 -22.228001 -0.787 0.33000001
-21.555 -22.275 -0.78799999 0.28999999
-21.629999 -22.492001 -0.79400003 0.28999999
-21.499001 -22.497999 -0.792 0.28999999
-21.503 -22.643 -0.79500002 0.56
-21.367001 -22.643 -0.792 0.16
-21.66 -23.097 -0.80900002 0.16
-15.891 -17.063 -0.542 0.57999998
-15.501 -16.697001 -0.52499998 0.12
-15.353 -16.643 -0.51999998 0.23
-15.135 -16.51 -0.51200002 0.38999999
-15.064 -16.537001 -0.51200002 0.31999999
-14.993 -16.563 -0.51099998 0.46000001
-14.973 -16.646 -0.51200002 0.25999999
-14.922 -16.694 -0.51200002 0.37
-14.848 -16.664 -0.50999999 0.51999998
-14.758 -16.669001 -0.50800002 0.38
-14.662 -16.666 -0.50599998 0.52999997
-14.569 -16.665001 -0.50400001 0.38
-14.473 -16.660999 -0.50199997 0.43000001
-14.384 -16.664 -0.5 0.41
-14.29 -16.660999 -0.498 0.41999999
-14.219 -16.631001 -0.49599999 0.56
-14.135 -16.638 -0.49399999 0.40000001
-14.04 -16.632 -0.49200001 0.43000001
-13.987 -16.676001 -0.49200001 0.46000001
-14.009 -16.809 -0.49599999 0.64999998
-13.902 -16.787001 -0.493 0.23
-13.963 -16.969 -0.49900001 0.44999999
-14.227 -17.344 -0.514 0.2
-14.35 -17.606001 -0.523 0.34
-15.481 -19.113001 -0.583 0.34
-14.117 -17.545 -0.51599997 0.33000001
-15.006 -18.767 -0.565 0.2
-15.153 -19.073 -0.57499999 0.12
-13.242 -16.780001 -0.47999999 0.19
-13.137 -16.702 -0.47600001 0.14
-15.049 -19.25 -0.57800001 0.31
-15.312 -19.841 -0.59799999 0.38999999
-12.784 -16.68 -0.46799999 0.18000001
-15.166 -19.909 -0.597 0.28999999
-15.098 -19.951 -0.59600002 0.28999999
-12.554 -16.649 -0.463 0.13
-14.847 -19.812 -0.588 0.47999999
-12.395 -16.656 -0.46000001 0.17
-14.857 -20.086 -0.59500003 0.38
-14.829 -20.181 -0.597 0.23999999
-14.747 -20.202 -0.59600002 0.16
-14.757 -20.35 -0.60000002 0.47999999
-12.008 -16.622 -0.45199999 0.17
-14.859 -20.694 -0.611 0.27000001
-14.785 -20.729 -0.611 0.47
-15.067 -21.264 -0.63 0.16
-14.858 -21.108999 -0.62199998 0.38999999
-11.608 -16.612 -0.44400001 0.12
-14.777 -21.277 -0.625 0.43000001
-14.806 -21.391001 -0.62800002 0.36000001
-14.795 -21.518 -0.63099998 0.20999999
-14.77 -21.627001 -0.634 0.34
-11.243 -16.584999 -0.43700001 0.28999999
-11.163 -16.579 -0.435 0.23
-14.652 -21.895 -0.639 0.38
-14.704 -22.122 -0.64600003 0.25
-14.777 -22.306 -0.65200001 0.28
-14.653 -22.271 -0.64899999 0.36000001
-14.6 -22.344 -0.64999998 0.17
-14.543 -22.41 -0.65100002 0.31999999
-14.521 -22.531 -0.65399998 0.41
-14.488 -22.635 -0.65600002 0.2
-14.42 -22.686001 -0.65600002 0.41
-14.39 -22.716999 -0.65600002 0.31
-14.372 -22.846001 -0.66000003 0.23
-14.238 -22.792999 -0.65600002 0.44999999
-14.282 -23.023001 -0.66299999 0.2
-14.264 -23.156 -0.66600001 0.34999999
-9.974 -16.437 -0.41100001 0.50999999
-9.9320002 -16.424999 -0.41 0.50999999
-9.8629999 -16.427 -0.40900001 0.5
-9.7939997 -16.429001 -0.40799999 0.49000001
-9.7189999 -16.42 -0.40599999 0.52999997
-9.6499996 -16.421 -0.405 0.50999999
-9.5819998 -16.424 -0.40400001 0.50999999
-9.5129995 -16.424999 -0.403 0.51999998
-9.5050001 -16.471001 -0.40400001 0.43000001
-9.4870005 -16.559999 -0.40599999 0.52999997
-9.4879999 -16.681 -0.41 0.34999999
-9.4239998 -16.690001 -0.40900001 0.43000001
-9.3669996 -16.712999 -0.40900001 0.37
-9.2629995 -16.65 -0.405 0.34
-9.1940002 -16.649 -0.40400001 0.44999999
-9.165 -16.658001 -0.40400001 0.41999999
-9.0839996 -16.634001 -0.40200001 0.37
-9.0139999 -16.631001 -0.40099999 0.44999999
-8.9449997 -16.628 -0.40000001 0.34
-8.8909998 -16.652 -0.40000001 0.36000001
-8.816 -16.636999 -0.398 0.49000001
-8.7770004 -16.690001 -0.39899999 0.41
-8.7340002 -16.672001 -0.398 0.23
-8.6409998 -16.621 -0.39500001 0.50999999
-8.5799999 -16.632 -0.39500001 0.34
-8.4949999 -16.594999 -0.39199999 0.46000001
-8.4309998 -16.599001 -0.39199999 0.28999999
-8.368 -16.604 -0.391 0.5
-8.2989998 -16.596001 -0.38999999 0.31999999
-8.2390003 -16.606001 -0.389 0.51999998
-8.2130003 -16.618999 -0.389 0.38
-8.1330004 -16.589001 -0.38699999 0.47999999
-8.0749998 -16.601999 -0.38699999 0.30000001
-8.0089998 -16.6 -0.38600001 0.44
-7.9299998 -16.569 -0.384 0.47
-7.8800001 -16.598 -0.384 0.30000001
-7.8060002 -16.575001 -0.382 0.5
-7.776 -16.58 -0.382 0.31
-7.7049999 -16.563 -0.38 0.5
-7.6469998 -16.573999 -0.38 0.36000001
-7.585 -16.577999 -0.37900001 0.38999999
-7.5180001 -16.569 -0.37799999 0.38999999
-7.4549999 -16.569 -0.377 0.40000001
-7.3899999 -16.563 -0.37599999 0.47
-7.3590002 -16.562 -0.37599999 0.38
-7.302 -16.576 -0.375 0.46000001
-7.2290001 -16.549 -0.37400001 0.37
-7.1620002 -16.537001 -0.37200001 0.47999999
-7.1030002 -16.545 -0.37200001 0.33000001
-7.0349998 -16.528999 -0.37099999 0.49000001
-6.9910002 -16.570999 -0.37099999 0.31999999
-6.9499998 -16.545 -0.37 0.47999999
-6.888 -16.545 -0.36899999 0.34999999
-6.823 -16.533001 -0.368 0.40000001
-6.7680001 -16.549 -0.368 0.41
-6.7069998 -16.546 -0.36700001 0.46000001
-6.652 -16.559 -0.36700001 0.31999999
-6.5890002 -16.554001 -0.366 0.47999999
-6.5549998 -16.544001 -0.36500001 0.28
-6.5019999 -16.563 -0.36500001 0.49000001
-6.4369998 -16.549999 -0.36399999 0.30000001
-6.3839998 -16.566 -0.36399999 0.58999997
-6.322 -16.559999 -0.36300001 0.27000001
-6.2620001 -16.561001 -0.36199999 0.51999998
-6.198 -16.547001 -0.361 0.25999999
-6.1669998 -16.545 -0.361 0.58999997
-6.1220002 -16.583 -0.361 0.27000001
-6.0440001 -16.531 -0.359 0.54000002
-5.987 -16.537001 -0.359 0.25999999
-5.921 -16.516001 -0.35699999 0.50999999
-5.875 -16.549999 -0.35800001 0.28999999
-5.8130002 -16.542 -0.35699999 0.54000002
-5.7849998 -16.545 -0.35699999 0.30000001
-5.7119999 -16.503 -0.35499999 0.56
-5.671 -16.552999 -0.35600001 0.25999999
-5.605 -16.528999 -0.354 0.51999998
-5.5489998 -16.533001 -0.354 0.34
-5.4860001 -16.518 -0.35299999 0.41999999
-5.4359999 -16.541 -0.35299999 0.44999999
-5.4029999 -16.527 -0.352 0.34999999
-5.3559999 -16.559 -0.35299999 0.38
-5.2810001 -16.507 -0.34999999 0.44999999
-5.2350001 -16.541 -0.35100001 0.37
-5.1789999 -16.544001 -0.34999999 0.50999999
-5.1259999 -16.558001 -0.34999999 0.27000001
-5.072 -16.566999 -0.34999999 0.49000001
-5.0450001 -16.570999 -0.34999999 0.44
-4.993 -16.589001 -0.34999999 0.28
-4.9250002 -16.551001 -0.34799999 0.44999999
-4.8699999 -16.556 -0.34799999 0.47999999
-4.8200002 -16.577 -0.34799999 0.41999999
-4.7659998 -16.587 -0.34799999 0.28999999
-4.7129998 -16.6 -0.34799999 0.5
-4.6789999 -16.576 -0.347 0.36000001
-4.6230001 -16.577 -0.34599999 0.43000001
-4.559 -16.551001 -0.345 0.36000001
-4.4949999 -16.518999 -0.34400001 0.41999999
-4.4380002 -16.516001 -0.34299999 0.44
-4.381 -16.511999 -0.34200001 0.36000001
-4.3260002 -16.513 -0.34200001 0.43000001
-4.302 -16.527 -0.34200001 0.31
-4.2360001 -16.486 -0.34 0.49000001
-4.1830001 -16.493999 -0.34 0.37
-4.125 -16.483999 -0.33899999 0.44999999
-4.0799999 -16.524 -0.34 0.34999999
-4.013 -16.474001 -0.338 0.44999999
-3.9649999 -16.502001 -0.33899999 0.41
-3.9389999 -16.507999 -0.33899999 0.36000001
-3.8740001 -16.466 -0.33700001 0.41
-3.816 -16.451 -0.336 0.41999999
-3.7620001 -16.451 -0.336 0.43000001
-3.714 -16.481001 -0.336 0.34999999
-3.6530001 -16.451 -0.33500001 0.49000001
-3.6010001 -16.461 -0.33500001 0.36000001
-3.5780001 -16.482 -0.33500001 0.47999999
-3.5209999 -16.468 -0.33500001 0.30000001
-3.46 -16.434 -0.333 0.47999999
-3.4070001 -16.437 -0.333 0.41999999
-3.359 -16.465 -0.333 0.31999999
-3.3010001 -16.445999 -0.333 0.55000001
-3.2609999 -16.517 -0.33399999 0.30000001
-3.2279999 -16.487 -0.333 0.5
-3.174 -16.483 -0.333 0.25
-3.112 -16.441999 -0.331 0.51999998
-3.0699999 -16.499001 -0.333 0.27000001
-3.003 -16.427999 -0.33000001 0.51999998
-2.957 -16.471001 -0.331 0.34999999
-2.9030001 -16.466 -0.331 0.37
-2.8710001 -16.434999 -0.33000001 0.44999999
-2.822 -16.462 -0.33000001 0.36000001
-2.767 -16.448999 -0.33000001 0.44999999
-2.7160001 -16.462 -0.33000001 0.33000001
-2.658 -16.434 -0.32800001 0.38999999
-2.6070001 -16.443001 -0.32800001 0.43000001
-2.562 -16.497999 -0.33000001 0.38
-2.5280001 -16.445 -0.32800001 0.41
-2.4760001 -16.451 -0.32800001 0.38999999
-2.428 -16.482 -0.329 0.43000001
-2.372 -16.464001 -0.32800001 0.36000001
-2.323 -16.487 -0.329 0.40000001
-2.2620001 -16.433001 -0.32699999 0.34999999
-2.211 -16.444 -0.32699999 0.38
-2.1849999 -16.445999 -0.32699999 0.43000001
-2.131 -16.434999 -0.32600001 0.34999999
-2.079 -16.434999 -0.32600001 0.40000001
-2.026 -16.436001 -0.32600001 0.38999999
-1.973 -16.43 -0.32499999 0.33000001
-1.919 -16.417999 -0.32499999 0.41
-1.868 -16.422001 -0.32499999 0.43000001
-1.845 -16.455 -0.32600001 0.25999999
-1.7869999 -16.403 -0.324 0.44
-1.737 -16.423 -0.324 0.34
-1.686 -16.434 -0.324 0.34
-1.632 -16.417 -0.324 0.40000001
-1.581 -16.424 -0.324 0.36000001
-1.525 -16.382999 -0.322 0.28999999
-1.4809999 -16.469999 -0.32499999 0.44
-1.455 -16.469999 -0.32499999 0.30000001
-1.396 -16.395 -0.322 0.31999999
-1.345 -16.399 -0.322 0.31
-1.291 -16.375 -0.32100001 0.22
-1.233 -16.296 -0.31900001 0.52999997
-1.189 -16.403 -0.322 0.22
-1.164 -16.415001 -0.322 0.28999999
-1.109 -16.367001 -0.32100001 0.28999999
-1.059 -16.386 -0.32100001 0.28
-1.006 -16.367001 -0.31999999 0.25999999
-0.95499998 -16.370001 -0.31999999 0.28
-0.903 -16.375 -0.32100001 0.30000001
-0.85000002 -16.346001 -0.31999999 0.31999999
-0.824 -16.330999 -0.31900001 0.25
-0.77399999 -16.374001 -0.31999999 0.27000001
-0.72000003 -16.316 -0.31799999 0.28999999
-0.66900003 -16.334999 -0.31900001 0.28
-0.61799997 -16.333 -0.31900001 0.28
-0.565 -16.296 -0.31799999 0.28999999
-0.51499999 -16.33 -0.31900001 0.27000001
-0.48899999 -16.309 -0.31799999 0.27000001
-0.43799999 -16.312 -0.31799999 0.28999999
-0.38600001 -16.32 -0.31799999 0.28999999
-0.33399999 -16.285 -0.317 0.28
-0.28299999 -16.284 -0.317 0.30000001
-0.23199999 -16.295 -0.317 0.30000001
-0.18099999 -16.292999 -0.317 0.28999999
-0.13 -16.296 -0.317 0.31
-0.104 -16.296 -0.317 0.30000001
-0.052999999 -16.275999 -0.317 0.33000001
-0.0020000001 -16.275999 -0.317 0.31999999
0.048999999 -16.285999 -0.317 0.31
0.101 -16.285999 -0.317 0.27000001
0.152 -16.288 -0.317 0.34999999
0.177 -16.264999 -0.31600001 0.33000001
0.228 -16.283001 -0.317 0.37
0.28099999 -16.35 -0.31900001 0.30000001
0.331 -16.278999 -0.317 0.30000001
0.384 -16.364 -0.31999999 0.34999999
0.43399999 -16.312 -0.31799999 0.34
0.48500001 -16.320999 -0.31799999 0.27000001
0.51200002 -16.364 -0.31999999 0.37
0.56199998 -16.323 -0.31799999 0.30000001
0.61500001 -16.365 -0.31999999 0.44999999
0.66500002 -16.325001 -0.31900001 0.17
0.722 -16.455999 -0.32300001 0.25
0.76999998 -16.378 -0.31999999 0.38
0.82099998 -16.365999 -0.31999999 0.31
0.85100001 -16.448 -0.32300001 0.30000001
0.90200001 -16.423 -0.322 0.38999999
0.95099998 -16.382999 -0.32100001 0.30000001
1.007 -16.451 -0.32300001 0.41
1.062 -16.493999 -0.32499999 0.34999999
1.109 -16.419001 -0.322 0.25
1.159 -16.391001 -0.322 0.56
1.189 -16.455 -0.324 0.38999999
1.238 -16.412001 -0.322 0.31
1.293 -16.462999 -0.324 0.31999999
1.342 -16.413 -0.32300001 0.38
1.409 -16.601999 -0.329 0.38
1.444 -16.396999 -0.322 0.36000001
1.5039999 -16.49 -0.32600001 0.30000001
1.524 -16.426001 -0.324 0.31999999
1.568 -16.333 -0.32100001 0.20999999
1.622 -16.356001 -0.322 0.41
1.6720001 -16.341 -0.32100001 0.25
1.738 -16.473 -0.32600001 0.23
1.808 -16.639999 -0.331 0.25
1.859 -16.625999 -0.331 0.28999999
1.888 -16.645 -0.33199999 0.38999999
1.959 -16.799999 -0.33700001 0.23
1.9809999 -16.534 -0.329 0.31999999
2.0220001 -16.441999 -0.32600001 0.28999999
2.075 -16.441999 -0.32600001 0.47999999
2.1370001 -16.518 -0.329 0.31999999
2.175 -16.407 -0.32499999 0.28
2.2149999 -16.312 -0.32300001 0.28999999
2.2390001 -16.297001 -0.322 0.25
2.293 -16.312 -0.32300001 0.31999999
2.348 -16.327999 -0.324 0.27000001
2.4130001 -16.416 -0.32699999 0.19
2.4649999 -16.414 -0.32699999 0.47
2.5209999 -16.434 -0.32800001 0.27000001
2.5869999 -16.521 -0.331 0.22
2.605 -16.462999 -0.329 0.5
2.665 -16.504 -0.331 0.31
2.7390001 -16.632 -0.33500001 0.44999999
2.767 -16.476999 -0.33000001 0.43000001
2.8010001 -16.365999 -0.32699999 0.22
2.8670001 -16.441999 -0.33000001 0.31999999
2.8940001 -16.441 -0.33000001 0.51999998
2.9460001 -16.438 -0.33000001 0.31999999
2.984 -16.351999 -0.32800001 0.54000002
3.0309999 -16.319 -0.32699999 0.30000001
3.089 -16.347 -0.32800001 0.41
3.1329999 -16.299999 -0.32699999 0.69
3.1900001 -16.315001 -0.32800001 0.31999999
3.22 -16.334 -0.32800001 0.41999999
3.2720001 -16.325001 -0.329 0.43000001
3.323 -16.316999 -0.329 0.63999999
3.4519999 -16.684 -0.34099999 0.2
3.53 -16.797001 -0.345 0.37
3.507 -16.426001 -0.333 0.30000001
3.5780001 -16.509001 -0.336 0.56999999
3.6619999 -16.643999 -0.34099999 0.22
3.654 -16.48 -0.336 0.43000001
3.7030001 -16.458 -0.336 0.34
3.7409999 -16.386 -0.33399999 0.46000001
3.7939999 -16.382 -0.33399999 0.31999999
3.8399999 -16.343 -0.333 0.52999997
3.902 -16.378 -0.33399999 0.30000001
3.9779999 -16.468 -0.338 0.51999998
4.0019999 -16.455999 -0.338 0.31999999
4.0310001 -16.35 -0.33500001 0.36000001
4.0879998 -16.361 -0.33500001 0.47999999
4.1550002 -16.408001 -0.33700001 0.38999999
4.2639999 -16.622 -0.345 0.25
4.3000002 -16.544001 -0.34299999 0.37
4.3169999 -16.504999 -0.34200001 0.36000001
4.3569999 -16.444 -0.34 0.31
4.3899999 -16.361 -0.338 0.33000001
4.447 -16.367001 -0.338 0.51999998
4.54 -16.504999 -0.34400001 0.23999999
4.5619998 -16.382999 -0.34 0.41999999
4.6209998 -16.396999 -0.34099999 0.40000001
4.6490002 -16.396 -0.34099999 0.25
4.6890001 -16.341999 -0.34 0.44999999
4.7509999 -16.364 -0.34099999 0.38
4.8309999 -16.447001 -0.34400001 0.44
4.8940001 -16.469999 -0.34599999 0.23
4.928 -16.396999 -0.34400001 0.5
4.9720001 -16.355 -0.34299999 0.33000001
5.0240002 -16.341 -0.34299999 0.37
5.0630002 -16.377001 -0.34400001 0.51999998
5.1479998 -16.468 -0.34799999 0.31
5.2639999 -16.658001 -0.35499999 0.25
5.2340002 -16.382 -0.34599999 0.57999998
5.3410001 -16.537001 -0.352 0.23999999
5.3569999 -16.41 -0.34799999 0.31999999
5.4299998 -16.459 -0.34999999 0.5
5.4699998 -16.492001 -0.352 0.31
5.4819999 -16.356001 -0.34799999 0.43000001
5.5370002 -16.35 -0.34799999 0.37
5.6479998 -16.507999 -0.354 0.25
5.6589999 -16.371 -0.34999999 0.61000001
5.7360001 -16.427 -0.35299999 0.2
5.7940001 -16.427999 -0.35299999 0.46000001
5.9310002 -16.733999 -0.36399999 0.33000001
6.039 -16.871 -0.36899999 0.46000001
6.454 -17.858 -0.403 0.20999999
6.527 -17.882999 -0.405 0.16
6.6209998 -17.968 -0.40900001 0.40000001
6.6900001 -17.979 -0.41 0.36000001
6.7280002 -17.996 -0.41100001 0.23
6.7350001 -17.841999 -0.40599999 0.51999998
6.7750001 -17.778 -0.405 0.19
6.9899998 -18.173 -0.419 0.57999998
7.0770001 -18.226999 -0.421 0.25
6.6129999 -16.871 -0.37599999 0.34999999
6.5190001 -16.476999 -0.36300001 0.17
6.915 -17.322001 -0.39300001 0.30000001
6.881 -17.159 -0.38699999 0.18000001
6.7509999 -16.681 -0.37200001 0.61000001
6.789 -16.622999 -0.37 0.25
6.8119998 -16.531 -0.368 0.27000001
6.8169999 -16.395 -0.36399999 0.63
6.9000001 -16.451 -0.36700001 0.30000001
7.0050001 -16.554001 -0.37099999 0.27000001
7 -16.472 -0.368 0.20999999
7.0110002 -16.354 -0.36500001 0.47999999
7.0700002 -16.348 -0.366 0.38999999
7.1570001 -16.409 -0.36899999 0.28999999
7.1950002 -16.355 -0.368 0.41
7.2779999 -16.403 -0.37 0.44999999
7.3330002 -16.389999 -0.37 0.41
7.3540001 -16.367001 -0.37 0.31999999
7.4070001 -16.348 -0.37 0.30000001
7.467 -16.344 -0.37099999 0.54000002
7.5440001 -16.375 -0.373 0.18000001
7.5799999 -16.319 -0.37200001 0.61000001
7.6539998 -16.344 -0.373 0.15000001
7.6989999 -16.372999 -0.375 0.34999999
7.7800002 -16.410999 -0.377 0.41
7.8649998 -16.455999 -0.37900001 0.44999999
8.0369997 -16.681999 -0.38800001 0.23999999
8.0790005 -16.635 -0.38800001 0.47
8.2150002 -16.782 -0.39399999 0.28999999
8.2360001 -16.691999 -0.391 0.34
8.3400002 -16.77 -0.39500001 0.38999999
8.4180002 -16.860001 -0.39899999 0.33000001
8.4860001 -16.864 -0.40000001 0.40000001
8.566 -16.891001 -0.40200001 0.38
8.6859999 -16.996 -0.40700001 0.31
8.8540001 -17.193001 -0.41499999 0.54000002
9.0200005 -17.379 -0.42199999 0.23999999
9.0050001 -17.218 -0.41800001 0.36000001
9.0410004 -17.222 -0.41800001 0.28999999
9.1370001 -17.273001 -0.421 0.5
9.3809996 -17.601 -0.43399999 0.22
9.3149996 -17.344999 -0.426 0.28999999
9.4320002 -17.431999 -0.43000001 0.40000001
9.5579996 -17.532 -0.435 0.34999999
9.6219997 -17.52 -0.435 0.31
9.7010002 -17.598 -0.43900001 0.23
9.9759998 -17.964001 -0.45300001 0.57999998
10.197 -18.228001 -0.46399999 0.23
10.797 -19.160999 -0.5 0.28999999
10.157 -17.889999 -0.454 0.2
10.7 -18.712 -0.486 0.17
9.835 -17.132 -0.428 0
12.156 -21.034 -0.57300001 0.12
12.485 -21.448999 -0.58999997 0.22
12.554 -21.413 -0.58999997 0.2
14.22 -23.916 -0.68599999 0.19
15.755 -26.313 -0.77700001 0.11
17.278999 -28.659 -0.86699998 0.34
17.476999 -28.885 -0.87599999 0.25999999
17.618999 -28.914 -0.87900001 0.25
17.722 -28.879 -0.88 0.25
17.834 -28.857 -0.88099998 0.23999999
17.968 -28.871 -0.884 0.25999999
18.08 -28.85 -0.88499999 0.25
18.198 -28.834999 -0.88700002 0.11
18.301001 -28.898001 -0.88999999 0.16
18.41 -28.868999 -0.89200002 0.23
18.535 -28.865 -0.89399999 0.25
18.65 -28.844999 -0.89499998 0.2
18.76 -28.816 -0.89600003 0.18000001
18.895 -28.823999 -0.89899999 0.1
15.932 -23.886 -0.71499997 0.81999999
15.757 -23.462 -0.69999999 0.86000001
15.969 -23.618 -0.708 0.19
16.121 -23.681999 -0.713 0.18000001
16.209 -23.650999 -0.713 0.31
16.296 -23.618999 -0.71399999 0.18000001
16.341999 -23.605 -0.71499997 0.23
16.43 -23.575001 -0.71499997 0.36000001
16.499001 -23.514999 -0.71499997 0.36000001
16.572001 -23.462999 -0.71499997 0.28
16.653 -23.421 -0.71499997 0.31
16.723 -23.364 -0.71499997 0.36000001
16.805 -23.322001 -0.71600002 0.43000001
16.847 -23.304001 -0.71600002 0.27000001
16.913 -23.240999 -0.71600002 0.47
16.985001 -23.186001 -0.71600002 0.23
17.066 -23.143999 -0.71600002 0.20999999
17.121 -23.066 -0.71499997 0
17.205999 -23.030001 -0.71600002 0
17.275 -22.971001 -0.71600002 0
17.316999 -22.952 -0.71600002 0
21.792 -28.705999 -0.949 0
21.843 -28.586 -0.94700003 0
21.931 -28.516001 -0.94700003 0
22.004999 -28.426001 -0.94599998 0
22.061001 -28.313999 -0.94400001 0
22.155001 -28.250999 -0.94499999 0
22.165001 -28.172001 -0.94300002 0
22.261999 -28.114 -0.94300002 0
22.327 -28.014999 -0.94199997 0
22.424999 -27.958 -0.94300002 0
22.493 -27.862 -0.94199997 0
22.584 -27.796 -0.94199997 0
22.664 -27.716 -0.94199997 0
22.729 -27.705999 -0.94300002 0
22.844999 -27.67 -0.94400001 0
22.906 -27.568001 -0.94300002 0
23.014999 -27.521 -0.94400001 0
23.118 -27.469 -0.94499999 0
23.212 -27.405001 -0.94499999 0
23.316 -27.354 -0.94599998 0
23.364 -27.323 -0.94599998 0
23.455 -27.256001 -0.94700003 0
23.552 -27.195 -0.94700003 0
23.65 -27.136 -0.94800001 0
23.747 -27.075001 -0.94800001 0
23.860001 -27.032 -0.94999999 0
23.969 -26.983999 -0.95099998 0
24.055 -26.996 -0.95300001 0
24.146 -26.927 -0.95300001 0
24.224001 -26.844 -0.95300001 0
24.337 -26.799 -0.954 0
24.427 -26.73 -0.95499998 0
24.527 -26.67 -0.95499998 0
24.596001 -26.577 -0.95499998 0
24.653999 -26.556 -0.95499998 0.12
24.780001 -26.524 -0.95700002 0.22
24.916 -26.503 -0.95999998 0.11
25.098 -26.528999 -0.96499997 0.14
25.018 -26.277 -0.95700002 0.28999999
24.785 -25.868999 -0.94199997 0.11
24.636 -25.552 -0.93199998 0.16
24.451 -25.281 -0.921 0.12
24.361 -25.028999 -0.91399997 0.17
24.296 -24.806 -0.90700001 0.28
24.240999 -24.594999 -0.90100002 0.27000001
24.216 -24.415001 -0.89600003 0.11
24.267 -24.313 -0.89499998 0.15000001
24.333 -24.226999 -0.89499998 0.1
24.339001 -24.156 -0.89300001 0.090000004
24.396999 -24.063 -0.89200002 0.079999998
24.476 -23.989 -0.89300001 0.14
24.525999 -23.888 -0.89099997 0.090000004
24.58 -23.790001 -0.88999999 0.079999998
24.643 -23.701 -0.88999999 0.079999998
24.712999 -23.620001 -0.88999999 0.079999998
24.767 -23.597 -0.89099997 0.14
24.834 -23.513 -0.88999999 0.23
24.908001 -23.434 -0.88999999 0.25
24.952 -23.329 -0.889 0.19
24.997999 -23.224001 -0.88800001 0.18000001
25.004 -23.084999 -0.88499999 0.22
25.024 -22.957001 -0.88300002 0.2
24.995001 -22.858999 -0.88 0.2
25.003 -22.722 -0.87699997 0.36000001
25.011 -22.586 -0.87400001 0.23
25.021999 -22.454 -0.87199998 0.23
25.027 -22.316 -0.86900002 0.18000001
25.040001 -22.187 -0.866 0.43000001
25.044001 -22.049999 -0.86400002 0.25
25.032 -21.969999 -0.86199999 0.25999999
25.051001 -21.848 -0.86000001 0.27000001
25.068001 -21.724001 -0.85699999 0.27000001
25.08 -21.597 -0.85500002 0.28
25.101999 -21.479 -0.85299999 0.27000001
25.135 -21.371 -0.852 0.27000001
25.153 -21.25 -0.85000002 0.27000001
25.163 -21.191 -0.84899998 0.27000001
25.187 -21.076 -0.847 0.27000001
25.209999 -20.961 -0.84500003 0.27000001
25.247999 -20.858999 -0.84399998 0.30000001
25.278999 -20.752001 -0.84200001 0.28
25.33 -20.660999 -0.84200001 0.25999999
25.382999 -20.570999 -0.84100002 0.25999999
25.395 -20.514999 -0.84100002 0.30000001
25.448 -20.426001 -0.83999997 0.31
25.539 -20.367001 -0.84100002 0.31
25.591999 -20.278 -0.84100002 0.31
25.622 -20.172001 -0.83899999 0.28
25.632 -20.049 -0.83700001 0.31
25.687 -19.962 -0.83700001 0.33000001
25.722 -19.924 -0.83700001 0.28
25.740999 -19.811001 -0.83499998 0.30000001
25.756001 -19.693001 -0.833 0.34
25.809999 -19.606001 -0.833 0.34
25.870001 -19.524 -0.833 0.31999999
25.926001 -19.438999 -0.833 0.31
25.966 -19.341999 -0.83200002 0.31
25.907 -19.233999 -0.82800001 0.28999999
25.966999 -19.153 -0.82800001 0.38
26.052999 -19.09 -0.829 0.33000001
26.108999 -19.006001 -0.829 0.27000001
26.132 -18.896 -0.82800001 0.36000001
26.218 -18.834 -0.829 0.31
26.245001 -18.728001 -0.82800001 0.31999999
26.264999 -18.68 -0.82700002 0.31999999
26.349001 -18.615999 -0.82800001 0.30000001
26.385 -18.517 -0.82700002 0.44999999
26.41 -18.410999 -0.82599998 0.41
26.295 -18.209 -0.81900001 0.17
26.568001 -18.274 -0.82800001 0.31
26.642 -18.202 -0.82800001 0.34999999
26.674 -18.163 -0.82800001 0.34999999
26.742001 -18.086 -0.829 0.36000001
26.799 -18.002001 -0.829 0.34
26.855 -17.917999 -0.829 0.34
26.952999 -17.861 -0.83099997 0.31
26.993999 -17.767 -0.82999998 0.34
27.059999 -17.688 -0.82999998 0.41999999
27.111 -17.660999 -0.83099997 0.31
27.174999 -17.580999 -0.83200002 0.34
27.261999 -17.516001 -0.833 0.33000001
27.344999 -17.448999 -0.83399999 0.34
27.422001 -17.377001 -0.83499998 0.38
27.518999 -17.316999 -0.83600003 0.31999999
27.591 -17.242001 -0.83700001 0.34999999
27.641001 -17.212999 -0.838 0.31999999
27.737 -17.152 -0.83899999 0.37
27.82 -17.083 -0.84100002 0.31999999
27.896999 -17.01 -0.84100002 0.33000001
28.007999 -16.957001 -0.84399998 0.33000001
28.084 -16.882999 -0.84399998 0.34
28.153999 -16.805 -0.84500003 0.31999999
28.216 -16.782 -0.84600002 0.31999999
28.319 -16.723 -0.84799999 0.38999999
28.407 -16.655001 -0.85000002 0.30000001
28.521999 -16.601999 -0.852 0.36000001
28.627001 -16.542999 -0.85399997 0.28999999
28.728001 -16.481001 -0.85600001 0.37
28.858999 -16.436001 -0.85900003 0.34
28.958 -16.431999 -0.861 0.31
29.046 -16.362 -0.86299998 0.34
29.167 -16.309999 -0.86500001 0.31
29.288 -16.257 -0.86799997 0.28999999
29.396999 -16.197001 -0.87 0.33000001
29.518 -16.143 -0.87199998 0.34
29.642 -16.09 -0.875 0.25999999
29.767 -16.098 -0.87900001 0.38
29.896999 -16.047001 -0.88200003 0.30000001
30.014 -15.988 -0.884 0.31
30.162001 -15.946 -0.88800001 0.31
30.323 -15.909 -0.89200002 0.30000001
30.492001 -15.876 -0.89600003 0.37
30.635 -15.829 -0.89899999 0.31
30.792 -15.848 -0.90399998 0.27000001
30.934 -15.799 -0.90700001 0.28
31.125999 -15.774 -0.91299999 0.19
31.311001 -15.745 -0.917 0.41999999
31.525 -15.728 -0.92299998 0.20999999
31.716999 -15.7 -0.92799997 0.25
31.919001 -15.676 -0.93400002 0.2
32.084999 -15.695 -0.93900001 0.28999999
32.175999 -15.614 -0.94 0.11
32.324001 -15.561 -0.94400001 0.15000001
32.491001 -15.516 -0.94800001 0.090000004
32.655998 -15.469 -0.95200002 0.14
32.808998 -15.415 -0.95599997 0.090000004
32.937 -15.35 -0.95899999 0.090000004
33.035 -15.332 -0.96100003 0.090000004
33.165001 -15.266 -0.96399999 0
33.285999 -15.195 -0.96700001 0
33.410999 -15.126 -0.97000003 0
33.568001 -15.07 -0.97299999 0.079999998
33.723 -15.013 -0.977 0.079999998
33.870998 -14.951 -0.98100001 0.090000004
34.007 -14.948 -0.98500001 0.14
34.186001 -14.899 -0.98900002 0.090000004
34.397999 -14.863 -0.995 0.14
34.598999 -14.821 -1 0.2
34.888 -14.815 -1.0089999 0.23999999
35.217999 -14.825 -1.0190001 0.11
35.557999 -14.837 -1.029 0.16
35.889 -14.909 -1.04 0.090000004
36.268002 -14.934 -1.051 0.15000001
36.650002 -14.957 -1.063 0
36.903999 -14.926 -1.0700001 0
37.083 -14.862 -1.074 0
37.222 -14.783 -1.0779999 0
37.380001 -14.71 -1.081 0
37.479 -14.681 -1.084 0
37.611 -14.597 -1.087 0
37.758999 -14.518 -1.09 0
37.896 -14.434 -1.094 0
38.055 -14.358 -1.097 0
38.194 -14.273 -1.101 0
38.34 -14.191 -1.104 0
38.463001 -14.168 -1.108 0
38.601002 -14.081 -1.1109999 0
38.734001 -13.992 -1.114 0
38.891998 -13.911 -1.118 0
39.047001 -13.829 -1.1210001 0
39.201 -13.745 -1.125 0
39.346001 -13.657 -1.1289999 0
39.452999 -13.625 -1.132 0
39.609001 -13.54 -1.135 0
39.769001 -13.455 -1.1390001 0
39.910999 -13.364 -1.143 0
40.067001 -13.276 -1.147 0
40.201 -13.181 -1.15 0
40.339001 -13.086 -1.153 0
40.507999 -13.07 -1.158 0
40.694 -12.989 -1.163 0
40.882999 -12.909 -1.168 0
41.064999 -12.824 -1.173 0
41.254002 -12.741 -1.178 0
41.41 -12.647 -1.181 0
41.587002 -12.559 -1.186 0
41.755001 -12.538 -1.191 0
41.928001 -12.446 -1.1950001 0
42.095001 -12.352 -1.2 0
42.330002 -12.277 -1.206 0
40.257999 -11.538 -1.136 0
40.692001 -11.524 -1.149 0
41.384998 -11.581 -1.171 0
41.995998 -11.681 -1.191 0
42.358002 -11.639 -1.202 0
42.865002 -11.634 -1.217 0
43.539001 -11.67 -1.238 0
44.154999 -11.687 -1.258 0
44.785 -11.704 -1.277 0
45.391998 -11.711 -1.296 0
46.077 -11.81 -1.318 0
46.796001 -11.839 -1.341 0
44.096001 -11.007 -1.25 0
45.171001 -11.125 -1.285 0
46.106998 -11.203 -1.314 0
46.759998 -11.206 -1.335 0
47.370998 -11.196 -1.354 0
47.648998 -11.182 -1.362 0
47.806999 -11.061 -1.3660001 0
47.863998 -10.916 -1.367 0
47.895 -10.765 -1.367 0
48.077999 -10.648 -1.372 0
48.120998 -10.499 -1.372 0
46.414001 -9.7440004 -1.314 0
47.250999 -9.7650003 -1.34 0
47.769001 -9.7159996 -1.3559999 0
47.964001 -9.599 -1.3609999 0
47.799999 -9.4099998 -1.355 0
48.138 -9.3199997 -1.365 0
48.106998 -9.2360001 -1.364 0
48.521 -9.1569996 -1.376 0
48.762001 -9.0439997 -1.383 0
49.056999 -8.9399996 -1.392 0
48.741001 -8.408 -1.3789999 0
49.703999 -8.4949999 -1.41 0
50.07 -8.3950005 -1.421 0
50.256001 -8.2639999 -1.426 0
50.443001 -8.1330004 -1.431 0
50.532001 -7.9840002 -1.433 0
50.619999 -7.835 -1.4349999 0
50.701 -7.6849999 -1.437 0
49.555 -6.954 -1.397 0
49.547001 -6.7940001 -1.396 0
49.452 -6.6230001 -1.393 0
49.137001 -6.4229999 -1.382 0
48.605999 -6.198 -1.364 0
42.922001 -5.402 -1.1799999 0
45.68 -5.605 -1.2690001 0
45.783001 -5.4720001 -1.271 0
47.492001 -5.526 -1.326 0
48.979 -5.5440001 -1.373 0
48.842999 -5.3730001 -1.368 0
48.742001 -5.2839999 -1.365 0
48.874001 -5.1430001 -1.369 0
49.027 -5.0040002 -1.373 0
49.080002 -4.8530002 -1.374 0
49.050999 -4.6950002 -1.373 0
48.956001 -4.5310001 -1.369 0
49.006001 -4.3800001 -1.37 0
48.984001 -4.1459999 -1.369 0.23
48.855999 -3.98 -1.365 0
48.848 -3.825 -1.364 0
49.097 -3.6900001 -1.372 0
24.82 -1.696 -0.59200001 0
24.851 -1.658 -0.59299999 0
23.034 -1.4630001 -0.53399998 0.059999999
22.756001 -1.373 -0.52499998 0.2
22.705999 -1.298 -0.52399999 0.2
22.714001 -1.227 -0.52399999 0.2
22.700001 -1.155 -0.523 0.17
22.709 -1.084 -0.523 0.41
22.697001 -1.0470001 -0.523 0.23999999
22.691999 -0.97600001 -0.523 0.2
22.683001 -0.90399998 -0.52200001 0.16
22.658001 -0.83200002 -0.52100003 0
22.691999 -0.69 -0.52200001 0.20999999
22.709 -0.61900002 -0.523 0.25999999
22.701 -0.583 -0.52200001 0.25
22.695 -0.51200002 -0.52200001 0.11
22.711 -0.44100001 -0.523 0.16
22.718 -0.37 -0.523 0.1
22.729 -0.29800001 -0.523 0.15000001
22.77 -0.227 -0.52399999 0
22.738001 -0.156 -0.523 0
22.757 -0.12 -0.52399999 0
22.896999 -0.048999999 -0.528 0
23.374001 0.052000001 -0.69700003 0
42.912998 0.252 -1.45 0
42.896 0.38699999 -1.45 0
42.924999 0.52200001 -1.451 0
42.941002 0.65700001 -1.452 0
42.976002 0.792 -1.4529999 0
43.139 0.86299998 -1.459 0
42.858002 0.99199998 -1.449 0
42.965 1.13 -1.4529999 0
42.988998 1.266 -1.454 0
42.988998 1.401 -1.454 0
43.060001 1.539 -1.457 0
43.069 1.674 -1.4579999 0
43.035999 1.809 -1.456 0
43.047001 1.877 -1.457 0
43.049 2.0120001 -1.457 0
43.009998 2.1459999 -1.456 0
42.994999 2.2809999 -1.456 0
42.967999 2.415 -1.455 0
42.993999 2.552 -1.456 0
42.993999 2.687 -1.457 0
43.007 2.756 -1.457 0
43.034 2.8929999 -1.459 0
43.078999 3.0320001 -1.461 0
43.073002 3.168 -1.461 0
43.025002 3.3 -1.459 0
43.008999 3.4349999 -1.459 0
43.047001 3.506 -1.461 0
43.134998 3.6500001 -1.465 0
42.937 3.7690001 -1.4579999 0
43.051998 3.915 -1.462 0
43.103001 4.0570002 -1.465 0
43.279999 4.348 -1.473 0
43.292999 4.4180002 -1.474 0
43.282001 4.5539999 -1.474 0
43.242001 4.6869998 -1.473 0
43.266998 4.8280001 -1.474 0
43.305 4.9699998 -1.476 0
43.337002 5.1110001 -1.478 0
43.34 5.25 -1.479 0
43.367001 5.3920002 -1.4809999 0
43.424 5.4679999 -1.483 0
43.689999 5.9200001 -1.4960001 0
43.754002 6.0689998 -1.499 0
43.826 6.2199998 -1.502 0
