# .PCD v0.7 - Point Cloud Data file format
VERSION 0.7
FIELDS x y z intensity
SIZE 4 4 4 4
TYPE F F F F
COUNT 1 1 1 1
WIDTH 1424
HEIGHT 1
VIEWPOINT 0 0 0 1 0 0 0
POINTS 1424
DATA ascii
-30.597 -15.767 -1.926 0.33000001
-30.129999 -15.646 -1.897 0.16
-30.42 -15.918 -1.921 0.30000001
-30.686001 -16.18 -1.943 0.17
-29.754 -15.748 -1.88 0.28999999
-29.658001 -15.817 -1.876 0.22
-29.584 -15.897 -1.875 0.33000001
-29.149 -15.781 -1.848 0.36000001
-29.205 -15.93 -1.855 0.25999999
-28.775 -15.813 -1.8279999 0.31999999
-29.101999 -16.112 -1.855 0.30000001
-29.188999 -16.219999 -1.863 0.33000001
-28.974001 -16.219999 -1.851 0.2
-28.625999 -16.143 -1.83 0.31
-28.58 -16.236 -1.831 0.27000001
-29.243999 -16.736 -1.882 0.23
-29.358999 -16.924 -1.8940001 0.14
-29.23 -16.972 -1.888 0
-29.358 -17.232 -1.903 0.17
-28.122999 -16.625999 -1.818 0.19
-29.936001 -17.826 -1.9529999 0.14
-28.922001 -17.344999 -1.883 0.25
-28.85 -17.424999 -1.882 0.28
-28.475 -17.32 -1.859 0.28999999
-28.575001 -17.443001 -1.868 0.20999999
-28.797001 -17.702999 -1.888 0.13
-28.306999 -17.525 -1.857 0.19
-28.153999 -17.552 -1.85 0.17
-28.334999 -17.789 -1.867 0.15000001
-28.299 -17.891001 -1.868 0
-28.023001 -17.839001 -1.852 0
-29.615 -18.92 -1.971 0.12
-28.51 -18.34 -1.8940001 0.16
-28.261999 -18.305 -1.88 0.13
-27.827999 -18.148001 -1.852 0.2
-28.128 -18.469999 -1.8789999 0
-27.665001 -18.291 -1.849 0.11
-25.926001 -17.315001 -1.726 0.19
-31.099001 -20.917999 -2.1159999 0.18000001
-26.784 -18.132999 -1.798 0.2
-26.000999 -17.722 -1.744 0.18000001
-25.858 -17.743999 -1.737 0.25
-25.823999 -17.84 -1.739 0.30000001
-25.763 -17.858 -1.7359999 0.31999999
-25.723 -17.950001 -1.738 0.17
-25.653 -18.021 -1.737 0
-25.841 -18.275 -1.755 0.15000001
-24.931999 -17.749001 -1.6900001 0.18000001
-26.103001 -18.708 -1.784 0.13
-24.778 -17.875 -1.687 0.38999999
-24.756001 -17.917999 -1.688 0.14
-25.124001 -18.305 -1.72 0.25999999
-24.500999 -17.969 -1.677 0.11
-24.514999 -18.099001 -1.682 0.34
-23.714001 -17.621 -1.625 0.30000001
-23.684 -17.715 -1.627 0.38
-23.464001 -17.665001 -1.614 0.30000001
-23.368999 -17.650999 -1.609 0.34
-23.326 -17.733999 -1.61 0.31999999
-23.218 -17.768 -1.6059999 0.41
-23.264 -17.919001 -1.614 0.31999999
-23.18 -17.971001 -1.612 0.27000001
-19.768 -15.42 -1.348 0.47999999
-22.829 -17.927999 -1.5930001 0.15000001
-19.67 -15.493 -1.346 0.25
-19.687 -15.607 -1.351 0.51999998
-19.698 -15.717 -1.3559999 0.36000001
-19.591 -15.733 -1.352 0.19
-19.152 -15.479 -1.321 0.38999999
-19.214001 -15.629 -1.329 0.34999999
-19.167 -15.691 -1.33 0.44999999
-19.454 -15.978 -1.355 0.25
-19.450001 -16.077 -1.358 0.38
-19.042 -15.84 -1.33 0.27000001
-18.972 -15.883 -1.3279999 0.30000001
-18.799 -15.838 -1.318 0.37
-18.816999 -15.956 -1.323 0.37
-18.629999 -15.847 -1.3099999 0.30000001
-18.694 -16.003 -1.3200001 0.34999999
-18.725 -16.132 -1.326 0.37
-18.538 -16.073 -1.3150001 0.28999999
-18.424999 -16.075001 -1.3099999 0.44
-18.448 -16.198 -1.316 0.31999999
-18.490999 -16.339001 -1.324 0.31
-18.569 -16.461 -1.332 0.34
-18.516001 -16.518 -1.332 0.47999999
-18.299 -16.427999 -1.319 0.30000001
-18.302999 -16.535 -1.323 0.34
-18.431999 -16.757999 -1.3380001 0.34999999
-18.351 -16.790001 -1.336 0.31999999
-18.209 -16.764999 -1.3279999 0.31999999
-18.254 -16.860001 -1.334 0.27000001
-18.172001 -16.889999 -1.332 0.51999998
-18.115 -16.943001 -1.332 0.22
-18.052999 -16.990999 -1.331 0.30000001
-17.948 -17 -1.327 0.36000001
-17.971001 -17.129 -1.3329999 0.34
-18.077 -17.339001 -1.347 0.46000001
-18.503 -17.804001 -1.386 0.20999999
-17.899 -17.330999 -1.339 0.30000001
-17.848 -17.389999 -1.339 0.41
-17.882999 -17.534 -1.347 0.30000001
-17.833 -17.596001 -1.347 0.37
-17.775 -17.649 -1.347 0.25999999
-17.718 -17.646999 -1.344 0.25
-17.761999 -17.802999 -1.353 0.38999999
-17.997999 -18.153999 -1.3789999 0.28999999
-20.849001 -21.167999 -1.635 0.25999999
-20.160999 -20.728001 -1.586 0.38999999
-20.261 -20.962 -1.601 0.2
-20.676001 -21.594999 -1.647 0.19
-19.372 -20.358999 -1.536 0.11
-19.070999 -20.169001 -1.5140001 0.19
-18.754 -19.958 -1.4910001 0.30000001
-18.681 -20.006001 -1.4910001 0.44
-18.691999 -20.143999 -1.497 0.25999999
-18.674999 -20.188999 -1.499 0.37
-18.549 -20.18 -1.493 0.38
-18.502001 -20.256001 -1.494 0.28
-18.371 -20.24 -1.488 0.34999999
-18.368999 -20.365999 -1.494 0.37
-18.271999 -20.386 -1.4910001 0.34
-18.253 -20.493999 -1.495 0.38
-18.233999 -20.538 -1.4960001 0.28999999
-18.02 -20.426001 -1.482 0.2
-18.120001 -20.67 -1.498 0.41
-18.047001 -20.718 -1.497 0.25
-17.827999 -20.596001 -1.482 0.30000001
-17.697001 -20.575001 -1.476 0.31999999
-17.481001 -20.452999 -1.462 0.31
-17.415001 -20.441 -1.4579999 0.28999999
-17.468 -20.634001 -1.47 0.22
-17.218 -20.469 -1.452 0.30000001
-17.068001 -20.42 -1.444 0.36000001
-17.172001 -20.676001 -1.46 0.18000001
-17.202999 -20.847 -1.469 0.38999999
-17.414 -21.17 -1.493 0.19
-18.160999 -22.223 -1.573 0.14
-16.896999 -20.806999 -1.455 0.38
-16.823 -20.849001 -1.454 0.34
-16.48 -20.555 -1.427 0.31999999
-16.32 -20.487 -1.418 0.34
-16.051001 -20.278999 -1.397 0.38
-15.94 -20.204 -1.3890001 0.16
-15.829 -20.193001 -1.3839999 0.38
-15.764 -20.240999 -1.3839999 0.37
-15.703 -20.292999 -1.385 0.38
-15.428 -20.066999 -1.363 0.28999999
-15.382 -20.138 -1.365 0.38999999
-15.34 -20.215 -1.367 0.41
-15.4 -20.360001 -1.376 0.31
-15.309 -20.372999 -1.374 0.31
-15.226 -20.395 -1.372 0.20999999
-15.088 -20.344 -1.364 0.25
-15.631 -21.216 -1.427 0.36000001
-15.068 -20.722 -1.382 0.38999999
-15.124 -20.868999 -1.392 0.25999999
-15.329 -21.292 -1.42 0.14
-14.933 -20.879 -1.385 0.44999999
-14.905 -20.98 -1.3890001 0.25
-14.814 -20.99 -1.387 0.47
-15.17 -21.639999 -1.432 0.25999999
-15.201 -21.830999 -1.443 0.25
-16.216999 -23.371 -1.557 0.27000001
-16.628 -24.125999 -1.61 0.17
-18.767 -27.42 -1.853 0.2
-18.664 -27.454 -1.851 0.2
-18.530001 -27.441 -1.845 0
-17.698999 -26.388 -1.763 0.16
-13.324 -20.056 -1.2869999 0.30000001
-13.278 -20.125 -1.289 0.44
-13.231 -20.191 -1.291 0.23999999
-13.086 -20.107 -1.281 0.43000001
-13.033 -20.163 -1.2819999 0.37
-12.922 -20.129999 -1.277 0.25
-12.888 -20.146999 -1.277 0.22
-13.497 -21.247999 -1.354 0.47999999
-12.993 -20.74 -1.311 0.38999999
-13.123 -21.096001 -1.334 0.18000001
-13.036 -21.103001 -1.332 0.25
-12.613 -20.562 -1.29 0.31999999
-12.602 -20.615999 -1.2920001 0.33000001
-12.784 -21.063 -1.321 0.34
-12.723 -21.112 -1.322 0.44999999
-12.684 -21.198 -1.325 0.34999999
-12.561 -21.142 -1.319 0.28999999
-12.464 -21.129999 -1.3150001 0.38999999
-12.442 -21.167999 -1.316 0.38999999
-12.369 -21.197001 -1.3150001 0.31
-12.26 -21.163 -1.3099999 0.34999999
-12.183 -21.181999 -1.309 0.41999999
-11.353 -19.879999 -1.2130001 0.38
-12.198 -21.521 -1.3279999 0.20999999
-11.954 -21.246 -1.3049999 0.23
-12.02 -21.441999 -1.318 0.40000001
-11.804 -21.211 -1.299 0.30000001
-11.046 -19.993999 -1.21 0.13
-11.033 -20.120001 -1.217 0.43000001
-10.979 -20.17 -1.2180001 0.25
-15.349 -28.434 -1.796 0.2
-11.175 -20.843 -1.26 0.13
-10.838 -20.289 -1.22 0.41
-10.792 -20.357 -1.223 0.38999999
-10.749 -20.431 -1.225 0.14
-10.676 -20.447001 -1.224 0.47999999
-10.627 -20.511 -1.226 0.27000001
-11.333 -22.047001 -1.331 0.38
-10.945 -21.455999 -1.2869999 0.19
-10.813 -21.278999 -1.274 0.43000001
-10.49 -20.805 -1.239 0.20999999
-10.547 -21.082001 -1.256 0.30000001
-10.498 -21.149 -1.258 0.40000001
-10.391 -21.101999 -1.252 0.51999998
-10.315 -21.115 -1.251 0.19
-10.411 -21.396 -1.2690001 0.33000001
-10.31 -21.358999 -1.2640001 0.14
-10.239 -21.382 -1.2640001 0.38999999
-13.372 -28.17 -1.726 0.18000001
-13.246 -28.132999 -1.721 0.15000001
-9.8870001 -21.156 -1.242 0.34
-10.31 -22.247 -1.314 0.15000001
-12.67 -27.694 -1.681 0.57999998
-12.134 -26.742001 -1.614 0.12
-9.6339998 -21.399 -1.249 0.41
-12.42 -27.839001 -1.683 0.19
-12.287 -27.774 -1.676 0.27000001
-12.217 -27.853001 -1.679 0.31
-12.169 -27.863001 -1.678 0.31999999
-12.108 -27.961 -1.682 0.20999999
-12.029 -28.021 -1.684 0.25999999
-9.0249996 -21.191 -1.222 0.30000001
-9.0019999 -21.322001 -1.229 0.57999998
-8.8330002 -21.107 -1.2130001 0.22
-8.8199997 -21.264 -1.221 0.20999999
-8.8280001 -21.377001 -1.228 0.38
-8.5900002 -20.987 -1.2 0.20999999
-8.5690002 -21.125 -1.2079999 0.38999999
-8.5790005 -21.343 -1.22 0.25
-8.3129997 -20.868999 -1.187 0.22
-8.3210001 -21.08 -1.199 0.57999998
-8.2220001 -21.023001 -1.194 0.18000001
-8.1110001 -21.030001 -1.192 0.54000002
-8.099 -21.198999 -1.201 0.36000001
-8.0489998 -21.267 -1.204 0.30000001
-8.0710001 -21.530001 -1.22 0.20999999
-7.4130001 -19.959999 -1.114 0.19
-8.0179996 -21.700001 -1.228 0.14
-7.941 -21.701 -1.227 0.25
-7.914 -22.056999 -1.247 0.57999998
-7.8540001 -22.108 -1.249 0.22
-7.8470001 -22.309999 -1.26 0.33000001
-8.2519999 -23.702999 -1.35 0.22
-7.4520001 -21.509001 -1.205 0.18000001
-6.9219999 -20.179001 -1.117 0.38999999
-6.8280001 -20.110001 -1.1109999 0.16
-6.7779999 -20.171 -1.114 0.55000001
-6.6599998 -20.025999 -1.103 0.25999999
-6.5700002 -19.965 -1.098 0.46000001
-6.513 -20.003 -1.099 0.30000001
-6.48 -20.007 -1.098 0.46000001
-6.5240002 -20.364 -1.12 0.38
-6.4720001 -20.423 -1.123 0.25999999
-6.4099998 -20.450001 -1.123 0.61000001
-6.3400002 -20.451 -1.122 0.34
-5.9770002 -19.493999 -1.059 0.28999999
-5.9159999 -19.4 -1.052 0.28999999
-5.823 -19.313 -1.045 0.46000001
-6.0749998 -20.386 -1.113 0.23
-5.5120001 -18.702 -1.003 0.36000001
-5.4369998 -18.664 -1 0.34999999
-5.401 -18.761 -1.005 0.37
-5.3369999 -18.761 -1.0039999 0.25999999
-5.257 -18.589001 -0.99199998 0.41
-5.2020001 -18.615999 -0.99299997 0.31999999
-5.1589999 -18.690001 -0.99699998 0.34
-5.1100001 -18.740999 -0.99900001 0.43000001
-5.0700002 -18.827 -1.003 0.41999999
-5.0040002 -18.816999 -1.002 0.28999999
-4.9390001 -18.812 -1 0.46000001
-4.908 -18.816 -1 0.34
-4.842 -18.802 -0.99800003 0.47999999
-4.743 -18.66 -0.98799998 0.34
-4.684 -18.673 -0.98799998 0.41999999
-4.5560002 -18.407 -0.97000003 0.38
-4.4159999 -18.083 -0.949 0.34999999
-4.4050002 -18.16 -0.95300001 0.38
-4.3559999 -18.209 -0.95599997 0.41999999
-4.2950001 -18.205 -0.954 0.23999999
-4.256 -18.299999 -0.95999998 0.57999998
-4.2620001 -18.59 -0.977 0.23999999
-4.0599999 -17.966 -0.93699998 0.31
-3.9749999 -17.848 -0.92799997 0.25
-3.9419999 -17.833 -0.92699999 0.58999997
-3.908 -17.947001 -0.93400002 0.20999999
-3.858 -17.986 -0.935 0.51999998
-3.809 -18.034 -0.93699998 0.28999999
-3.7309999 -17.945999 -0.93099999 0.49000001
-3.7190001 -18.174 -0.94499999 0.33000001
-3.585 -17.802 -0.921 0.31
-3.5539999 -17.790001 -0.92000002 0.44999999
-3.5139999 -17.886 -0.92500001 0.38
-3.461 -17.912001 -0.926 0.41999999
-3.477 -18.304001 -0.94999999 0.31
-3.382 -18.115999 -0.93699998 0.31999999
-3.323 -18.113001 -0.93699998 0.44999999
-3.3110001 -18.211 -0.94199997 0.34999999
-3.2579999 -18.243999 -0.94400001 0.56999999
-3.1500001 -17.964001 -0.926 0.20999999
-3.049 -17.712 -0.90899998 0.41
-2.98 -17.642 -0.90399998 0.27000001
-3.079 -18.589001 -0.963 0.46000001
-2.984 -18.372 -0.949 0.33000001
-2.8740001 -17.868 -0.917 0.41
-3.0139999 -19.134001 -0.99599999 0.30000001
-2.9619999 -19.195999 -0.99900001 0.43000001
-2.911 -19.271 -1.003 0.23
-2.7509999 -18.596001 -0.95999998 0.56999999
-2.79 -19.289 -1.003 0.22
-2.6329999 -18.605 -0.95999998 0.34
-2.5999999 -18.582001 -0.958 0.38999999
-2.441 -17.846001 -0.912 0.23
-2.302 -17.226 -0.87199998 0.58999997
-2.2750001 -17.447001 -0.88599998 0.31999999
-2.227 -17.507999 -0.889 0.23999999
-2.1500001 -17.332001 -0.87800002 0.41
-2.0969999 -17.355 -0.87900001 0.41
-2.069 -17.35 -0.87800002 0.38
-2.026 -17.455999 -0.884 0.31999999
-2.1199999 -18.802999 -0.96799999 0.41999999
-1.948 -17.768 -0.903 0.43000001
-1.892 -17.768 -0.903 0.36000001
-1.8279999 -17.694 -0.898 0.31
-1.798 -17.679001 -0.89700001 0.44999999
-1.752 -17.775999 -0.90200001 0.30000001
-1.7589999 -18.455 -0.94400001 0.19
-1.659 -18 -0.91600001 0.57999998
-1.6109999 -18.096001 -0.921 0.2
-1.5470001 -18.02 -0.91600001 0.51999998
-1.493 -18.062 -0.91799998 0.33000001
-1.4450001 -17.808001 -0.903 0.46000001
-1.392 -17.862 -0.90600002 0.31
-1.352 -18.079 -0.91900003 0.44999999
-1.293 -18.054001 -0.917 0.23
-1.234 -18.018 -0.91500002 0.5
-1.166 -17.844 -0.90399998 0.38999999
-1.104 -17.752001 -0.898 0.31
-1.0779999 -17.796 -0.89999998 0.30000001
-1.021 -17.764999 -0.898 0.38999999
-0.96499997 -17.766001 -0.898 0.38
-0.926 -18.112 -0.91900003 0.34
-0.87900001 -18.327999 -0.93199998 0.41
-0.82599998 -18.441 -0.93900001 0.34
-0.79699999 -18.444 -0.93900001 0.57999998
-0.79699999 -19.926001 -1.031 0.18000001
-0.66399997 -17.962 -0.90899998 0.23999999
-0.60100001 -17.761999 -0.89700001 0.31999999
-0.54900002 -17.903999 -0.90499997 0.49000001
-0.495 -17.989 -0.91100001 0.2
-0.43599999 -17.889 -0.90399998 0.51999998
-0.41100001 -18.017 -0.912 0.31
-0.352 -17.882999 -0.90399998 0.28
-0.296 -17.922001 -0.90600002 0.55000001
-0.242 -18.059999 -0.91500002 0.25999999
-0.185 -18.009001 -0.91100001 0.56
-0.12899999 -18.111 -0.91799998 0.30000001
-0.071999997 -18.073999 -0.91500002 0.34
-0.043000001 -18.068001 -0.91500002 0.47
0.014 -18.042 -0.91299999 0.47999999
0.068999998 -17.761999 -0.89600003 0.38
0.115 -16.610001 -0.82499999 0.23999999
0.168 -16.690001 -0.82999998 0.44
0.229 -17.26 -0.86500001 0.25999999
0.27900001 -17.042 -0.852 0.44999999
0.31 -17.249001 -0.86500001 0.27000001
0.366 -17.347 -0.87099999 0.43000001
0.421 -17.35 -0.87099999 0.36000001
0.47499999 -17.344999 -0.87099999 0.47999999
0.53200001 -17.403 -0.87400001 0.37
0.579 -17.195999 -0.86199999 0.31
0.60699999 -17.211 -0.86299998 0.46000001
0.66100001 -17.212999 -0.86299998 0.47999999
0.84500003 -20.226 -1.05 0.15000001
0.764 -17.089001 -0.85600001 0.38
0.97100002 -20.207001 -1.049 0.44999999
1.1950001 -23.253 -1.238 0.41
1.104 -20.299999 -1.0549999 0.38999999
1.048 -18.759001 -0.95999998 0.20999999
0.98799998 -16.787001 -0.838 0.18000001
1.038 -16.746 -0.83499998 0.55000001
1.226 -18.777 -0.96100003 0.43000001
1.266 -17.702999 -0.89499998 0.44
1.294 -17.695 -0.89499998 0.28
1.346 -17.653 -0.89300001 0.58999997
1.3890001 -17.493999 -0.88300002 0.40000001
1.6289999 -19.688999 -1.0190001 0.23
1.742 -19.558001 -1.012 0.37
1.818 -19.707001 -1.022 0.17
1.834 -19.551001 -1.012 0.2
1.615 -16.687 -0.83399999 0.28
1.666 -16.674999 -0.83399999 0.49000001
1.99 -19.259001 -0.995 0.17
1.76 -16.559 -0.82700002 0.15000001
1.812 -16.554001 -0.82700002 0.30000001
1.859 -16.507999 -0.82499999 0.62
2.2090001 -19.305 -0.99900001 0.2
2.25 -19.128 -0.98900002 0.44
2.3210001 -19.216 -0.995 0.27000001
2.1830001 -17.624001 -0.89600003 0.23999999
2.2149999 -17.434999 -0.88499999 0.27000001
2.237 -17.174 -0.86900002 0.30000001
2.2420001 -17.009001 -0.85900003 0.55000001
2.3069999 -17.084999 -0.86400002 0.25999999
2.3710001 -17.156 -0.86900002 0.27000001
2.424 -17.139 -0.86799997 0.56999999
2.9000001 -20.018999 -1.049 0.28999999
2.529 -17.106001 -0.86699998 0.23
2.579 -17.072001 -0.86500001 0.44999999
2.618 -17.146999 -0.87 0.55000001
2.655 -17.032 -0.86400002 0.12
2.7160001 -17.070999 -0.86699998 0.18000001
2.7639999 -17.028999 -0.86500001 0.47999999
2.823 -17.055 -0.86699998 0.30000001
2.859 -16.941999 -0.86000001 0.55000001
2.9130001 -16.934999 -0.86000001 0.27000001
2.9360001 -16.913 -0.85900003 0.50999999
3.0969999 -17.507 -0.89700001 0.2
3.1830001 -17.67 -0.90799999 0.54000002
3.24 -17.664 -0.90799999 0.16
3.563 -19.076 -0.99800003 0.23999999
3.29 -17.327 -0.88800001 0.44999999
3.3169999 -17.322001 -0.88800001 0.31999999
3.49 -17.915001 -0.926 0.34
3.543 -17.886 -0.92500001 0.40000001
3.4430001 -17.106001 -0.87699997 0.46000001
3.5150001 -17.183001 -0.88200003 0.31999999
3.652 -17.570999 -0.90700001 0.34999999
3.7030001 -17.540001 -0.90600002 0.55000001
3.6589999 -17.195999 -0.88499999 0.30000001
4.4590001 -20.614 -1.102 0.27000001
4.7459998 -21.608999 -1.166 0.16
4.7940001 -21.503 -1.16 0.37
4.8449998 -21.415001 -1.156 0.30000001
4.0830002 -17.806 -0.92699999 0.31
4.0539999 -17.431 -0.90399998 0.31999999
4.2160001 -17.996 -0.94099998 0.38999999
4.283 -18.025 -0.94300002 0.25
4.2639999 -17.701 -0.92400002 0.30000001
4.2779999 -17.517 -0.91299999 0.62
4.2480001 -17.163 -0.89099997 0.22
4.296 -17.125999 -0.88999999 0.36000001
4.3530002 -17.124001 -0.88999999 0.43000001
4.3460002 -16.986 -0.88200003 0.40000001
4.3990002 -16.974001 -0.88200003 0.34
4.4650002 -17.004999 -0.88499999 0.38
4.5380001 -17.066 -0.88999999 0.40000001
4.5370002 -16.849001 -0.87699997 0.38999999
4.6149998 -16.927 -0.88300002 0.16
4.7399998 -17.278 -0.90600002 0.52999997
4.7930002 -17.254999 -0.90499997 0.40000001
4.8579998 -17.278 -0.90799999 0.25999999
4.882 -17.159 -0.90100002 0.55000001
4.941 -17.160999 -0.90200001 0.27000001
4.993 -17.139999 -0.90200001 0.38
5.566 -18.875 -1.015 0.47999999
5.0120001 -16.91 -0.88800001 0.28999999
5.0970001 -16.999001 -0.89499998 0.22
5.1459999 -16.969 -0.89399999 0.61000001
5.2030001 -16.965 -0.89499998 0.22
5.1279998 -16.537001 -0.86799997 0.46000001
5.4889998 -17.500999 -0.93199998 0.19
5.3520002 -16.973 -0.898 0.36000001
5.3940001 -16.92 -0.89600003 0.34999999
5.4310002 -16.853001 -0.89300001 0.43000001
5.4530001 -16.743 -0.88700002 0.5
5.5019999 -16.712999 -0.88599998 0.33000001
5.3720002 -16.15 -0.85000002 0.28999999
5.4559999 -16.231001 -0.85699999 0.34
5.4720001 -16.194 -0.85500002 0.5
5.5469999 -16.249001 -0.85900003 0.34
5.6110001 -16.268999 -0.86199999 0.44999999
5.6069999 -16.093 -0.852 0.47
5.6500001 -16.055 -0.85000002 0.23
5.5370002 -15.58 -0.81999999 0.38999999
5.5669999 -15.508 -0.81699997 0.27000001
5.914 -16.391001 -0.875 0.43000001
5.9899998 -16.440001 -0.88 0.38
6.0359998 -16.406 -0.87900001 0.44999999
6.2270002 -16.759001 -0.903 0.36000001
6.1960001 -16.517 -0.889 0.44
6.257 -16.524 -0.88999999 0.25
6.1160002 -16.076 -0.861 0.56999999
6.2919998 -16.382 -0.88300002 0.27000001
6.4770002 -16.705999 -0.90600002 0.31
6.4850001 -16.570999 -0.898 0.47999999
6.5079999 -16.478001 -0.89300001 0.33000001
6.4660001 -16.222 -0.87800002 0.41999999
6.5349998 -16.247999 -0.88099998 0.37
6.5609999 -16.24 -0.88099998 0.54000002
6.6269999 -16.254 -0.88300002 0.25999999
6.6799998 -16.239 -0.884 0.56999999
6.77 -16.312 -0.88999999 0.28
6.9029999 -16.483 -0.903 0.25999999
6.9860001 -16.535 -0.90799999 0.41
7.092 -16.639999 -0.91600001 0.43000001
7.2600002 -16.959 -0.93800002 0.27000001
7.0689998 -16.374001 -0.90100002 0.22
7.0689998 -16.233999 -0.89300001 0.60000002
7.217 -16.431 -0.90700001 0.38
7.2870002 -16.450001 -0.91000003 0.22
7.223 -16.169001 -0.89300001 0.46000001
7.3639998 -16.414 -0.91000003 0.23999999
7.3299999 -16.202 -0.89700001 0.62
7.3649998 -16.146 -0.89499998 0.22
8.1120005 -17.631001 -0.99800003 0.44999999
8.9940004 -19.379999 -1.119 0.25999999
7.8060002 -16.690001 -0.93699998 0.20999999
7.868 -16.684999 -0.93800002 0.28
9.059 -19.125 -1.1059999 0.41
9.0509996 -18.954 -1.097 0.16
7.7459998 -16.1 -0.903 0.30000001
7.8319998 -16.149 -0.90799999 0.31
7.848 -16.055 -0.903 0.43000001
7.8909998 -16.014 -0.90200001 0.44999999
9.4329996 -19.056999 -1.113 0.25
8.5979996 -17.239 -0.98900002 0.23999999
8.6009998 -17.110001 -0.98199999 0.37
8.5699997 -16.917 -0.97000003 0.44
8.6569996 -16.955999 -0.97500002 0.20999999
8.7030001 -16.914 -0.97399998 0.31999999
8.5059996 -16.405001 -0.94 0.16
8.1859999 -15.73 -0.89399999 0.62
8.3529997 -15.929 -0.91000003 0.28999999
8.9169998 -16.872 -0.97799999 0.30000001
8.8219995 -16.566 -0.958 0.27000001
8.835 -16.466 -0.95300001 0.52999997
9.0039997 -16.653999 -0.96799999 0.25999999
9.1899996 -16.871 -0.986 0.30000001
8.8929996 -16.267 -0.94400001 0.28999999
8.7690001 -15.923 -0.92199999 0.41
8.8500004 -15.951 -0.926 0.34999999
8.9130001 -15.946 -0.92699999 0.37
8.9960003 -15.975 -0.93099999 0.43000001
9.0279999 -15.915 -0.92900002 0.28
9.026 -15.854 -0.926 0.56
9.2049999 -16.051001 -0.94199997 0.28999999
9.2089996 -15.941 -0.93599999 0.25999999
9.4060001 -16.163 -0.954 0.27000001
9.4429998 -16.111 -0.95300001 0.41
9.3620005 -15.858 -0.93699998 0.40000001
9.2580004 -15.572 -0.91799998 0.31
9.1870003 -15.398 -0.90700001 0.41999999
9.2270002 -15.355 -0.90600002 0.34999999
9.309 -15.381 -0.90899998 0.55000001
9.4060001 -15.431 -0.91500002 0.34999999
9.757 -15.893 -0.95099998 0.28
9.6140003 -15.552 -0.92799997 0.37
9.5830002 -15.447 -0.92199999 0.28
9.5240002 -15.246 -0.90899998 0.56999999
9.9029999 -15.741 -0.94800001 0.15000001
9.9689999 -15.735 -0.94999999 0.38999999
9.8459997 -15.435 -0.93000001 0.36000001
9.8559999 -15.345 -0.926 0.34
9.7309999 -15.046 -0.90600002 0.38999999
9.783 -15.074 -0.90899998 0.37
9.8669996 -15.1 -0.91299999 0.40000001
10.041 -15.26 -0.92699999 0.38
10.151 -15.322 -0.93400002 0.41
10.263 -15.386 -0.94099998 0.36000001
10.328 -15.379 -0.94300002 0.51999998
9.9329996 -14.692 -0.89399999 0.36000001
9.8870001 -14.576 -0.88700002 0.36000001
9.8719997 -14.456 -0.88 0.34999999
9.9899998 -14.53 -0.88800001 0.31999999
9.9259996 -14.341 -0.87599999 0.25
9.8979998 -14.205 -0.86799997 0.34
10.428 -14.863 -0.92000002 0.27000001
10.749 -15.217 -0.94999999 0.44999999
10.44 -14.732 -0.91399997 0.27000001
10.412 -14.595 -0.90600002 0.51999998
11.086 -15.435 -0.97299999 0.2
11.146 -15.417 -0.97399998 0.38999999
11.449 -15.73 -1.001 0.31
11.171 -15.248 -0.96700001 0.34999999
11.232 -15.281 -0.97000003 0.34999999
11.221 -15.167 -0.96399999 0.41999999
11.388 -15.291 -0.977 0.34999999
11.56 -15.42 -0.98900002 0.31
11.535 -15.286 -0.98199999 0.44999999
11.701 -15.406 -0.99400002 0.34
11.581 -15.148 -0.977 0.36000001
11.58 -15.099 -0.97399998 0.31
11.563 -14.979 -0.96799999 0.36000001
11.506 -14.808 -0.95700002 0.38
11.521 -14.733 -0.954 0.36000001
11.099 -14.103 -0.90700001 0.38999999
11.052 -13.954 -0.898 0.34999999
11.086 -13.906 -0.89700001 0.47999999
11.092 -13.869 -0.89600003 0.28999999
11.098 -13.787 -0.89200002 0.38
11.097 -13.698 -0.88800001 0.47999999
11.151 -13.677 -0.889 0.28
11.128 -13.562 -0.88300002 0.43000001
11.136 -13.485 -0.87900001 0.36000001
11.945 -14.415 -0.95499998 0.34
11.966 -14.348 -0.95300001 0.37
12.05 -14.358 -0.95700002 0.38
12.195 -14.437 -0.96600002 0.44999999
12.135 -14.276 -0.95599997 0.34999999
12.193 -14.253 -0.958 0.43000001
12.205 -14.177 -0.95499998 0.34999999
12.213 -14.141 -0.95300001 0.49000001
12.492 -14.372 -0.97500002 0.28999999
12.519 -14.312 -0.97399998 0.43000001
12.504 -14.205 -0.96799999 0.34
12.249 -13.828 -0.94 0.23999999
12.275 -13.77 -0.93800002 0.38
12.214 -13.659 -0.93099999 0.44999999
12.329 -13.7 -0.93699998 0.30000001
12.363 -13.651 -0.93699998 0.47999999
12.508 -13.724 -0.94599998 0.19
12.459 -13.585 -0.93800002 0.46000001
12.628 -13.682 -0.949 0.36000001
12.89 -13.878 -0.96899998 0.31
12.845 -13.786 -0.963 0.41999999
12.894 -13.751 -0.963 0.38
12.907 -13.679 -0.96100003 0.34999999
13.161 -13.861 -0.98000002 0.34
13.199 -13.814 -0.97899997 0.46000001
13.298 -13.83 -0.98400003 0.31999999
13.466 -13.959 -0.99699998 0.33000001
13.533 -13.941 -0.99900001 0.56999999
13.793 -14.12 -1.018 0.22
13.683 -13.92 -1.005 0.33000001
13.741 -13.891 -1.006 0.34
13.534 -13.596 -0.98400003 0.38
13.623 -13.6 -0.98799998 0.41999999
13.95 -13.882 -1.015 0.38999999
13.997 -13.841 -1.015 0.33000001
14.089 -13.845 -1.0190001 0.30000001
13.735 -13.413 -0.98500001 0.38
14.274 -13.852 -1.028 0.28999999
14.367 -13.854 -1.0319999 0.44999999
14.524 -13.918 -1.0420001 0.31999999
14.553 -13.902 -1.0420001 0.41
14.598 -13.857 -1.0420001 0.23999999
14.239 -13.433 -1.008 0.52999997
14.306 -13.411 -1.01 0.30000001
14.382 -13.397 -1.013 0.41
14.434 -13.361 -1.0140001 0.18000001
15.529 -14.327 -1.104 0.31
15.577 -14.281 -1.105 0.51999998
15.636 -14.245 -1.1059999 0.23999999
14.752 -13.357 -1.028 0.20999999
14.748 -13.269 -1.025 0.5
15.989 -14.292 -1.124 0.28
16.156 -14.351 -1.1339999 0.38
16.351 -14.477 -1.148 0.25999999
16.624001 -14.626 -1.1670001 0.49000001
14.818 -12.959 -1.015 0.2
14.762 -12.828 -1.007 0.41
16.559999 -14.295 -1.151 0.33000001
16.606001 -14.245 -1.151 0.46000001
16.551001 -14.107 -1.143 0.28999999
17.01 -14.451 -1.178 0.43000001
17.125 -14.457 -1.184 0.28999999
17.725 -14.867 -1.228 0.27000001
17.916 -14.931 -1.24 0.25999999
17.872 -14.8 -1.233 0.31
17.837999 -14.678 -1.226 0.50999999
18.107 -14.851 -1.2460001 0.23
18.341999 -14.947 -1.261 0.46000001
18.625 -15.08 -1.28 0.28999999
18.923 -15.223 -1.3 0.25
19.047001 -15.224 -1.306 0.44
18.99 -15.081 -1.2970001 0.41
19.051001 -15.033 -1.299 0.30000001
19.356001 -15.223 -1.321 0.33000001
19.542 -15.271 -1.331 0.34
19.511 -15.148 -1.325 0.27000001
19.507 -15.046 -1.321 0.5
19.825001 -15.192 -1.342 0.2
20.486 -15.596 -1.39 0.38
20.871 -15.786 -1.416 0.25999999
20.985001 -15.82 -1.423 0.34999999
21.101999 -15.804 -1.428 0.23
21.271999 -15.827 -1.437 0.28999999
21.351999 -15.783 -1.4400001 0.44999999
21.488001 -15.779 -1.446 0.31999999
21.533001 -15.708 -1.446 0.38999999
21.971001 -15.974 -1.478 0.30000001
21.938999 -15.846 -1.471 0.25999999
21.893 -15.708 -1.464 0.31999999
21.882999 -15.598 -1.46 0.37
21.895 -15.502 -1.457 0.36000001
21.879999 -15.389 -1.452 0.33000001
21.747999 -15.194 -1.438 0.33000001
21.792999 -15.175 -1.4400001 0.28999999
21.830999 -15.1 -1.439 0.44
22.150999 -15.218 -1.46 0.30000001
21.91 -14.952 -1.438 0.19
22.068001 -14.958 -1.446 0.43000001
22.181 -14.933 -1.451 0.16
23.521 -15.727 -1.548 0.31
23.489 -15.652 -1.543 0.23
23.566999 -15.597 -1.545 0.40000001
23.539 -15.472 -1.54 0.18000001
23.552 -15.375 -1.5369999 0.36000001
24.15 -15.657 -1.5779999 0.11
28.816999 -18.549 -1.9170001 0.090000004
27.643 -17.733 -1.829 0.15000001
24.900999 -15.866 -1.624 0.18000001
28.825001 -18.108999 -1.903 0.17
29.253 -18.249001 -1.9299999 0.15000001
29.777 -18.445999 -1.964 0.12
29.134001 -17.922001 -1.913 0.41999999
29.469999 -18.065001 -1.9349999 0.18000001
29.330999 -17.853001 -1.921 0.38
29.427999 -17.785 -1.924 0.17
29.431999 -17.662001 -1.921 0.27000001
30.215 -18.002001 -1.973 0.18000001
30.208 -17.870001 -1.9680001 0.13
30.336 -17.816999 -1.974 0.46000001
30.486 -17.841 -1.982 0.19
30.513 -17.728001 -1.98 0.37
30.747999 -17.736 -1.993 0.14
30.879999 -17.683001 -1.998 0.38999999
30.823 -17.521 -1.99 0.23
31.045 -17.518999 -2.0020001 0.22
31.072001 -17.469999 -2.0020001 0.20999999
31.190001 -17.407 -2.007 0.25999999
31.138 -17.25 -1.999 0.27000001
31.247999 -17.183001 -2.003 0.25
31.364 -17.118999 -2.0079999 0.22
31.645 -17.143 -2.0239999 0.41999999
31.716 -17.052999 -2.0250001 0.22
31.862 -17.066999 -2.033 0.23
31.863001 -16.938999 -2.029 0.27000001
31.971001 -16.867001 -2.033 0.27000001
32.02 -16.764999 -2.033 0.31999999
32.060001 -16.658001 -2.0320001 0.27000001
32.146 -16.573999 -2.0350001 0.33000001
32.244999 -16.561001 -2.04 0.27000001
32.308998 -16.466 -2.04 0.27000001
32.431999 -16.400999 -2.0450001 0.19
32.598 -16.356001 -2.053 0.44999999
32.688 -16.273001 -2.056 0.20999999
32.717999 -16.16 -2.0550001 0.23999999
32.632 -15.99 -2.0450001 0.17
32.605 -15.913 -2.0420001 0.17
32.577999 -15.774 -2.036 0.44999999
32.633999 -15.675 -2.0369999 0.25
32.622002 -15.543 -2.033 0.27000001
32.662998 -15.437 -2.0320001 0.25
32.695 -15.327 -2.0309999 0.25
32.743 -15.224 -2.0309999 0.17
32.632999 -15.11 -2.0220001 0.43000001
32.465 -14.909 -2.007 0.25
32.418999 -14.765 -2.0009999 0.27000001
32.490002 -14.674 -2.003 0.30000001
31.500999 -14.109 -1.932 0.27000001
31.469999 -13.977 -1.927 0.22
31.490999 -13.927 -1.927 0.25999999
31.415001 -13.776 -1.919 0.28999999
31.580999 -13.73 -1.927 0.28
31.672001 -13.652 -1.931 0.30000001
31.743999 -13.565 -1.933 0.27000001
31.742001 -13.446 -1.9299999 0.28
31.563 -13.254 -1.915 0.28
31.405001 -13.13 -1.903 0.22
31.559 -13.077 -1.91 0.25999999
31.415001 -12.902 -1.898 0.19
31.165001 -12.686 -1.8789999 0.20999999
31.17 -12.574 -1.876 0.38
31.004999 -12.394 -1.863 0.25
30.964001 -12.265 -1.857 0.28
30.833 -12.157 -1.847 0.2
30.761 -12.018 -1.84 0.41999999
30.836 -11.935 -1.8430001 0.25
30.914 -11.854 -1.845 0.25999999
30.856001 -11.721 -1.839 0.33000001
30.575001 -11.505 -1.818 0.11
30.252001 -11.275 -1.794 0.16
29.476 -10.829 -1.74 0.19
29.863001 -10.864 -1.763 0.17
29.818001 -10.742 -1.758 0.2
29.601999 -10.559 -1.7410001 0.38
29.525 -10.428 -1.734 0.23999999
29.538 -10.38 -1.734 0.27000001
29.417999 -10.234 -1.724 0.25999999
29.363001 -10.112 -1.7180001 0.19
29.375999 -10.013 -1.717 0.31
29.382 -9.9119997 -1.715 0.19
27.049999 -9.033 -1.561 0.15000001
27.023001 -8.9300003 -1.558 0.43000001
26.982 -8.8699999 -1.554 0.23
26.808001 -8.7189999 -1.541 0.25999999
26.731001 -8.6020002 -1.534 0.28999999
26.754 -8.5159998 -1.534 0.28
26.819 -8.4440002 -1.5369999 0.20999999
26.141001 -8.0959997 -1.49 0.57999998
26.410999 -8.0889997 -1.506 0.2
26.583 -8.0500002 -1.515 0.31999999
26.594999 -7.9629998 -1.515 0.20999999
26.299999 -7.6950002 -1.492 0.57999998
26.219999 -7.5819998 -1.4859999 0.25
26.044001 -7.487 -1.474 0.27000001
26.849001 -7.6269999 -1.524 0.25999999
26.815001 -7.526 -1.52 0.20999999
26.868999 -7.4499998 -1.522 0.19
25.593 -7.0110002 -1.439 0.38999999
26.848 -7.263 -1.518 0.18000001
26.608999 -7.1090002 -1.501 0.33000001
26.384001 -7.0050001 -1.4859999 0.20999999
26.455999 -6.9349999 -1.489 0.31
26.327 -6.8130002 -1.48 0.28
26.195999 -6.6919999 -1.47 0.25999999
26.172001 -6.598 -1.467 0.28999999
26.218 -6.5219998 -1.469 0.25999999
26.275 -6.4920001 -1.471 0.28
26.419001 -6.4400001 -1.479 0.31
26.589001 -6.3930001 -1.489 0.30000001
26.766001 -6.3460002 -1.499 0.31
26.961 -6.303 -1.51 0.37
27.163 -6.2600002 -1.522 0.36000001
27.427999 -6.23 -1.5369999 0.23
27.577999 -6.2189999 -1.546 0.34
27.586 -6.1290002 -1.545 0.27000001
27.593 -6.04 -1.545 0.11
27.601999 -5.9510002 -1.544 0.14
27.506001 -5.8400002 -1.5369999 0.16
27.586 -5.7670002 -1.541 0.43000001
27.565001 -5.6719999 -1.538 0
27.607 -5.6350002 -1.54 0
27.611 -5.546 -1.539 0
27.607 -5.4549999 -1.538 0
27.636 -5.3709998 -1.539 0
27.649 -5.283 -1.539 0
27.638 -5.191 -1.5369999 0
27.658001 -5.105 -1.5369999 0
27.664 -5.0609999 -1.5369999 0
27.666 -4.9720001 -1.536 0
27.648001 -4.8790002 -1.534 0
27.657 -4.7909999 -1.534 0
27.664 -4.7030001 -1.533 0
27.665001 -4.6129999 -1.5319999 0
27.667999 -4.5689998 -1.5319999 0
27.669001 -4.48 -1.531 0
27.669001 -4.3909998 -1.53 0
27.674 -4.303 -1.53 0
27.664 -4.2119999 -1.528 0
27.646 -4.1209998 -1.526 0
27.684 -4.0380001 -1.528 0
27.681 -3.993 -1.527 0
27.667 -3.902 -1.526 0
27.684999 -3.816 -1.526 0
27.687 -3.7279999 -1.525 0
27.679001 -3.638 -1.524 0
27.709999 -3.5539999 -1.525 0
27.711 -3.4649999 -1.525 0
27.721001 -3.4219999 -1.525 0
27.716999 -3.3329999 -1.524 0
27.726 -3.2460001 -1.524 0
27.728001 -3.158 -1.524 0
27.732 -3.0699999 -1.523 0
27.759001 -2.9849999 -1.524 0
27.780001 -2.8989999 -1.525 0
27.785 -2.855 -1.525 0
27.798 -2.7690001 -1.525 0
27.782 -2.6789999 -1.524 0
27.791 -2.592 -1.524 0
27.763 -2.5009999 -1.522 0
27.794001 -2.4159999 -1.523 0.11
27.77 -2.2820001 -1.521 0.33000001
27.781 -2.1949999 -1.521 0.31
27.783001 -2.108 -1.521 0.49000001
27.827999 -2.023 -1.523 0
27.794001 -1.933 -1.521 0
27.802 -1.846 -1.521 0
27.844999 -1.804 -1.523 0
27.834 -1.716 -1.522 0
27.860001 -1.63 -1.524 0
27.908001 -1.545 -1.526 0
27.895 -1.456 -1.525 0
27.878 -1.367 -1.524 0
27.874001 -1.323 -1.523 0
27.874001 -1.235 -1.523 0
27.870001 -1.148 -1.523 0
27.875 -1.0599999 -1.523 0
27.865999 -0.972 -1.522 0
27.843 -0.884 -1.521 0
27.806 -0.79500002 -1.518 0
27.819 -0.75199997 -1.5190001 0
27.805 -0.66399997 -1.518 0
27.795 -0.57599998 -1.517 0
27.777 -0.48899999 -1.516 0
27.753 -0.40099999 -1.5140001 0
27.771999 -0.31400001 -1.515 0
27.798 -0.227 -1.517 0
27.829 -0.184 -1.5190001 0
27.827 -0.096000001 -1.5190001 0
27.834999 -0.0089999996 -1.5190001 0
25.349001 0.0060000001 -1.5420001 0
25.305 0.086000003 -1.539 0
25.294001 0.16500001 -1.538 0
25.275999 0.245 -1.5369999 0
25.283001 0.28400001 -1.538 0
25.292 0.36399999 -1.538 0
25.320999 0.44400001 -1.54 0
25.343 0.52399999 -1.5420001 0
25.332001 0.60299999 -1.541 0
25.326 0.68300003 -1.541 0.07
25.301001 0.76200002 -1.539 0.079999998
25.246 0.80000001 -1.536 0.079999998
25.198 0.87800002 -1.533 0.079999998
25.155001 0.95499998 -1.53 0.14
25.129999 1.033 -1.528 0.23
25.113001 1.112 -1.527 0.11
25.069 1.189 -1.525 0.16
25.063 1.267 -1.525 0.12
25.059 1.307 -1.524 0.16
25.021 1.3839999 -1.522 0.12
25.013 1.462 -1.522 0.16
25 1.54 -1.521 0.28999999
24.987 1.618 -1.521 0.17
24.92 1.692 -1.516 0.25999999
24.917 1.771 -1.517 0.28
24.924 1.811 -1.517 0.19
24.92 1.8890001 -1.517 0.31
24.914 1.967 -1.517 0.2
24.882 2.0439999 -1.516 0.18000001
24.891001 2.1229999 -1.517 0.22
24.827 2.1960001 -1.513 0.2
24.712 2.2249999 -1.505 0.27000001
24.796 2.3110001 -1.511 0.23999999
24.346001 2.3469999 -1.4809999 0.28999999
23.882 2.378 -1.449 0.30000001
23.545 2.4200001 -1.426 0.17
23.025 2.4400001 -1.391 0.54000002
22.518999 2.4590001 -1.3559999 0.20999999
22.398001 2.4809999 -1.348 0.22
21.891001 2.4949999 -1.314 0.30000001
21.566 2.527 -1.2920001 0.27000001
21.528 2.592 -1.29 0.36000001
21.233 2.6240001 -1.27 0.31
21.247999 2.694 -1.272 0.34
20.871 2.7130001 -1.2460001 0.34999999
20.698999 2.724 -1.234 0.25
19.909 2.6849999 -1.1799999 0.27000001
19.867001 2.743 -1.178 0.23999999
18.882 2.668 -1.11 0.40000001
19.021999 2.7490001 -1.12 0.20999999
20 2.9530001 -1.189 0.41
18.709999 2.8239999 -1.1 0.25999999
19.546 2.9809999 -1.158 0.20999999
19.864 3.0929999 -1.181 0.28
18.667999 2.9679999 -1.098 0.34999999
18.67 3.029 -1.099 0.38
19.181999 3.1730001 -1.136 0.18000001
18.67 3.1489999 -1.101 0.34
18.271999 3.112 -1.073 0.31
18.316999 3.1789999 -1.077 0.36000001
18.201 3.2179999 -1.0700001 0.34
18.226 3.2809999 -1.072 0.28
18.214001 3.3380001 -1.072 0.38999999
18.684 3.484 -1.1059999 0.18000001
16.778999 3.1860001 -0.97299999 0.33000001
18.179001 3.48 -1.071 0.18000001
18.164 3.536 -1.071 0.18000001
16.281 3.2249999 -0.94 0.31
16.254999 3.273 -0.93900001 0.34
16.320999 3.3399999 -0.94400001 0.2
16.17 3.362 -0.93400002 0.34999999
16.214001 3.424 -0.93800002 0.31
16.218 3.4519999 -0.93900001 0.52999997
16.160999 3.493 -0.935 0.25
15.97 3.5039999 -0.92299998 0.28999999
15.897 3.5409999 -0.91799998 0.27000001
15.632 3.5339999 -0.90100002 0.25999999
15.709 3.6029999 -0.90700001 0.34999999
15.794 3.6489999 -0.91299999 0.16
15.217 3.5669999 -0.87300003 0.31
15.183 3.609 -0.87199998 0.38999999
15.022 3.6210001 -0.861 0.51999998
14.987 3.6619999 -0.85900003 0.23999999
15.063 3.7309999 -0.866 0.2
15.061 3.7809999 -0.866 0.51999998
15.254 3.8540001 -0.88 0.31999999
14.878 3.8099999 -0.85500002 0.30000001
14.553 3.776 -0.83200002 0.37
14.584 3.8329999 -0.83499998 0.34999999
14.977 3.9849999 -0.86400002 0.36000001
14.868 4.007 -0.85699999 0.34999999
14.923 4.072 -0.86199999 0.31999999
14.764 4.0539999 -0.85100001 0.28999999
14.934 4.1500001 -0.86400002 0.47
15.098 4.2470002 -0.87699997 0.23
14.938 4.2529998 -0.86699998 0.56999999
13.732 3.9579999 -0.78100002 0.13
14.039 4.0939999 -0.80400002 0
29.065001 8.5459995 -1.882 0.07
29.013 8.5799999 -1.88 0.19
13.232 3.973 -0.74800003 0.13
13.566 4.119 -0.773 0.17
13.644 4.1900001 -0.77999997 0.38999999
13.637 4.2340002 -0.77999997 0
28.816 9.0159998 -1.875 0
28.832001 9.0710001 -1.877 0
28.764999 9.1499996 -1.875 0
28.731001 9.2379999 -1.874 0
28.732 9.3380003 -1.876 0
28.709999 9.4309998 -1.877 0
28.707001 9.5299997 -1.8789999 0
28.695999 9.6260004 -1.88 0
28.671 9.6680002 -1.88 0
28.657 9.7639999 -1.881 0
28.639999 9.8590002 -1.882 0
28.615999 9.9510002 -1.882 0
28.594 10.044 -1.883 0
28.576 10.139 -1.8839999 0
28.534 10.174 -1.882 0
28.503 10.264 -1.882 0
28.48 10.357 -1.883 0
28.448 10.447 -1.883 0
28.405001 10.533 -1.882 0
28.363001 10.618 -1.882 0
28.330999 10.708 -1.882 0
28.309999 10.751 -1.881 0
28.280001 10.841 -1.882 0
28.259001 10.935 -1.883 0
28.226 11.025 -1.883 0
28.205 11.118 -1.8839999 0
28.155001 11.201 -1.883 0
28.125 11.292 -1.883 0
28.104 11.334 -1.883 0
28.035999 11.41 -1.88 0
27.986 11.492 -1.8789999 0
27.936001 11.574 -1.878 0
27.882 11.654 -1.877 0
27.863001 11.75 -1.878 0
27.867001 11.854 -1.881 0
27.874001 11.909 -1.883 0
27.853001 12.004 -1.885 0
27.839001 12.101 -1.886 0
27.785999 12.182 -1.885 0
27.714001 12.255 -1.883 0
27.659 12.335 -1.882 0
27.586 12.406 -1.8789999 0
27.559 12.446 -1.878 0
27.542 12.543 -1.88 0
27.504 12.63 -1.88 0
27.475 12.721 -1.881 0
27.451 12.815 -1.882 0.16
27.447001 12.918 -1.885 0.23999999
27.378 12.938 -1.881 0.2
27.301001 13.007 -1.8789999 0.28999999
27.197001 13.063 -1.874 0.20999999
27.172001 13.156 -1.875 0.43000001
27.125 13.239 -1.875 0.19
27.153 13.358 -1.88 0.090000004
27.131001 13.453 -1.881 0.14
27.120001 13.501 -1.882 0.090000004
27.09 13.592 -1.883 0.15000001
27.089001 13.698 -1.886 0.090000004
27.229 13.876 -1.901 0.14
27.075001 13.905 -1.892 0.34
27.084 14.018 -1.896 0.22
26.938 13.996 -1.887 0.23
26.781 14.021 -1.878 0.28999999
26.597 14.032 -1.867 0.28999999
26.452 14.062 -1.859 0.30000001
26.252001 14.062 -1.847 0.28
25.981001 14.022 -1.829 0.25999999
26.025999 14.152 -1.836 0.31999999
25.875999 14.123 -1.826 0.25999999
25.697001 14.13 -1.816 0.34999999
25.525999 14.142 -1.806 0.25999999
25.240999 14.088 -1.7869999 0.31
25.084 14.104 -1.778 0.25
24.834 14.066 -1.762 0.33000001
24.731001 14.111 -1.757 0.28999999
24.677999 14.132 -1.7539999 0.28999999
24.476999 14.12 -1.742 0.36000001
24.424 14.191 -1.7410001 0.23
24.263 14.2 -1.732 0.30000001
24.209 14.271 -1.7309999 0.31
24.089001 14.302 -1.725 0.31999999
24.330999 14.549 -1.748 0.34
24.386 14.634 -1.755 0.28
24.466 14.787 -1.765 0.34
24.320999 14.803 -1.757 0.28
23.784 14.58 -1.717 0.31
23.648001 14.599 -1.71 0.30000001
23.525 14.626 -1.704 0.25
22.941999 14.414 -1.6619999 0.38999999
22.948 14.518 -1.666 0.20999999
23.132999 14.737 -1.6849999 0.28
22.556999 14.471 -1.642 0.20999999
22.820999 14.741 -1.6670001 0.18000001
23.121 15.038 -1.696 0.28999999
22.917 14.957 -1.681 0.23999999
22.632 14.872 -1.661 0.30000001
22.447001 14.852 -1.65 0.31999999
22.41 14.929 -1.651 0.31999999
21.951 14.724 -1.6160001 0.38
21.927999 14.809 -1.618 0.27000001
22.075001 15.008 -1.6339999 0.25999999
21.753 14.84 -1.61 0.18000001
21.533001 14.79 -1.595 0.38999999
21.684 14.993 -1.612 0.2
21.764 15.15 -1.622 0.23
21.228001 14.876 -1.581 0.28
21.197001 14.955 -1.5829999 0.31
21.17 15.035 -1.584 0.30000001
21.112 15.044 -1.581 0.36000001
20.899 14.992 -1.567 0.37
20.702999 14.95 -1.5549999 0.25
20.632999 14.998 -1.553 0.36000001
20.455 14.968 -1.5420001 0.27000001
20.148001 14.841 -1.52 0.41
20.221001 14.943 -1.528 0.33000001
20.198999 15.026 -1.53 0.2
19.999001 14.975 -1.517 0.30000001
19.857 14.967 -1.5089999 0.18000001
19.466999 14.769 -1.479 0.19
19.33 14.761 -1.471 0.41
19.368999 14.887 -1.479 0.2
19.239 14.836 -1.469 0.19
19.052 14.788 -1.457 0.55000001
19.066 14.894 -1.462 0.23999999
18.823999 14.801 -1.4450001 0.28999999
18.746 14.836 -1.443 0.25
18.709 14.902 -1.444 0.30000001
18.667999 14.917 -1.442 0.14
18.414 14.81 -1.424 0.47999999
18.458 14.94 -1.432 0.19
18.358 14.956 -1.427 0.25999999
18.118999 14.857 -1.41 0.20999999
17.98 14.837 -1.402 0.14
17.705999 14.705 -1.381 0.41
18.034 15.025 -1.413 0.20999999
17.934999 15.038 -1.408 0.2
17.847 15.06 -1.405 0.18000001
17.76 15.082 -1.401 0.41999999
17.645 15.081 -1.395 0.23
17.516001 15.066 -1.388 0.14
17.023001 14.736 -1.347 0.38999999
17.087 14.839 -1.355 0.36000001
17.25 15.075 -1.374 0.2
17.157 15.089 -1.37 0.38
17.059 15.098 -1.365 0.2
16.955999 15.103 -1.36 0.23
16.833 15.088 -1.353 0.2
16.719 15.081 -1.347 0.22
16.614 15.034 -1.339 0.2
16.507 15.032 -1.334 0.17
16.423 15.05 -1.331 0.40000001
16.313999 15.045 -1.325 0.25
16.211 15.045 -1.3200001 0.27000001
16.129999 15.064 -1.316 0.28
16.023001 15.059 -1.311 0.28999999
15.959 15.046 -1.307 0.27000001
15.866 15.053 -1.303 0.28
15.77 15.056 -1.298 0.31999999
15.676 15.062 -1.294 0.27000001
15.597 15.08 -1.291 0.33000001
15.484 15.065 -1.284 0.28
15.416 15.046 -1.28 0.27000001
15.342 15.068 -1.277 0.33000001
15.232 15.055 -1.271 0.31999999
15.149 15.067 -1.268 0.30000001
15.063 15.077 -1.2640001 0.30000001
14.968 15.076 -1.26 0.31
14.886 15.087 -1.256 0.28999999
14.823 15.071 -1.252 0.20999999
14.752 15.093 -1.25 0.47
14.682 15.117 -1.248 0.22
14.69 15.22 -1.253 0.25999999
14.618 15.242 -1.251 0.28999999
14.597 15.315 -1.2539999 0.38
14.982 15.818 -1.2970001 0.28
15.077 15.968 -1.309 0.2
15.14 16.136 -1.3200001 0.38999999
15.068 16.16 -1.318 0.27000001
15.15 16.35 -1.331 0.34999999
15.176 16.481001 -1.339 0.28999999
14.472 15.819 -1.273 0.33000001
14.485 15.883 -1.277 0.28999999
14.265 15.74 -1.2589999 0.25999999
13.67 15.181 -1.2029999 0.22
13.602 15.202 -1.201 0.41
13.482 15.164 -1.194 0.34
14.319 16.204 -1.286 0.19
14.633 16.664 -1.324 0.44
14.359 16.405001 -1.298 0.15000001
14.33 16.475 -1.3 0.20999999
14.231 16.466 -1.295 0.51999998
13.1 15.257 -1.181 0.28
13.091 15.343 -1.186 0.25
12.849 15.156 -1.165 0.28999999
12.796 15.191 -1.164 0.31
12.721 15.15 -1.159 0.28
12.682 15.2 -1.16 0.38
13.323 16.172001 -1.24 0.57999998
13.276 16.322001 -1.245 0.44999999
13.125 16.240999 -1.235 0.13
12.904 16.018999 -1.2130001 0.40000001
13.121 16.393 -1.243 0.23999999
12.829 16.132999 -1.216 0.33000001
12.524 15.852 -1.188 0.36000001
12.611 16.066 -1.2029999 0.15000001
12.141 15.568 -1.156 0.47999999
12.996 16.77 -1.258 0.25999999
12.144 15.724 -1.165 0.31
12.191 15.887 -1.176 0.27000001
12.058 15.818 -1.166 0.5
12.023 15.875 -1.168 0.31
19.809 26.297001 -2.063 0.12
12.269 16.410999 -1.2079999 0.16
11.998 16.155001 -1.182 0.38999999
11.644 15.834 -1.15 0.44
11.455 15.681 -1.1339999 0.20999999
12.31 16.959999 -1.24 0.19
12.084 16.76 -1.219 0.28
20.643999 28.790001 -2.2349999 0.23
21.417 29.965 -2.332 0.17
11.684 16.476999 -1.188 0.13
21.215 30.080999 -2.3299999 0.16
10.57 15.111 -1.067 0.23999999
11.017 15.853 -1.126 0.28999999
18.653 26.989 -2.0550001 0
21.992001 32.027 -2.471 0.090000004
18.393999 26.886 -2.039 0.20999999
18.297001 26.924999 -2.0380001 0.22
18.164 26.91 -2.0320001 0.25999999
18.01 26.864 -2.023 0.31
17.756001 26.666 -2.0020001 0.16
17.525999 26.500999 -1.984 0.36000001
17.660999 26.886999 -2.0109999 0.2
17.385 26.559999 -1.982 0.28999999
17.332001 26.660999 -1.9859999 0.30000001
17.357 26.882999 -1.999 0.28
17.334 27.033001 -2.007 0.25999999
15.445 24.26 -1.777 0.36000001
15.093 23.872999 -1.7410001 0.20999999
15.081 23.937 -1.744 0.33000001
10.468 16.746 -1.1569999 0.30000001
10.461 16.971001 -1.17 0.57999998
14.587 23.812 -1.719 0.22
14.547 23.916 -1.724 0.25
14.276 23.636999 -1.698 0.22
14.134 23.485001 -1.684 0.34
14.052 23.516001 -1.683 0.28
13.997 23.591999 -1.6849999 0.44999999
13.904 23.603001 -1.683 0.16
13.831 23.65 -1.683 0.28999999
13.784 23.74 -1.687 0.31
9.941 17.26 -1.168 0.20999999
13.633 23.738001 -1.681 0.23999999
13.423 23.542999 -1.6619999 0.27000001
13.269 23.444 -1.651 0.36000001
13.141 23.389 -1.6440001 0.28999999
12.897 23.125 -1.62 0.19
12.781 23.089001 -1.614 0.20999999
12.637 22.997999 -1.603 0.5
12.682 23.166 -1.615 0.25
9.7989998 18.045 -1.211 0.40000001
12.602 23.365999 -1.624 0.30000001
12.578 23.499001 -1.632 0.18000001
12.507 23.544001 -1.632 0.22
12.508 23.724001 -1.643 0.54000002
8.243 15.773 -1.022 0.11
8.2250004 15.8 -1.023 0.079999998
8.8400002 17.106001 -1.123 0.14
12.312 23.988001 -1.653 0.27000001
12.215 23.983999 -1.65 0.20999999
12.176 24.094999 -1.655 0.14
7.9549999 15.886 -1.02 0.57999998
16.555 33.256001 -2.3540001 0.12
11.616 23.443001 -1.598 0.2
8.5299997 17.367001 -1.1289999 0.5
8.5019999 17.450001 -1.133 0.34999999
8.3629999 17.302 -1.12 0.33000001
7.5900002 15.834 -1.006 0.25
8.2320004 17.308001 -1.117 0.28
8.3570004 17.712 -1.145 0.57999998
8.7019997 18.516001 -1.205 0.18000001
11.118 23.834999 -1.607 0.31
11.03 23.841 -1.605 0.34
10.947 23.857 -1.604 0.25
10.906 23.966 -1.609 0.20999999
10.815 23.965 -1.607 0.43000001
10.489 23.440001 -1.5650001 0.14
10.259 23.025 -1.5319999 0.34999999
10.274 23.455 -1.5599999 0.41
10.219 23.528999 -1.563 0.17
10.06 23.363001 -1.548 0.46000001
10.046 23.534 -1.558 0.18000001
7.1849999 16.999001 -1.068 0.50999999
9.9680004 23.66 -1.564 0.14
7.098 17.014 -1.066 0.17
7.0289998 16.999001 -1.064 0.56
6.961 16.986 -1.061 0.27000001
8.8900003 21.868999 -1.4220001 0.34999999
8.8280001 21.914 -1.423 0.28999999
8.7930002 21.927999 -1.423 0.33000001
8.6169996 21.686001 -1.403 0.2
6.8210001 17.339001 -1.08 0.27000001
6.717 17.233999 -1.071 0.56
8.3450003 21.594 -1.391 0.20999999
8.5869999 22.426001 -1.45 0.18000001
6.1339998 16.191 -0.98900002 0.46000001
6.1500001 16.311001 -0.99699998 0.25999999
6.4549999 17.281 -1.067 0.31999999
5.9899998 16.194 -0.986 0.30000001
5.9369998 16.207001 -0.98500001 0.34
5.882 16.214001 -0.98500001 0.31
5.8239999 16.214001 -0.98299998 0.28999999
5.7680001 16.216999 -0.98199999 0.28999999
5.7389998 16.218 -0.98199999 0.30000001
5.6789999 16.209999 -0.98000002 0.28999999
5.6230001 16.212999 -0.97899997 0.31
5.5700002 16.225 -0.97799999 0.30000001
5.5120001 16.221001 -0.977 0.28999999
5.4580002 16.231001 -0.97600001 0.31999999
5.4039998 16.237 -0.97500002 0.28
5.3730001 16.23 -0.97399998 0.27000001
5.3130002 16.218 -0.972 0.25
5.2610002 16.233 -0.972 0.34999999
5.1950002 16.202 -0.96899998 0.16
5.1440001 16.219999 -0.96899998 0.5
5.5240002 17.601 -1.067 0.25
5.4759998 17.547001 -1.063 0.23
5.3899999 17.465 -1.0549999 0.5
5.3959999 17.677999 -1.0700001 0.38
5.3649998 17.777 -1.075 0.2
6.3150001 21.146 -1.316 0.38
6.277 21.261 -1.323 0.28999999
6.197 21.237 -1.3200001 0.41
6.2329998 21.486 -1.337 0.37
6.1110001 21.316 -1.324 0.23
5.1170001 18.296 -1.105 0.51999998
6.079 21.982 -1.367 0.23
5.934 21.724001 -1.347 0.23999999
5.802 21.507 -1.331 0.43000001
5.7750001 21.541 -1.332 0.2
5.6669998 21.409 -1.322 0.41
5.585 21.371 -1.318 0.28999999
5.5349998 21.452 -1.322 0.34999999
5.4780002 21.511999 -1.325 0.33000001
5.4549999 21.702999 -1.3380001 0.28
5.4120002 21.823999 -1.345 0.36000001
5.402 21.93 -1.352 0.31
5.3909998 22.183001 -1.369 0.38
5.349 22.313999 -1.377 0.38
5.3600001 22.673 -1.401 0.27000001
5.1960001 22.292999 -1.373 0.27000001
5.119 22.280001 -1.3710001 0.50999999
5.125 22.631001 -1.3940001 0.31999999
5.1399999 22.861 -1.41 0.30000001
5.073 22.898001 -1.4119999 0.17
3.635 16.688999 -0.97299999 0.28999999
3.5929999 16.749001 -0.97600001 0.34999999
3.552 16.813 -0.98000002 0.54000002
3.536 17 -0.99299997 0.34999999
6.342 30.878 -1.967 0.2
3.4330001 16.909 -0.98500001 0.34
3.3740001 16.886 -0.98299998 0.19
3.2909999 16.746 -0.972 0.19
5.4749999 28.237 -1.777 0.14
5.6329999 29.542999 -1.867 0.14
5.3670001 28.641001 -1.803 0.37
2.971 16.34 -0.94099998 0.25
2.9170001 16.337 -0.94 0.56999999
2.825 16.115999 -0.92400002 0.18000001
2.8069999 16.313999 -0.93699998 0.38999999
2.7309999 16.177 -0.92699999 0.28
2.694 16.268 -0.93199998 0.38999999
3.447 21.177 -1.274 0.28999999
2.638 16.405001 -0.94099998 0.31999999
2.5910001 16.443001 -0.94300002 0.31
2.529 16.386999 -0.93900001 0.56999999
3.855 25.410999 -1.566 0.15000001
2.516 17.004999 -0.98100001 0.38
2.457 16.971001 -0.97799999 0.18000001
3.039 21.183001 -1.27 0.34
3.1470001 22.422001 -1.3559999 0.36000001
2.7709999 20.224001 -1.202 0.18000001
2.7 20.181 -1.199 0.31
2.6370001 20.193001 -1.199 0.63
2.5780001 20.235001 -1.201 0.30000001
2.5209999 20.290001 -1.205 0.33000001
2.5120001 20.483999 -1.2180001 0.17
2.006 16.832001 -0.96399999 0.38999999
2.8529999 24.493 -1.494 0.19
1.938 17.171 -0.98699999 0.15000001
1.886 17.197001 -0.98799998 0.28999999
1.83 17.188999 -0.98699999 0.37
1.777 17.202 -0.98799998 0.20999999
1.748 17.184999 -0.986 0.61000001
2.8429999 28.667999 -1.78 0.38
2.7520001 28.669001 -1.779 0.23999999
1.927 20.836 -1.238 0.41
1.847 20.681 -1.226 0.14
1.503 17.493 -1.006 0.28999999
1.42 17.171 -0.98299998 0.33000001
1.403 17.287001 -0.991 0.36000001
1.323 16.971001 -0.96899998 0.41
1.274 17.031 -0.97299999 0.20999999
1.215 16.969 -0.96799999 0.56
1.624 24.677 -1.499 0.57999998
1.099 17.665001 -1.016 0.14
1.075 17.719999 -1.0190001 0.36000001
1.645 28.332001 -1.75 0.19
0.96600002 17.778 -1.023 0.46000001
0.90600002 17.704 -1.018 0.23999999
0.81999999 17.089001 -0.97500002 0.2
0.76599997 17.084999 -0.97500002 0.44999999
0.71200001 17.073999 -0.97399998 0.20999999
0.68199998 16.995001 -0.96799999 0.43000001
0.63099998 17.069 -0.97299999 0.34999999
0.57800001 17.077 -0.97299999 0.28999999
0.72600001 23.348 -1.405 0.43000001
0.63800001 22.858 -1.3710001 0.20999999
0.54900002 22.188999 -1.325 0.13
