# .PCD v0.7 - Point Cloud Data file format
VERSION 0.7
FIELDS x y z intensity
SIZE 4 4 4 4
TYPE F F F F
COUNT 1 1 1 1
WIDTH 1438
HEIGHT 1
VIEWPOINT 0 0 0 1 0 0 0
POINTS 1438
DATA ascii
-5.3969998 -3.5550001 -1.8789999 0.17
-5.408 -3.5739999 -1.885 0.18000001
-5.3790002 -3.579 -1.878 0.18000001
-5.3759999 -3.6010001 -1.881 0.16
-5.3639998 -3.618 -1.881 0.17
-5.3530002 -3.635 -1.881 0.17
-5.348 -3.6559999 -1.883 0.17
-5.335 -3.6719999 -1.883 0.16
-5.3239999 -3.677 -1.881 0.16
-5.3169999 -3.697 -1.883 0.17
-5.303 -3.711 -1.882 0.17
-5.2919998 -3.7290001 -1.882 0.17
-5.2820001 -3.747 -1.883 0.16
-5.277 -3.7679999 -1.885 0.16
-5.2600002 -3.7809999 -1.883 0.17
-5.2509999 -3.7869999 -1.882 0.16
-5.244 -3.8069999 -1.8839999 0.17
-5.2329998 -3.8239999 -1.885 0.17
-5.2199998 -3.8399999 -1.8839999 0.17
-5.2059999 -3.855 -1.883 0.17
-5.197 -3.8740001 -1.885 0.17
-5.1919999 -3.8959999 -1.887 0.17
-5.1849999 -3.9030001 -1.887 0.17
-5.1700001 -3.9170001 -1.886 0.17
-5.1589999 -3.934 -1.886 0.16
-5.1490002 -3.9519999 -1.887 0.17
-5.138 -3.97 -1.888 0.16
-5.1290002 -3.9879999 -1.8890001 0.18000001
-5.1149998 -3.99 -1.886 0.18000001
-5.1030002 -4.006 -1.886 0.17
-5.0960002 -4.027 -1.8890001 0.16
-5.0739999 -4.0359998 -1.885 0.039999999
-5.0679998 -4.0570002 -1.887 0.16
-5.052 -4.0700002 -1.886 0.18000001
-5.0430002 -4.0900002 -1.888 0.17
-5.0380001 -4.099 -1.8890001 0.16
-5.02 -4.1100001 -1.886 0.18000001
-5.0079999 -4.1269999 -1.887 0.17
-5.006 -4.151 -1.891 0.16
-4.987 -4.1620002 -1.8890001 0.16
-4.9679999 -4.1729999 -1.886 0.16
-4.9569998 -4.191 -1.887 0.16
-4.948 -4.1960001 -1.886 0.16
-4.9359999 -4.2129998 -1.887 0.16
-4.9169998 -4.223 -1.885 0.16
-4.914 -4.2470002 -1.8890001 0.17
-4.901 -4.263 -1.8890001 0.16
-4.881 -4.2729998 -1.886 0.039999999
-4.8720002 -4.2919998 -1.888 0.079999998
-4.8670001 -4.3010001 -1.8890001 0.079999998
-4.8579998 -4.3200002 -1.89 0.079999998
-4.8379998 -4.3299999 -1.888 0.079999998
-4.8280001 -4.348 -1.8890001 0.090000004
-4.8099999 -4.3590002 -1.887 0.079999998
-4.8000002 -4.3779998 -1.8890001 0.079999998
-4.7839999 -4.3909998 -1.888 0.079999998
-4.7740002 -4.3959999 -1.887 0.079999998
-4.77 -4.4200001 -1.891 0.079999998
-4.7490001 -4.428 -1.888 0.079999998
-4.7379999 -4.4460001 -1.8890001 0.079999998
-4.7280002 -4.4650002 -1.891 0.079999998
-4.71 -4.4759998 -1.8890001 0.079999998
-4.7059999 -4.4860001 -1.89 0.079999998
-4.6890001 -4.4980001 -1.8890001 0.16
-4.6760001 -4.5139999 -1.89 0.16
-4.6589999 -4.526 -1.8890001 0.16
-4.6420002 -4.5380001 -1.887 0.16
-4.6329999 -4.5580001 -1.89 0.17
-4.6170001 -4.5710001 -1.8890001 0.16
-4.6170001 -4.585 -1.892 0.17
-4.5999999 -4.5970001 -1.891 0.16
-4.592 -4.618 -1.8940001 0.16
-4.5780001 -4.632 -1.8940001 0.17
-4.559 -4.6420002 -1.892 0.16
-4.5430002 -4.6550002 -1.892 0.16
-4.5300002 -4.671 -1.892 0.16
-4.52 -4.6750002 -1.891 0.17
-4.5079999 -4.6919999 -1.892 0.17
-4.4959998 -4.7090001 -1.893 0.16
-4.4819999 -4.7249999 -1.8940001 0.17
-4.467 -4.7389998 -1.8940001 0.18000001
-4.447 -4.7470002 -1.892 0.18000001
-4.4359999 -4.7649999 -1.893 0.17
-4.434 -4.7779999 -1.896 0.16
-4.4109998 -4.783 -1.892 0.16
-4.3979998 -4.8000002 -1.893 0.16
-4.3940001 -4.8249998 -1.898 0.16
-4.3590002 -4.8179998 -1.8890001 0.16
-4.3470001 -4.8340001 -1.89 0.16
-4.3499999 -4.8540001 -1.896 0.16
-4.3200002 -4.8499999 -1.8890001 0.039999999
-4.3140001 -4.8740001 -1.893 0.079999998
-4.3049998 -4.895 -1.896 0.15000001
-4.2779999 -4.895 -1.89 0.039999999
-4.2659998 -4.9130001 -1.892 0.079999998
-4.2620001 -4.9390001 -1.898 0.16
-4.243 -4.9330001 -1.892 0.16
-4.23 -4.9489999 -1.893 0.17
-4.2179999 -4.967 -1.895 0.16
-4.1989999 -4.9759998 -1.893 0.16
-4.1880002 -4.9949999 -1.896 0.17
-4.171 -5.006 -1.895 0.16
-4.1539998 -5.0180001 -1.895 0.16
-4.1440001 -5.0209999 -1.893 0.17
-4.1279998 -5.0339999 -1.893 0.16
-4.1149998 -5.0500002 -1.895 0.16
-4.0929999 -5.0560002 -1.892 0.18000001
-4.0910001 -5.0869999 -1.899 0.18000001
-4.0630002 -5.0840001 -1.893 0.18000001
-4.0500002 -5.0999999 -1.8940001 0.18000001
-4.0549998 -5.1230001 -1.9 0.17
-4.026 -5.119 -1.8940001 0.16
-4.006 -5.1269999 -1.892 0.16
-3.9979999 -5.1500001 -1.896 0.16
-3.977 -5.1570001 -1.8940001 0.17
-3.96 -5.1680002 -1.893 0.17
-3.95 -5.1890001 -1.897 0.16
-3.938 -5.1890001 -1.895 0.17
-3.9219999 -5.2030001 -1.895 0.16
-3.9119999 -5.223 -1.898 0.16
-3.8900001 -5.2280002 -1.895 0.16
-3.8740001 -5.2420001 -1.896 0.16
-3.8659999 -5.2649999 -1.9 0.16
-3.8469999 -5.257 -1.895 0.16
-3.8310001 -5.2690001 -1.895 0.16
-3.819 -5.2870002 -1.897 0.16
-3.7939999 -5.2880001 -1.893 0.16
-3.7869999 -5.3119998 -1.898 0.16
-3.7720001 -5.3270001 -1.899 0.16
-3.75 -5.3309999 -1.896 0.16
-3.7320001 -5.323 -1.89 0.039999999
-3.727 -5.3520002 -1.897 0.07
-3.704 -5.3540001 -1.893 0.039999999
-3.691 -5.3720002 -1.896 0.07
-3.6849999 -5.4000001 -1.902 0.16
-3.648 -5.381 -1.89 0.039999999
-3.6400001 -5.4070001 -1.896 0.14
-3.6340001 -5.4159999 -1.897 0.039999999
-3.6170001 -5.427 -1.897 0.079999998
-3.5910001 -5.4260001 -1.892 0.039999999
-3.5840001 -5.4510002 -1.898 0.07
-3.5610001 -5.4549999 -1.895 0.039999999
-3.5480001 -5.4720001 -1.897 0.07
-3.5339999 -5.4879999 -1.899 0.039999999
-3.5120001 -5.473 -1.891 0.07
-3.497 -5.487 -1.892 0.039999999
-3.4909999 -5.5159998 -1.899 0.07
-3.4679999 -5.5170002 -1.895 0.039999999
-3.4519999 -5.5310001 -1.896 0.07
-3.4349999 -5.5419998 -1.896 0.039999999
-3.4119999 -5.5450001 -1.893 0.039999999
-3.402 -5.5469999 -1.892 0.039999999
-3.3859999 -5.5609999 -1.893 0.029999999
-3.368 -5.5700002 -1.893 0
-3.3499999 -5.5799999 -1.893 0
-3.339 -5.5999999 -1.896 0
-3.322 -5.6129999 -1.897 0.059999999
-3.3010001 -5.618 -1.895 0.039999999
-3.2939999 -5.6259999 -1.896 0
-3.2709999 -5.6269999 -1.893 0
-3.253 -5.6370001 -1.893 0
-3.2390001 -5.6539998 -1.895 0
-3.22 -5.6609998 -1.8940001 0
-3.198 -5.664 -1.892 0
-3.197 -5.6830001 -1.896 0
-3.1789999 -5.6929998 -1.896 0.059999999
-3.1600001 -5.7010002 -1.896 0.039999999
-3.141 -5.7090001 -1.895 0.029999999
-3.1199999 -5.7119999 -1.893 0.039999999
-3.105 -5.7290001 -1.895 0.029999999
-3.086 -5.737 -1.895 0.039999999
-3.079 -5.7449999 -1.896 0.029999999
-3.0550001 -5.743 -1.892 0.029999999
-3.0380001 -5.7540002 -1.892 0.029999999
-3.0250001 -5.7740002 -1.896 0.029999999
-3.0020001 -5.7750001 -1.893 0.029999999
-2.9849999 -5.7859998 -1.893 0.029999999
-2.9790001 -5.7969999 -1.896 0.029999999
-2.967 -5.8189998 -1.9 0.07
-2.9430001 -5.816 -1.896 0.039999999
-2.927 -5.8299999 -1.898 0
-2.902 -5.8260002 -1.893 0
-2.8929999 -5.8540001 -1.899 0
-2.865 -5.8439999 -1.893 0
-2.8510001 -5.8610001 -1.896 0
-2.8410001 -5.8639998 -1.895 0
-2.816 -5.8590002 -1.89 0
-2.8 -5.8730001 -1.892 0
-2.7839999 -5.8870001 -1.8940001 0
-2.763 -5.8909998 -1.892 0
-2.743 -5.8959999 -1.891 0
-2.7379999 -5.9089999 -1.8940001 0
-2.721 -5.921 -1.895 0
-2.701 -5.928 -1.895 0
-2.6830001 -5.9359999 -1.895 0
-2.664 -5.9450002 -1.895 0
-2.6440001 -5.9489999 -1.893 0
-2.625 -5.9580002 -1.893 0
-2.619 -5.9689999 -1.896 0
-2.598 -5.9720001 -1.8940001 0
-2.5799999 -5.9819999 -1.895 0
-2.5569999 -5.9809999 -1.892 0
-2.54 -5.9920001 -1.893 0
-2.526 -6.0110002 -1.896 0
-2.5039999 -6.0120001 -1.8940001 0
-2.493 -6.0120001 -1.893 0
-2.4809999 -6.0380001 -1.899 0
-2.454 -6.026 -1.892 0
-2.434 -6.0300002 -1.891 0.029999999
-2.4200001 -6.0500002 -1.895 0.029999999
-2.3929999 -6.0380001 -1.8890001 0.029999999
-2.381 -6.0630002 -1.895 0.029999999
-2.3740001 -6.073 -1.896 0.029999999
-2.3469999 -6.0599999 -1.89 0.029999999
-2.3329999 -6.0819998 -1.895 0.029999999
-2.3139999 -6.0879998 -1.8940001 0.039999999
-2.2909999 -6.086 -1.891 0.029999999
-2.276 -6.1040001 -1.895 0.029999999
-2.263 -6.0970001 -1.891 0.039999999
-2.243 -6.1020002 -1.89 0.029999999
-2.2249999 -6.1139998 -1.892 0.039999999
-2.21 -6.132 -1.896 0.029999999
-2.1860001 -6.1259999 -1.892 0.029999999
-2.1700001 -6.1420002 -1.895 0.07
-2.148 -6.1399999 -1.892 0.039999999
-2.135 -6.1339998 -1.8890001 0.07
-2.1170001 -6.145 -1.89 0.039999999
-2.102 -6.164 -1.8940001 0.039999999
-2.079 -6.1599998 -1.89 0
-2.0610001 -6.171 -1.892 0
-2.0409999 -6.1760001 -1.892 0
-2.017 -6.1680002 -1.887 0
-2.0079999 -6.171 -1.887 0
-1.992 -6.1880002 -1.89 0
-1.97 -6.1869998 -1.888 0
-1.95 -6.1919999 -1.887 0
-1.9349999 -6.2119999 -1.892 0
-1.913 -6.211 -1.89 0.07
-1.892 -6.2119999 -1.888 0.039999999
-1.8839999 -6.2220001 -1.89 0.029999999
-1.86 -6.2090001 -1.885 0.039999999
-1.844 -6.2280002 -1.8890001 0.07
-1.824 -6.2319999 -1.888 0.039999999
-1.807 -6.2470002 -1.891 0.07
-1.78 -6.2290001 -1.883 0.039999999
-1.775 -6.2480001 -1.8890001 0.07
-1.755 -6.25 -1.887 0.039999999
-1.737 -6.2639999 -1.89 0.07
-1.716 -6.2639999 -1.8890001 0.15000001
-1.694 -6.2589998 -1.885 0.039999999
-1.677 -6.2750001 -1.8890001 0.07
-1.66 -6.2909999 -1.892 0.039999999
-1.646 -6.277 -1.887 0.079999998
-1.628 -6.29 -1.8890001 0.15000001
-1.608 -6.2950001 -1.8890001 0.039999999
-1.585 -6.2849998 -1.885 0.07
-1.567 -6.2969999 -1.887 0.079999998
-1.546 -6.2969999 -1.885 0.039999999
-1.534 -6.2940001 -1.883 0.07
-1.516 -6.302 -1.885 0.039999999
-1.497 -6.3119998 -1.886 0.07
-1.476 -6.3119998 -1.885 0.039999999
-1.4579999 -6.3239999 -1.887 0.07
-1.437 -6.3239999 -1.886 0.039999999
-1.416 -6.3210001 -1.883 0.07
-1.405 -6.3200002 -1.882 0.039999999
-1.3890001 -6.3429999 -1.888 0.079999998
-1.369 -6.349 -1.8890001 0.15000001
-1.346 -6.3369999 -1.883 0.039999999
-1.329 -6.3579998 -1.8890001 0.079999998
-1.306 -6.3429999 -1.883 0.039999999
-1.288 -6.3600001 -1.887 0.07
-1.278 -6.3590002 -1.886 0.039999999
-1.257 -6.3590002 -1.885 0.07
-1.238 -6.368 -1.886 0.079999998
-1.216 -6.3629999 -1.883 0.039999999
-1.196 -6.3670001 -1.883 0.079999998
-1.177 -6.3720002 -1.8839999 0.079999998
-1.156 -6.3740001 -1.883 0.15000001
-1.147 -6.3800001 -1.885 0.16
-1.124 -6.3639998 -1.8789999 0.039999999
-1.105 -6.375 -1.881 0.07
-1.086 -6.388 -1.8839999 0.14
-1.064 -6.3759999 -1.8789999 0.039999999
-1.044 -6.3839998 -1.88 0.079999998
-1.026 -6.3979998 -1.8839999 0.16
-1.013 -6.381 -1.878 0.039999999
-0.995 -6.3969998 -1.882 0.07
-0.97500002 -6.4000001 -1.882 0
-0.92400002 -6.1919999 -1.816 0
-0.88200003 -6.0370002 -1.767 0
-0.85799998 -5.9990001 -1.7539999 0
-0.84899998 -6.006 -1.756 0.059999999
-0.829 -6.0009999 -1.753 0.039999999
-0.81599998 -6.0450001 -1.766 0.12
-0.75999999 -5.908 -1.722 0.37
-0.755 -6.0180001 -1.756 0.25
-0.73500001 -6.013 -1.753 0.25999999
-0.72799999 -6.039 -1.761 0.20999999
-0.70700002 -6.0219998 -1.755 0.13
-0.68800002 -6.0240002 -1.755 0.15000001
-0.667 -6.0050001 -1.749 0.18000001
-0.648 -6.0089998 -1.749 0.31
-0.63200003 -6.0320001 -1.756 0.22
-0.61299998 -6.0339999 -1.756 0.28999999
-0.60299999 -6.0349998 -1.756 0.28999999
-0.583 -6.0240002 -1.752 0.28999999
-0.56300002 -6.0100002 -1.747 0.059999999
-0.54299998 -6.0079999 -1.7460001 0
-0.523 -5.9889998 -1.739 0
-0.50700003 -6.0229998 -1.749 0
-0.486 -6.007 -1.744 0
-0.479 -6.0289998 -1.75 0
-0.461 -6.0440001 -1.755 0
-0.45199999 -6.1939998 -1.801 0.050000001
-0.447 -6.4260001 -1.872 0.15000001
-0.428 -6.4390001 -1.876 0.16
-0.40799999 -6.4400001 -1.876 0.17
-0.39700001 -6.4310002 -1.873 0.039999999
-0.377 -6.4289999 -1.872 0.07
-0.35600001 -6.4260001 -1.87 0.079999998
-0.336 -6.4330001 -1.872 0.15000001
-0.317 -6.447 -1.876 0.039999999
-0.296 -6.427 -1.87 0.07
-0.27599999 -6.4380002 -1.873 0.15000001
-0.266 -6.4419999 -1.874 0.039999999
-0.245 -6.4260001 -1.869 0.079999998
-0.22499999 -6.4190001 -1.8660001 0.039999999
-0.205 -6.448 -1.875 0.07
-0.184 -6.4219999 -1.867 0.079999998
-0.164 -6.4299998 -1.869 0.16
-0.14399999 -6.4320002 -1.87 0.039999999
-0.134 -6.414 -1.864 0.079999998
-0.114 -6.4310002 -1.869 0.079999998
-0.093999997 -6.4429998 -1.873 0.14
-0.072999999 -6.4180002 -1.865 0.16
-0.052999999 -6.4239998 -1.867 0.039999999
-0.033 -6.434 -1.87 0.07
-0.013 -6.4260001 -1.867 0.16
-0.003 -6.4109998 -1.863 0.039999999
0.017999999 -6.434 -1.87 0.07
0.037999999 -6.415 -1.864 0.079999998
0.057999998 -6.4190001 -1.865 0.079999998
0.078000002 -6.4159999 -1.864 0.039999999
0.097999997 -6.4120002 -1.863 0.07
0.108 -6.408 -1.862 0.15000001
0.12800001 -6.4159999 -1.864 0.039999999
0.148 -6.4039998 -1.8609999 0.079999998
0.168 -6.4050002 -1.8609999 0.079999998
0.189 -6.4159999 -1.865 0.039999999
0.20900001 -6.4039998 -1.8609999 0.079999998
0.229 -6.4029999 -1.8609999 0.079999998
0.23899999 -6.4070001 -1.863 0.15000001
0.25799999 -6.3930001 -1.859 0.16
0.278 -6.382 -1.8559999 0.039999999
0.30000001 -6.408 -1.864 0.079999998
0.31799999 -6.3759999 -1.854 0.039999999
0.33899999 -6.3889999 -1.859 0.07
0.36000001 -6.3990002 -1.862 0.15000001
0.36899999 -6.3829999 -1.857 0.039999999
0.389 -6.382 -1.857 0.07
0.40900001 -6.3899999 -1.86 0.15000001
0.42899999 -6.3779998 -1.857 0.16
0.44800001 -6.3649998 -1.853 0.039999999
0.46900001 -6.382 -1.859 0.07
0.47799999 -6.368 -1.855 0.039999999
0.498 -6.3670001 -1.855 0.07
0.51800001 -6.3600001 -1.853 0.039999999
0.53799999 -6.3600001 -1.854 0.07
0.55699998 -6.3449998 -1.85 0.039999999
0.57800001 -6.3579998 -1.854 0.07
0.597 -6.3470001 -1.851 0.039999999
0.60699999 -6.3460002 -1.851 0.07
0.62800002 -6.3530002 -1.854 0.079999998
0.64600003 -6.3319998 -1.848 0.079999998
0.66600001 -6.3319998 -1.849 0.16
0.68599999 -6.3299999 -1.849 0.039999999
0.70499998 -6.322 -1.847 0.07
0.72600001 -6.3280001 -1.85 0.15000001
0.736 -6.3249998 -1.849 0.16
0.755 -6.3179998 -1.848 0.039999999
0.77499998 -6.3140001 -1.847 0.07
0.79400003 -6.3099999 -1.847 0.079999998
0.81199998 -6.2940001 -1.8430001 0.039999999
0.83399999 -6.3080001 -1.848 0.079999998
0.84100002 -6.2839999 -1.841 0.039999999
0.86400002 -6.3060002 -1.848 0.07
0.88099998 -6.283 -1.842 0.039999999
0.90100002 -6.2779999 -1.841 0.07
0.92299998 -6.2919998 -1.847 0.039999999
0.94300002 -6.2909999 -1.847 0.07
0.95899999 -6.2670002 -1.841 0.039999999
0.97100002 -6.2789998 -1.845 0.07
0.98900002 -6.263 -1.841 0.039999999
1.01 -6.2670002 -1.8430001 0.07
1.028 -6.2550001 -1.84 0.039999999
1.048 -6.2550001 -1.841 0.07
1.069 -6.256 -1.8430001 0.039999999
1.086 -6.2410002 -1.839 0.07
1.095 -6.2350001 -1.8380001 0.039999999
1.115 -6.2340002 -1.8380001 0.07
1.1339999 -6.2270002 -1.837 0.039999999
1.154 -6.2249999 -1.8380001 0.07
1.171 -6.21 -1.834 0.039999999
1.192 -6.2119999 -1.836 0
1.21 -6.2010002 -1.834 0
1.219 -6.1929998 -1.832 0
1.244 -6.217 -1.841 0
1.258 -6.1849999 -1.832 0
1.278 -6.1849999 -1.8329999 0
1.296 -6.1729999 -1.831 0
1.3150001 -6.171 -1.831 0
1.332 -6.1560001 -1.8279999 0
1.341 -6.1500001 -1.827 0
1.36 -6.1440001 -1.826 0
1.3789999 -6.1399999 -1.826 0
1.398 -6.132 -1.825 0
1.42 -6.1399999 -1.829 0
1.434 -6.1149998 -1.822 0
1.446 -6.1199999 -1.825 0
1.4630001 -6.1079998 -1.822 0
3.3929999 -5.0339999 -1.757 0
3.418 -5.0359998 -1.762 0
3.4330001 -5.0240002 -1.762 0
3.428 -5.0009999 -1.755 0
3.4619999 -5.0149999 -1.765 0
3.471 -4.9949999 -1.761 0
3.484 -4.9809999 -1.76 0
3.526 -5.007 -1.774 0.12
3.5220001 -4.9679999 -1.763 0.2
3.5309999 -4.948 -1.76 0.039999999
3.549 -4.9559999 -1.765 0.16
3.562 -4.9419999 -1.7640001 0.19
3.572 -4.9229999 -1.761 0.17
3.5940001 -4.921 -1.765 0.18000001
3.6059999 -4.9050002 -1.763 0.090000004
3.6240001 -4.8969998 -1.7640001 0.090000004
3.6489999 -4.8979998 -1.7690001 0.15000001
3.6389999 -4.869 -1.76 0.20999999
3.652 -4.855 -1.7589999 0.18000001
3.6800001 -4.8600001 -1.765 0.18000001
3.684 -4.8330002 -1.7589999 0.16
3.698 -4.8200002 -1.7589999 0.17
3.721 -4.8189998 -1.763 0.16
3.717 -4.7979999 -1.757 0.18000001
3.7279999 -4.7820001 -1.755 0.16
3.747 -4.7740002 -1.757 0.17
3.7550001 -4.7540002 -1.753 0.17
3.7679999 -4.7399998 -1.753 0.16
3.7880001 -4.7350001 -1.755 0.16
3.802 -4.7210002 -1.755 0.16
3.8099999 -4.717 -1.755 0.17
3.8269999 -4.7080002 -1.756 0.17
3.8329999 -4.684 -1.752 0.16
3.852 -4.678 -1.7539999 0.17
3.8740001 -4.6739998 -1.757 0.18000001
3.865 -4.6339998 -1.7460001 0.17
3.8889999 -4.632 -1.75 0.18000001
3.9030001 -4.6350002 -1.7539999 0.18000001
3.908 -4.6110001 -1.749 0.16
3.9260001 -4.6030002 -1.751 0.18000001
3.9430001 -4.5939999 -1.752 0.16
3.947 -4.5700002 -1.747 0.16
3.9579999 -4.553 -1.7460001 0.16
3.9860001 -4.5560002 -1.752 0.16
3.9790001 -4.5339999 -1.7460001 0.16
3.9920001 -4.52 -1.745 0.16
4.0209999 -4.5229998 -1.752 0.16
4.0170002 -4.4910002 -1.743 0.16
4.0349998 -4.4819999 -1.745 0.16
4.053 -4.474 -1.747 0.16
4.0580001 -4.4510002 -1.743 0.16
4.0580001 -4.4380002 -1.74 0.039999999
4.0840001 -4.4380002 -1.745 0.07
4.086 -4.4120002 -1.74 0.079999998
4.1059999 -4.4060001 -1.743 0.079999998
4.1220002 -4.395 -1.743 0.079999998
4.125 -4.3709998 -1.739 0.16
4.1370001 -4.3699999 -1.7410001 0.16
4.145 -4.3509998 -1.739 0.039999999
4.1620002 -4.3410001 -1.74 0.07
4.1739998 -4.3270001 -1.739 0.079999998
4.1900001 -4.316 -1.74 0.16
4.1999998 -4.2989998 -1.739 0.16
4.2010002 -4.2740002 -1.733 0.039999999
4.2199998 -4.2789998 -1.739 0.079999998
4.2280002 -4.2600002 -1.7359999 0.15000001
4.2360001 -4.2420001 -1.734 0.039999999
4.2649999 -4.2449999 -1.7410001 0.07
4.2670002 -4.2189999 -1.7359999 0.15000001
4.2740002 -4.1999998 -1.733 0.039999999
4.29 -4.2030001 -1.737 0.079999998
4.3000002 -4.1849999 -1.7359999 0.15000001
4.3060002 -4.165 -1.733 0.039999999
4.3200002 -4.1529999 -1.733 0.07
4.3249998 -4.132 -1.73 0.039999999
4.3429999 -4.1230001 -1.732 0.07
4.349 -4.1030002 -1.729 0.039999999
4.3600001 -4.0999999 -1.7309999 0.07
4.3660002 -4.0799999 -1.728 0.039999999
4.3829999 -4.0700002 -1.73 0.07
4.3979998 -4.059 -1.7309999 0.15000001
4.401 -4.0359998 -1.727 0.039999999
4.4250002 -4.0320001 -1.7309999 0.07
4.428 -4.0100002 -1.727 0.14
4.4330001 -4.0009999 -1.727 0.039999999
4.4580002 -3.9990001 -1.732 0.079999998
4.4520001 -3.9679999 -1.724 0.039999999
4.4720001 -3.961 -1.727 0.07
4.48 -3.9430001 -1.726 0.039999999
4.4889998 -3.9260001 -1.724 0.07
4.5029998 -3.9130001 -1.725 0.15000001
4.5120001 -3.9089999 -1.726 0.039999999
4.5219998 -3.892 -1.725 0.07
4.5209999 -3.8670001 -1.72 0.039999999
4.5549998 -3.8710001 -1.729 0.07
4.5479999 -3.8410001 -1.721 0.039999999
4.5580001 -3.825 -1.72 0.07
4.5630002 -3.8169999 -1.72 0.039999999
4.5700002 -3.799 -1.7180001 0.07
4.585 -3.7869999 -1.719 0.039999999
4.599 -3.7739999 -1.72 0.07
4.6069999 -3.757 -1.7180001 0.039999999
4.6279998 -3.7490001 -1.722 0.07
4.632 -3.7290001 -1.719 0.039999999
4.6339998 -3.7179999 -1.717 0.07
4.6459999 -3.7030001 -1.717 0.039999999
4.6560001 -3.688 -1.717 0.07
4.6630001 -3.6700001 -1.715 0.039999999
4.6789999 -3.658 -1.717 0.07
4.684 -3.6389999 -1.714 0.039999999
4.7059999 -3.632 -1.7180001 0.07
4.7069998 -3.622 -1.717 0.039999999
4.711 -3.6010001 -1.714 0.07
4.7129998 -3.579 -1.71 0.039999999
4.7340002 -3.5710001 -1.714 0.07
4.7459998 -3.5580001 -1.714 0.039999999
4.75 -3.5369999 -1.711 0.07
4.7490001 -3.5250001 -1.709 0.15000001
4.7600002 -3.51 -1.709 0.039999999
4.7740002 -3.497 -1.71 0.079999998
4.7880001 -3.484 -1.711 0.079999998
4.802 -3.4719999 -1.7130001 0.079999998
4.7979999 -3.4449999 -1.707 0.079999998
4.8130002 -3.434 -1.7079999 0.15000001
4.8200002 -3.427 -1.709 0.16
4.8260002 -3.4089999 -1.707 0.16
4.842 -3.3970001 -1.709 0.16
4.8460002 -3.3770001 -1.707 0.039999999
4.855 -3.3610001 -1.706 0.079999998
4.8639998 -3.345 -1.705 0.079999998
4.8730001 -3.3280001 -1.705 0.039999999
4.8730001 -3.3169999 -1.7029999 0.07
4.882 -3.3010001 -1.7029999 0.16
4.8920002 -3.286 -1.7029999 0.16
4.901 -3.2690001 -1.702 0.039999999
4.9130001 -3.2550001 -1.7029999 0.07
4.9219999 -3.2379999 -1.702 0.15000001
4.928 -3.2320001 -1.7029999 0.16
4.934 -3.2130001 -1.701 0.039999999
4.961 -3.2090001 -1.707 0.07
4.9580002 -3.1849999 -1.7029999 0.079999998
4.967 -3.168 -1.702 0.15000001
4.9770002 -3.1530001 -1.702 0.039999999
4.9770002 -3.131 -1.698 0.07
4.98 -3.122 -1.698 0.15000001
4.9970002 -3.1110001 -1.7 0.039999999
4.9920001 -3.086 -1.6950001 0.07
4.9980001 -3.0680001 -1.694 0.039999999
5.0219998 -3.0610001 -1.699 0.07
5.0159998 -3.036 -1.693 0.15000001
5.0250001 -3.02 -1.693 0.039999999
5.0500002 -3.0239999 -1.7 0.07
5.0310001 -2.9909999 -1.6900001 0.039999999
5.0549998 -2.984 -1.6950001 0.07
5.0700002 -2.971 -1.697 0
5.066 -2.948 -1.692 0.059999999
5.0669999 -2.927 -1.689 0.039999999
5.0910001 -2.9200001 -1.6950001 0.07
5.0799999 -2.9030001 -1.689 0.039999999
5.0960002 -2.891 -1.692 0.07
5.1030002 -2.8740001 -1.691 0.039999999
5.1020002 -2.852 -1.688 0.07
5.1199999 -2.8410001 -1.691 0.14
5.1339998 -2.8280001 -1.692 0.039999999
5.1360002 -2.819 -1.692 0.07
5.1350002 -2.7969999 -1.688 0.039999999
5.1589999 -2.789 -1.694 0.07
5.151 -2.7639999 -1.688 0.14
5.1599998 -2.7479999 -1.688 0.039999999
5.1700001 -2.7320001 -1.688 0.07
5.1609998 -2.707 -1.682 0.039999999
5.1729999 -2.7030001 -1.6849999 0.07
5.1890001 -2.691 -1.688 0.039999999
5.2010002 -2.6760001 -1.689 0.07
5.198 -2.654 -1.6849999 0.039999999
5.2160001 -2.6429999 -1.688 0.07
5.2140002 -2.6210001 -1.6849999 0.16
5.2329998 -2.6099999 -1.688 0.039999999
5.2389998 -2.602 -1.689 0.07
5.23 -2.5769999 -1.683 0.039999999
5.2529998 -2.569 -1.688 0.07
5.2420001 -2.543 -1.682 0.039999999
5.2690001 -2.5350001 -1.688 0.07
5.2750001 -2.5179999 -1.688 0.039999999
5.2719998 -2.507 -1.6849999 0.07
5.2659998 -2.484 -1.681 0.039999999
5.2859998 -2.473 -1.6849999 0.07
5.2909999 -2.454 -1.684 0.039999999
5.309 -2.4419999 -1.687 0.07
5.3150001 -2.425 -1.687 0.15000001
5.3099999 -2.4030001 -1.682 0.039999999
5.3280001 -2.401 -1.687 0.07
5.3179998 -2.3759999 -1.681 0.039999999
5.329 -2.3610001 -1.682 0.07
5.3260002 -2.3399999 -1.679 0.039999999
5.342 -2.3269999 -1.682 0.07
5.3369999 -2.3050001 -1.678 0.039999999
5.3509998 -2.2909999 -1.6799999 0.07
5.3649998 -2.2869999 -1.684 0.079999998
5.355 -2.263 -1.678 0.039999999
5.3720002 -2.25 -1.681 0.07
5.3779998 -2.233 -1.681 0.039999999
5.3769999 -2.2130001 -1.678 0.079999998
5.3909998 -2.1989999 -1.681 0.039999999
5.402 -2.1830001 -1.682 0.07
5.395 -2.171 -1.678 0.14
5.4070001 -2.1559999 -1.6799999 0.039999999
5.4120002 -2.138 -1.679 0.07
5.415 -2.1199999 -1.678 0.079999998
5.4200001 -2.102 -1.678 0.079999998
5.4390001 -2.0899999 -1.682 0.079999998
5.4349999 -2.0780001 -1.679 0.079999998
5.4429998 -2.062 -1.6799999 0.079999998
5.448 -2.0439999 -1.679 0.079999998
5.454 -2.027 -1.679 0.079999998
5.4520001 -2.007 -1.676 0.16
5.46 -1.99 -1.677 0.17
5.473 -1.976 -1.679 0.16
5.467 -1.964 -1.676 0.16
5.473 -1.947 -1.676 0.16
5.4759998 -1.928 -1.675 0.16
5.48 -1.91 -1.675 0.17
5.4899998 -1.8940001 -1.676 0.16
5.4990001 -1.878 -1.677 0.16
5.5009999 -1.86 -1.676 0.16
5.4970002 -1.849 -1.674 0.16
5.5229998 -1.8380001 -1.6799999 0.17
5.5120001 -1.8150001 -1.675 0.16
5.5139999 -1.7970001 -1.674 0.039999999
5.5419998 -1.786 -1.681 0.15000001
5.526 -1.762 -1.674 0.039999999
5.5500002 -1.76 -1.681 0.15000001
5.5279999 -1.734 -1.6720001 0.18000001
5.5370002 -1.7180001 -1.673 0.17
5.539 -1.7 -1.6720001 0.17
5.552 -1.684 -1.674 0.16
5.5640001 -1.669 -1.676 0.16
5.5580001 -1.648 -1.673 0.18000001
5.5679998 -1.642 -1.675 0.16
5.572 -1.624 -1.675 0.16
5.5619998 -1.602 -1.67 0.17
5.5630002 -1.584 -1.669 0.039999999
5.5890002 -1.572 -1.675 0.15000001
5.566 -1.5470001 -1.666 0.050000001
5.5910001 -1.535 -1.673 0.15000001
5.586 -1.524 -1.671 0.050000001
5.5960002 -1.508 -1.6720001 0.16
5.5949998 -1.489 -1.671 0.14
5.6040001 -1.472 -1.6720001 0.2
5.6199999 -1.457 -1.675 0.41999999
5.6240001 -1.4400001 -1.675 0.34999999
5.6240001 -1.4299999 -1.675 0.38
5.6220002 -1.411 -1.6720001 0.44999999
5.6409998 -1.397 -1.677 0.30000001
5.6300001 -1.376 -1.6720001 0.52999997
5.6490002 -1.3609999 -1.677 0.31999999
5.6459999 -1.342 -1.675 0.47999999
5.652 -1.325 -1.675 0.36000001
5.6599998 -1.317 -1.677 0.41
5.6849999 -1.304 -1.684 0.44
5.664 -1.28 -1.676 0.43000001
5.6760001 -1.2640001 -1.678 0.46000001
5.6739998 -1.245 -1.676 0.67000002
5.6690001 -1.225 -1.674 0.56
5.6589999 -1.205 -1.669 0.18000001
5.665 -1.197 -1.671 0.039999999
5.6729999 -1.1799999 -1.6720001 0.07
5.665 -1.16 -1.668 0.039999999
5.6950002 -1.147 -1.676 0.07
5.6719999 -1.124 -1.668 0.039999999
5.6849999 -1.108 -1.671 0.07
5.6830001 -1.089 -1.669 0.039999999
5.6810002 -1.079 -1.668 0.07
5.6859999 -1.062 -1.669 0.039999999
5.704 -1.0470001 -1.674 0.07
5.6849999 -1.025 -1.666 0.039999999
5.6939998 -1.008 -1.668 0
5.71 -0.99199998 -1.6720001 0.07
5.6869998 -0.97000003 -1.664 0.039999999
5.7049999 -0.96399999 -1.669 0.07
5.7030001 -0.94499999 -1.668 0.039999999
5.71 -0.92799997 -1.669 0.07
5.7069998 -0.90899998 -1.6670001 0.039999999
5.7319999 -0.89399999 -1.674 0.07
5.7069998 -0.87199998 -1.665 0.039999999
5.7059999 -0.86299998 -1.665 0
5.7319999 -0.84799999 -1.6720001 0
5.71 -0.82700002 -1.664 0
5.7140002 -0.80900002 -1.665 0
5.7280002 -0.79299998 -1.668 0
5.711 -0.77200001 -1.6619999 0
5.7210002 -0.755 -1.665 0
5.7340002 -0.74800003 -1.668 0
5.7379999 -0.73000002 -1.669 0.059999999
5.7249999 -0.70999998 -1.664 0.039999999
5.7350001 -0.69300002 -1.666 0.039999999
5.7319999 -0.67400002 -1.665 0.029999999
5.724 -0.65499997 -1.6619999 0.029999999
5.7449999 -0.639 -1.668 0.029999999
5.7420001 -0.63 -1.666 0.029999999
5.7350001 -0.611 -1.663 0.07
5.75 -0.59399998 -1.668 0.039999999
5.744 -0.57499999 -1.665 0.039999999
5.7480001 -0.55699998 -1.666 0.039999999
5.7550001 -0.54000002 -1.668 0
5.7319999 -0.51999998 -1.66 0
5.7649999 -0.51300001 -1.67 0.059999999
5.7519999 -0.49399999 -1.665 0.039999999
5.757 -0.47600001 -1.666 0.07
5.7550001 -0.458 -1.665 0.039999999
5.7579999 -0.44 -1.666 0.07
5.75 -0.421 -1.663 0.039999999
5.7649999 -0.40400001 -1.6670001 0.07
5.75 -0.39399999 -1.6619999 0.039999999
5.7470002 -0.37599999 -1.661 0.039999999
5.7600002 -0.35800001 -1.665 0.07
5.7529998 -0.34 -1.6619999 0.039999999
5.7719998 -0.32300001 -1.668 0.07
5.763 -0.30399999 -1.665 0.039999999
5.763 -0.29499999 -1.665 0.07
5.7589998 -0.27700001 -1.663 0.039999999
5.7670002 -0.259 -1.665 0.07
5.7550001 -0.23999999 -1.661 0.039999999
5.7719998 -0.223 -1.666 0.07
5.7670002 -0.204 -1.665 0.079999998
5.7529998 -0.186 -1.66 0.079999998
5.7740002 -0.177 -1.666 0.079999998
5.7779999 -0.15899999 -1.668 0.090000004
5.7649999 -0.141 -1.663 0.090000004
5.7719998 -0.123 -1.665 0.079999998
5.7680001 -0.105 -1.664 0.079999998
5.7680001 -0.086999997 -1.664 0.15000001
5.7740002 -0.078000002 -1.666 0.17
5.7670002 -0.059 -1.663 0.039999999
5.7820001 -0.041000001 -1.668 0.07
5.7690001 -0.023 -1.664 0.15000001
5.7690001 -0.0049999999 -1.664 0.18000001
5.5939999 0.013 -1.668 0.23
5.6030002 0.029999999 -1.671 0.25999999
5.599 0.048 -1.67 0.25
5.586 0.064999998 -1.666 0.16
5.6100001 0.074000001 -1.674 0.28
5.5929999 0.092 -1.668 0.23
5.6020002 0.11 -1.671 0.27000001
5.592 0.127 -1.668 0.2
5.6009998 0.145 -1.671 0.27000001
5.599 0.162 -1.671 0.25
5.5869999 0.18000001 -1.6670001 0.20999999
5.598 0.189 -1.671 0.23999999
5.592 0.206 -1.669 0.23
5.5819998 0.223 -1.666 0.18000001
5.6040001 0.242 -1.673 0.25999999
5.5879998 0.259 -1.668 0.20999999
5.5809999 0.27599999 -1.6670001 0.2
5.6030002 0.29499999 -1.674 0.25
5.599 0.303 -1.673 0.22
5.5900002 0.31999999 -1.67 0.20999999
5.5929999 0.338 -1.671 0.23999999
5.5960002 0.35600001 -1.673 0.18000001
5.5890002 0.373 -1.671 0.23999999
5.586 0.391 -1.67 0.19
5.592 0.40900001 -1.673 0.23999999
5.5689998 0.41600001 -1.665 0.19
5.5840001 0.435 -1.671 0.25
5.5770001 0.45199999 -1.669 0.19
5.5760002 0.46900001 -1.669 0.25
5.5669999 0.486 -1.6670001 0.18000001
5.586 0.505 -1.673 0.23
5.5619998 0.51200002 -1.666 0.19
5.5780001 0.53100002 -1.671 0.25
5.5840001 0.55000001 -1.674 0.2
5.573 0.56599998 -1.671 0.12
5.5630002 0.583 -1.668 0.20999999
5.5780001 0.602 -1.674 0.11
5.559 0.61799997 -1.668 0.2
5.5700002 0.62800002 -1.6720001 0.11
5.5549998 0.64399999 -1.668 0.2
5.5560002 0.662 -1.669 0.11
5.5539999 0.67900002 -1.669 0.20999999
5.5580001 0.69700003 -1.671 0.11
5.5440001 0.713 -1.6670001 0.2
5.5570002 0.73299998 -1.6720001 0.11
5.546 0.74000001 -1.669 0.19
5.552 0.759 -1.671 0.11
5.5380001 0.77499998 -1.668 0.19
5.5469999 0.79299998 -1.671 0.11
5.5349998 0.81 -1.668 0.19
5.54 0.82800001 -1.671 0.2
5.5370002 0.83600003 -1.67 0.1
5.5279999 0.85299999 -1.668 0.18000001
5.5419998 0.87300003 -1.674 0.11
5.5229998 0.88800001 -1.668 0.19
5.539 0.90799999 -1.675 0.2
5.5300002 0.92500001 -1.673 0.1
5.5250001 0.94199997 -1.6720001 0.19
5.5240002 0.94999999 -1.6720001 0.19
5.5209999 0.96799999 -1.6720001 0.1
5.52 0.98500001 -1.673 0.18000001
5.5149999 1.002 -1.6720001 0.20999999
5.513 1.02 -1.673 0.1
5.5159998 1.038 -1.675 0.17
5.4980001 1.053 -1.67 0.050000001
5.4920001 1.061 -1.668 0.18000001
5.4980001 1.08 -1.671 0.1
5.493 1.097 -1.671 0.18000001
5.5009999 1.1160001 -1.675 0.22
5.4819999 1.13 -1.67 0.090000004
5.473 1.147 -1.668 0.2
5.4840002 1.1670001 -1.673 0.11
5.4860001 1.176 -1.674 0.18000001
5.467 1.1900001 -1.669 0.050000001
5.4619999 1.207 -1.668 0.18000001
5.4770002 1.228 -1.675 0.11
5.4559999 1.242 -1.669 0.19
5.4710002 1.263 -1.675 0.11
5.4629998 1.279 -1.674 0.18000001
5.4569998 1.2869999 -1.673 0.22
5.461 1.306 -1.675 0.2
5.4549999 1.323 -1.675 0.12
5.434 1.336 -1.669 0.20999999
5.4499998 1.358 -1.676 0.11
5.4380002 1.373 -1.673 0.2
5.4289999 1.38 -1.671 0.2
5.4299998 1.398 -1.673 0.23999999
5.4200001 1.414 -1.671 0.23
5.4099998 1.429 -1.669 0.20999999
5.4159999 1.449 -1.673 0.23999999
5.4060001 1.465 -1.671 0.23
5.3920002 1.479 -1.668 0.19
5.401 1.4910001 -1.671 0.27000001
5.3979998 1.508 -1.6720001 0.23
5.3839998 1.523 -1.669 0.19
5.3940001 1.544 -1.674 0.27000001
5.3769999 1.557 -1.67 0.23
5.3790002 1.576 -1.6720001 0.23
5.3610001 1.589 -1.668 0.18000001
5.3730001 1.602 -1.673 0.30000001
5.3520002 1.614 -1.6670001 0.23999999
5.3559999 1.633 -1.67 0.23999999
5.362 1.654 -1.674 0.27000001
5.3449998 1.6670001 -1.67 0.28999999
5.3369999 1.683 -1.669 0.27000001
5.335 1.701 -1.67 0.27000001
5.3340001 1.71 -1.671 0.27000001
5.3319998 1.727 -1.6720001 0.28999999
5.309 1.738 -1.666 0.22
5.289 1.75 -1.661 0.40000001
5.2690001 1.762 -1.656 0.31999999
5.2360001 1.77 -1.647 0.34
5.2010002 1.776 -1.637 0.28999999
5.1750002 1.777 -1.6289999 0.36000001
5.1589999 1.789 -1.626 0.33000001
5.1139998 1.7920001 -1.612 0.33000001
5.092 1.802 -1.607 0.31999999
5.0749998 1.814 -1.603 0.30000001
5.0440001 1.821 -1.595 0.31
5.007 1.817 -1.5829999 0.33000001
4.9980001 1.832 -1.582 0.34
4.9819999 1.8430001 -1.5779999 0.33000001
4.9689999 1.8559999 -1.576 0.28
4.9569998 1.87 -1.574 0.28999999
4.9569998 1.887 -1.576 0.38999999
4.928 1.8940001 -1.568 0.37
4.928 1.903 -1.569 0.34
4.869 1.898 -1.551 0.41999999
4.8829999 1.921 -1.558 0.30000001
4.875 1.936 -1.557 0.33000001
4.835 1.938 -1.545 0.37
4.8130002 1.947 -1.54 0.43000001
4.7820001 1.952 -1.531 0.40000001
4.7750001 1.9579999 -1.53 0.31
4.7389998 1.961 -1.52 0.44999999
4.7859998 1.997 -1.538 0.37
4.7509999 2.0009999 -1.528 0.36000001
4.7719998 2.027 -1.5369999 0.47
4.7210002 2.023 -1.522 0.30000001
4.73 2.036 -1.527 0.44999999
4.7709999 2.0710001 -1.543 0.37
4.7490001 2.079 -1.5369999 0.34
4.6739998 2.0639999 -1.5140001 0.31999999
4.6820002 2.085 -1.5190001 0.44999999
4.6420002 2.085 -1.507 0.38999999
4.6630001 2.112 -1.517 0.40000001
4.6430001 2.112 -1.511 0.43000001
4.6259999 2.1210001 -1.507 0.25
4.664 2.1570001 -1.523 0.52999997
4.5619998 2.1270001 -1.489 0.27000001
4.5380001 2.1340001 -1.483 0.38999999
4.507 2.1370001 -1.475 0.40000001
4.5809999 2.1889999 -1.503 0.44
4.4879999 2.154 -1.472 0.34
4.507 2.1800001 -1.4809999 0.52999997
4.4130001 2.152 -1.45 0.38
4.5190001 2.221 -1.49 0.31
4.4629998 2.211 -1.472 0.43000001
4.618 2.3050001 -1.53 0.36000001
4.553 2.2820001 -1.508 0.43000001
4.5809999 2.3139999 -1.521 0.34
4.566 2.3239999 -1.518 0.40000001
4.552 2.335 -1.516 0.30000001
4.5900002 2.372 -1.5319999 0.46000001
4.54 2.365 -1.517 0.30000001
4.5599999 2.3929999 -1.527 0.43000001
4.5339999 2.3889999 -1.5190001 0.31999999
4.5209999 2.401 -1.517 0.43000001
4.6079998 2.4649999 -1.551 0.40000001
4.572 2.464 -1.541 0.38999999
4.5640001 2.4779999 -1.541 0.34
4.5430002 2.4849999 -1.536 0.43000001
4.5 2.4809999 -1.523 0.31
4.5310001 2.507 -1.536 0.41
4.513 2.5150001 -1.5319999 0.38
4.4990001 2.526 -1.53 0.44
4.4520001 2.5190001 -1.516 0.34
4.5539999 2.5940001 -1.556 0.34
4.5139999 2.5910001 -1.544 0.44999999
4.533 2.6199999 -1.554 0.34
4.539 2.6329999 -1.558 0.37
4.5370002 2.651 -1.5599999 0.40000001
4.5170002 2.658 -1.556 0.44999999
4.4840002 2.658 -1.5470001 0.37
4.4120002 2.635 -1.523 0.40000001
4.4229999 2.6600001 -1.53 0.31999999
4.2849998 2.5969999 -1.482 0.34999999
4.152 2.526 -1.434 0.33000001
4.2940001 2.6300001 -1.49 0.27000001
4.2470002 2.619 -1.475 0.47999999
4.0939999 2.5439999 -1.421 0.38
4.2639999 2.6670001 -1.488 0.37
4.2709999 2.6889999 -1.494 0.5
4.2969999 2.7149999 -1.505 0.31999999
4.4050002 2.802 -1.549 0.28
4.243 2.7190001 -1.4910001 0.41999999
4.204 2.7130001 -1.48 0.33000001
4.1700001 2.7090001 -1.47 0.41999999
4.198 2.7460001 -1.484 0.28
4.1999998 2.767 -1.488 0.51999998
4.2740002 2.8239999 -1.518 0.20999999
4.1729999 2.777 -1.483 0.54000002
4.1500001 2.7809999 -1.477 0.31999999
4.1129999 2.7750001 -1.466 0.41
4.1859999 2.8429999 -1.498 0.36000001
4.1820002 2.859 -1.5 0.23
4.1110001 2.8210001 -1.474 0.49000001
4.1869998 2.892 -1.507 0.38999999
4.1500001 2.885 -1.4960001 0.31999999
3.961 2.7739999 -1.426 0.33000001
4.0380001 2.846 -1.46 0.34
4.1729999 2.9590001 -1.516 0.28999999
4.1939998 2.994 -1.528 0.41
4.1230001 2.954 -1.502 0.34
4.072 2.937 -1.485 0.40000001
4.1459999 3.01 -1.518 0.38
4.0650001 2.971 -1.49 0.36000001
4.1420002 3.0469999 -1.524 0.31999999
4.105 3.039 -1.513 0.37
4.1290002 3.0769999 -1.527 0.38
4.1830001 3.1270001 -1.55 0.36000001
4.1500001 3.1229999 -1.541 0.36000001
4.152 3.145 -1.545 0.40000001
4.145 3.1600001 -1.5470001 0.36000001
4.1820002 3.2090001 -1.566 0.38999999
4.0879998 3.1570001 -1.531 0.43000001
3.895 3.03 -1.4579999 0.17
3.599 2.8110001 -1.34 0.38999999
4.178 3.279 -1.5779999 0.23
4.3629999 3.4449999 -1.6569999 0.17
3.9419999 3.1359999 -1.4910001 0.14
4 3.201 -1.518 0.17
4.131 3.3269999 -1.576 0.31
4.355 3.5280001 -1.6720001 0.23
4.3759999 3.5569999 -1.683 0.22
4.4640002 3.651 -1.724 0.18000001
4.4569998 3.668 -1.726 0.27000001
4.4380002 3.6760001 -1.723 0.23
4.4250002 3.6889999 -1.722 0.19
4.427 3.714 -1.728 0.25999999
4.414 3.7149999 -1.724 0.23999999
4.402 3.7279999 -1.724 0.19
4.3990002 3.75 -1.728 0.25999999
4.382 3.7590001 -1.726 0.23
4.3649998 3.7690001 -1.724 0.2
3.783 3.2909999 -1.483 0.30000001
3.74 3.2739999 -1.469 0.38
4.2880001 3.7609999 -1.704 0.2
4.3379998 3.829 -1.73 0.19
4.3249998 3.8410001 -1.729 0.25
4.3200002 3.8610001 -1.732 0.20999999
4.053 3.648 -1.623 0.20999999
4.158 3.7650001 -1.673 0.16
4.2820001 3.9000001 -1.732 0.25999999
4.2849998 3.9159999 -1.7359999 0.2
4.2659998 3.9230001 -1.733 0.12
4.2420001 3.9260001 -1.728 0.20999999
4.2309999 3.941 -1.729 0.11
4.098 3.8410001 -1.676 0.090000004
3.3510001 3.1670001 -1.354 0.19
3.3399999 3.1670001 -1.352 0.20999999
4.2069998 4.0050001 -1.737 0.23
4.1900001 4.0149999 -1.735 0.18000001
4.1849999 4.0339999 -1.738 0.25
4.164 4.04 -1.735 0.19
4.152 4.0539999 -1.735 0.23
4.1479998 4.0749998 -1.739 0.18000001
4.1459999 4.085 -1.7410001 0.25
4.119 4.085 -1.735 0.18000001
4.1160002 4.1069999 -1.739 0.23
4.1079998 4.1259999 -1.742 0.20999999
4.0890002 4.132 -1.738 0.23
4.086 4.1550002 -1.743 0.19
4.0749998 4.1700001 -1.744 0.12
3.2509999 3.3440001 -1.3710001 0.17
4.0479999 4.1820002 -1.7410001 0.22
4.0339999 4.1929998 -1.74 0.18000001
4.0229998 4.2090001 -1.742 0.23
4.0149999 4.2270002 -1.744 0.19
4.0079999 4.2459998 -1.747 0.12
3.974 4.237 -1.737 0.2
3.977 4.2529998 -1.742 0.11
3.967 4.2690001 -1.743 0.2
3.9489999 4.276 -1.7410001 0.11
3.931 4.2839999 -1.739 0.2
3.934 4.3150001 -1.747 0.11
3.908 4.3130002 -1.7410001 0.2
3.905 4.3369999 -1.7460001 0.11
3.892 4.336 -1.743 0.2
3.8829999 4.3540001 -1.745 0.11
3.8599999 4.3559999 -1.7410001 0.19
3.8640001 4.388 -1.749 0.11
3.8369999 4.3839998 -1.743 0.19
3.835 4.4109998 -1.749 0.11
3.826 4.414 -1.748 0.19
3.8110001 4.4239998 -1.747 0.11
3.7950001 4.4330001 -1.7460001 0.19
3.7920001 4.4580002 -1.751 0.11
3.7650001 4.4559999 -1.745 0.18000001
3.7620001 4.4809999 -1.751 0.1
3.753 4.4980001 -1.753 0.18000001
3.733 4.4879999 -1.7460001 0.22
3.7320001 4.5159998 -1.753 0.1
3.7090001 4.5170002 -1.749 0.18000001
3.691 4.5250001 -1.747 0.11
3.6900001 4.552 -1.7539999 0.17
3.671 4.5580001 -1.751 0.20999999
3.6489999 4.559 -1.747 0.1
3.6559999 4.5830002 -1.7539999 0.18000001
3.6370001 4.5879998 -1.752 0.050000001
3.6199999 4.5970001 -1.751 0.18000001
3.6099999 4.6139998 -1.753 0.2
3.596 4.625 -1.753 0.090000004
3.579 4.6339998 -1.752 0.18000001
3.575 4.658 -1.757 0.11
3.5599999 4.6550002 -1.7539999 0.090000004
3.5420001 4.6620002 -1.752 0.18000001
3.533 4.6799998 -1.755 0.19
3.5250001 4.6999998 -1.7589999 0.1
3.5020001 4.6989999 -1.7539999 0.18000001
3.49 4.7150002 -1.756 0.050000001
3.477 4.7129998 -1.752 0.16
3.467 4.73 -1.755 0.050000001
3.4519999 4.7410002 -1.755 0.16
3.4400001 4.756 -1.757 0.050000001
3.424 4.7649999 -1.756 0.17
3.4089999 4.776 -1.756 0.050000001
3.395 4.7880001 -1.757 0.17
3.3889999 4.7950001 -1.757 0.050000001
3.375 4.8070002 -1.758 0.16
3.3659999 4.8270001 -1.762 0.18000001
3.349 4.835 -1.76 0.1
3.335 4.8470001 -1.761 0.18000001
3.322 4.8600001 -1.762 0.2
3.3069999 4.8709998 -1.762 0.1
3.2909999 4.8649998 -1.758 0.18000001
3.279 4.8800001 -1.76 0.050000001
3.26 4.8839998 -1.757 0.17
3.2539999 4.908 -1.763 0.2
3.2379999 4.9180002 -1.763 0.090000004
3.22 4.9239998 -1.761 0.18000001
3.2119999 4.9450002 -1.765 0.11
3.2 4.9439998 -1.763 0.18000001
3.188 4.96 -1.765 0.2
3.171 4.967 -1.7640001 0.090000004
3.165 4.993 -1.77 0.16
3.1370001 4.9840002 -1.763 0.050000001
3.125 4.9980001 -1.765 0.17
3.1070001 5.0050001 -1.763 0.1
3.1059999 5.0209999 -1.768 0.18000001
3.0899999 5.0310001 -1.768 0.050000001
3.0739999 5.039 -1.767 0.17
3.0569999 5.0469999 -1.767 0.11
3.046 5.0650001 -1.77 0.18000001
3.0280001 5.0710001 -1.768 0.050000001
3.0179999 5.072 -1.767 0.17
3.007 5.0900002 -1.77 0.1
2.9860001 5.0910001 -1.767 0.18000001
2.9760001 5.1100001 -1.771 0.11
2.964 5.1259999 -1.773 0.18000001
2.9430001 5.1269999 -1.77 0.22
2.9289999 5.1399999 -1.771 0.1
2.924 5.151 -1.774 0.18000001
2.9070001 5.1589999 -1.773 0.12
2.882 5.1529999 -1.768 0.2
2.8729999 5.1729999 -1.772 0.1
2.855 5.1789999 -1.771 0.2
2.842 5.1950002 -1.773 0.11
2.8199999 5.1939998 -1.77 0.19
2.8199999 5.2129998 -1.775 0.11
2.8069999 5.2270002 -1.777 0.17
2.7869999 5.2290001 -1.774 0.050000001
2.7679999 5.2340002 -1.773 0.18000001
2.7579999 5.2550001 -1.777 0.11
2.74 5.2600002 -1.776 0.18000001
2.7249999 5.2719998 -1.777 0.20999999
2.7149999 5.2729998 -1.776 0.1
2.6960001 5.276 -1.774 0.19
2.687 5.3000002 -1.78 0.11
2.664 5.2969999 -1.776 0.18000001
2.655 5.3200002 -1.781 0.2
2.6370001 5.3249998 -1.78 0.19
2.619 5.3319998 -1.779 0.050000001
2.6059999 5.3260002 -1.776 0.16
2.596 5.3470001 -1.781 0.18000001
2.5799999 5.3569999 -1.781 0.1
2.559 5.3569999 -1.778 0.18000001
2.5469999 5.375 -1.7819999 0.11
2.533 5.388 -1.784 0.18000001
2.5120001 5.3889999 -1.781 0.050000001
2.503 5.3909998 -1.781 0.17
2.49 5.408 -1.784 0.2
2.4749999 5.4190001 -1.785 0.1
2.454 5.4180002 -1.7819999 0.18000001
2.4400001 5.4330001 -1.784 0.11
2.4200001 5.4349999 -1.7819999 0.2
2.4119999 5.4619999 -1.789 0.1
2.3959999 5.448 -1.783 0.2
2.3829999 5.4660001 -1.7869999 0.11
2.3599999 5.46 -1.7819999 0.18000001
2.348 5.4790001 -1.786 0.11
2.329 5.4829998 -1.785 0.2
2.3150001 5.4980001 -1.7869999 0.2
2.296 5.5009999 -1.786 0.1
2.29 5.5100002 -1.788 0.18000001
2.277 5.5279999 -1.791 0.11
2.25 5.5120001 -1.784 0.2
2.2390001 5.5349998 -1.789 0.11
2.217 5.5300002 -1.785 0.19
2.2079999 5.5580001 -1.7920001 0.11
2.187 5.5560002 -1.789 0.2
2.1800001 5.5650001 -1.791 0.11
2.1670001 5.5819998 -1.795 0.18000001
2.1470001 5.5819998 -1.7920001 0.20999999
2.132 5.5960002 -1.795 0.2
2.1140001 5.6009998 -1.794 0.11
2.0910001 5.5929999 -1.789 0.2
2.089 5.6139998 -1.795 0.11
2.0639999 5.6030002 -1.789 0.20999999
2.0550001 5.631 -1.796 0.11
2.036 5.6350002 -1.796 0.17
2.0190001 5.6430001 -1.796 0.22
2.0020001 5.651 -1.7970001 0.16
1.984 5.658 -1.7970001 0.23
1.97 5.6459999 -1.7920001 0.19
1.9579999 5.6690001 -1.798 0.23
1.9400001 5.6750002 -1.798 0.1
1.9220001 5.6789999 -1.7970001 0.18000001
1.906 5.691 -1.799 0.20999999
1.888 5.697 -1.799 0.19
1.8710001 5.704 -1.799 0.20999999
1.864 5.7129998 -1.801 0.1
1.842 5.7080002 -1.798 0.2
1.826 5.7189999 -1.799 0.1
1.804 5.7140002 -1.796 0.19
1.793 5.7410002 -1.803 0.11
1.774 5.7410002 -1.801 0.18000001
1.756 5.7470002 -1.801 0.22
1.752 5.7659998 -1.807 0.19
1.73 5.7600002 -1.803 0.23
1.711 5.7639999 -1.802 0.18000001
1.7 5.7909999 -1.8099999 0.25
1.67 5.756 -1.796 0.1
1.654 5.7709999 -1.799 0.18000001
1.6440001 5.802 -1.808 0.1
1.632 5.7969999 -1.8049999 0.19
1.6160001 5.8070002 -1.807 0.11
1.6 5.8200002 -1.8099999 0.18000001
1.58 5.8210001 -1.809 0.12
1.561 5.8239999 -1.808 0.18000001
1.546 5.8379998 -1.811 0.20999999
1.533 5.8280001 -1.807 0.1
1.515 5.8340001 -1.807 0.2
1.501 5.8559999 -1.813 0.11
1.476 5.835 -1.804 0.19
1.462 5.8559999 -1.8099999 0.11
1.443 5.8590002 -1.809 0.18000001
1.426 5.869 -1.811 0.11
1.404 5.8559999 -1.8049999 0.19
1.401 5.8850002 -1.814 0.11
1.378 5.8699999 -1.808 0.20999999
1.362 5.8860002 -1.812 0.11
1.345 5.8969998 -1.814 0.18000001
1.326 5.9000001 -1.813 0.20999999
1.306 5.8969998 -1.811 0.090000004
1.289 5.9099998 -1.814 0.18000001
1.278 5.9029999 -1.811 0.1
1.2589999 5.9050002 -1.8099999 0.19
1.247 5.9369998 -1.819 0.11
1.224 5.9200001 -1.813 0.2
1.207 5.9349999 -1.816 0.2
1.1900001 5.9439998 -1.818 0.19
1.177 5.9310002 -1.813 0.20999999
1.158 5.9330001 -1.813 0.1
1.1440001 5.9590001 -1.8200001 0.16
1.125 5.961 -1.819 0.22
1.104 5.9530001 -1.816 0.1
1.086 5.9580002 -1.816 0.19
1.069 5.9689999 -1.819 0.11
1.059 5.967 -1.818 0.18000001
1.04 5.974 -1.819 0.1
1.021 5.974 -1.818 0.18000001
1.003 5.9790001 -1.818 0.20999999
0.98500001 5.9889998 -1.821 0.1
0.963 5.9759998 -1.8150001 0.18000001
0.94700003 5.9949999 -1.821 0.11
0.93800002 5.9970002 -1.821 0.17
0.91900003 6 -1.821 0.20999999
0.90100002 6.007 -1.822 0.1
0.88099998 6.006 -1.821 0.18000001
0.86299998 6.0079999 -1.821 0.2
0.84500003 6.0219998 -1.824 0.1
0.82499999 6.0149999 -1.821 0.2
0.81599998 6.0219998 -1.823 0.20999999
0.79900002 6.0339999 -1.826 0.19
0.77899998 6.0310001 -1.824 0.050000001
0.75999999 6.0300002 -1.823 0.17
0.74199998 6.0419998 -1.826 0.19
0.722 6.0349998 -1.823 0.1
0.70200002 6.0349998 -1.823 0.19
0.69300002 6.0339999 -1.822 0.19
0.67500001 6.0489998 -1.826 0.090000004
0.65499997 6.0380001 -1.822 0.18000001
0.63800001 6.0549998 -1.827 0.20999999
0.61799997 6.0560002 -1.826 0.1
0.59899998 6.052 -1.824 0.19
0.57999998 6.059 -1.826 0.19
0.57099998 6.0679998 -1.829 0.1
0.55199999 6.066 -1.827 0.19
0.53299999 6.0689998 -1.8279999 0.050000001
0.514 6.0669999 -1.827 0.17
0.49599999 6.0799999 -1.83 0.11
0.47600001 6.0739999 -1.8279999 0.18000001
0.46700001 6.0809999 -1.83 0.1
0.44800001 6.0840001 -1.83 0.17
0.42899999 6.0910001 -1.832 0.20999999
0.41 6.085 -1.83 0.090000004
0.391 6.099 -1.834 0.18000001
0.37200001 6.0910001 -1.831 0.22
0.35299999 6.1030002 -1.835 0.1
0.33399999 6.099 -1.8329999 0.18000001
0.324 6.1030002 -1.834 0.11
0.30500001 6.1040001 -1.834 0.18000001
0.28600001 6.099 -1.832 0.050000001
0.266 6.0929999 -1.83 0.18000001
0.248 6.1139998 -1.837 0.11
0.228 6.0999999 -1.832 0.18000001
0.20999999 6.125 -1.84 0.1
0.199 6.099 -1.831 0.19
0.18000001 6.1110001 -1.835 0.1
0.161 6.1100001 -1.834 0.18000001
0.142 6.1220002 -1.8380001 0.1
0.123 6.1069999 -1.8329999 0.18000001
0.104 6.132 -1.841 0.11
0.093999997 6.119 -1.837 0.18000001
0.075000003 6.1279998 -1.84 0.2
0.056000002 6.1360002 -1.842 0.1
0.037 6.1350002 -1.841 0.18000001
0.017000001 6.1269999 -1.839 0.12
-0.0020000001 6.1370001 -1.842 0.18000001
-0.021 6.138 -1.8430001 0.20999999
-0.030999999 6.1360002 -1.842 0.1
-0.050000001 6.1360002 -1.842 0.17
-0.068999998 6.1399999 -1.8430001 0.22
-0.089000002 6.1300001 -1.84 0.1
-0.108 6.1360002 -1.842 0.18000001
-0.127 6.1389999 -1.8430001 0.11
-0.146 6.125 -1.839 0.20999999
-0.156 6.1459999 -1.846 0.2
-0.176 6.1420002 -1.844 0.1
-0.19499999 6.1329999 -1.842 0.18000001
-0.214 6.1420002 -1.845 0.11
-0.233 6.1230001 -1.839 0.18000001
-0.252 6.131 -1.842 0.2
-0.27200001 6.1420002 -1.846 0.1
-0.28200001 6.1399999 -1.845 0.18000001
-0.301 6.1370001 -1.844 0.23
-0.31999999 6.1399999 -1.846 0.1
-0.34 6.1459999 -1.848 0.18000001
-0.359 6.1409998 -1.847 0.20999999
-0.37900001 6.1420002 -1.848 0.1
-0.39700001 6.131 -1.844 0.19
-0.40700001 6.131 -1.844 0.11
-0.42699999 6.1409998 -1.848 0.17
-0.447 6.1529999 -1.852 0.20999999
-0.465 6.132 -1.846 0.1
-0.484 6.1230001 -1.844 0.2
-0.505 6.152 -1.854 0.11
-0.52200001 6.1199999 -1.844 0.18000001
-0.53299999 6.1339998 -1.849 0.11
-0.55299997 6.1420002 -1.852 0.16
-0.57099998 6.1199999 -1.845 0.050000001
-0.58999997 6.1230001 -1.847 0.17
-0.611 6.1389999 -1.852 0.1
-0.62800002 6.1160002 -1.846 0.18000001
-0.64899999 6.1269999 -1.85 0.11
-0.65799999 6.1220002 -1.849 0.19
-0.67900002 6.131 -1.852 0.2
-0.69700003 6.1199999 -1.849 0.1
-0.71600002 6.1139998 -1.848 0.18000001
-0.736 6.1209998 -1.851 0.11
-0.75400001 6.1090002 -1.848 0.18000001
-0.77600002 6.1259999 -1.854 0.2
-0.78500003 6.1209998 -1.853 0.1
-0.80199999 6.1009998 -1.848 0.18000001
-0.824 6.1230001 -1.855 0.2
-0.84200001 6.1069999 -1.851 0.1
-0.86199999 6.1160002 -1.855 0.18000001
-0.88300002 6.1230001 -1.858 0.22
-0.89099997 6.1079998 -1.854 0.1
-0.90899998 6.1020002 -1.852 0.15000001
-0.93000001 6.1079998 -1.855 0.050000001
-0.94700003 6.092 -1.851 0.17
-0.96899998 6.1040001 -1.8559999 0.11
-0.98900002 6.1069999 -1.858 0.18000001
-1.005 6.0869999 -1.852 0.050000001
-1.023 6.0739999 -1.849 0.18000001
-1.038 6.1079998 -1.8609999 0.11
-1.053 6.0799999 -1.853 0.2
-1.074 6.0879998 -1.857 0.20999999
-1.095 6.092 -1.859 0.1
-1.11 6.0679998 -1.852 0.2
-1.135 6.0949998 -1.862 0.1
-1.15 6.0689998 -1.855 0.18000001
-1.1619999 6.0799999 -1.859 0.19
-1.181 6.0780001 -1.86 0.1
-1.199 6.0689998 -1.858 0.18000001
-1.221 6.0780001 -1.862 0.2
-1.237 6.0630002 -1.858 0.090000004
-1.257 6.0609999 -1.859 0.2
-1.266 6.0570002 -1.858 0.2
-1.2869999 6.0640001 -1.862 0.090000004
-1.306 6.0599999 -1.862 0.17
-1.325 6.0560002 -1.862 0.050000001
-1.3430001 6.046 -1.86 0.17
-1.364 6.0510001 -1.863 0.050000001
-1.381 6.0359998 -1.86 0.18000001
-1.393 6.0469999 -1.864 0.2
-1.411 6.0370002 -1.862 0.1
-1.427 6.0190001 -1.858 0.18000001
-1.448 6.0240002 -1.8609999 0.050000001
-1.467 6.0209999 -1.862 0.17
-1.487 6.02 -1.863 0.2
-1.507 6.0190001 -1.864 0.1
-1.52 6.0320001 -1.869 0.18000001
-1.535 6.0120001 -1.864 0.20999999
-1.5549999 6.0110002 -1.865 0.1
-1.574 6.006 -1.865 0.18000001
-1.5930001 6.0009999 -1.865 0.19
-1.61 5.9910002 -1.863 0.1
-1.633 6.0019999 -1.869 0.18000001
-1.637 5.9770002 -1.862 0.050000001
-1.66 5.9889998 -1.867 0.17
-1.6799999 5.9850001 -1.868 0.2
-1.693 5.9619999 -1.862 0.1
-1.714 5.9640002 -1.864 0.17
-1.7359999 5.9710002 -1.868 0.050000001
-1.749 5.9460001 -1.862 0.17
-1.763 5.9569998 -1.8660001 0.050000001
-1.783 5.9569998 -1.868 0.16
-1.7970001 5.9349999 -1.863 0.050000001
-1.8200001 5.9419999 -1.867 0.18000001
-1.844 5.9549999 -1.873 0.11
-1.855 5.9229999 -1.865 0.19
-1.873 5.9180002 -1.865 0.050000001
-1.888 5.9310002 -1.87 0.17
-1.905 5.9200001 -1.868 0.1
-1.921 5.908 -1.8660001 0.19
-1.942 5.908 -1.868 0.050000001
-1.9579999 5.8959999 -1.8660001 0.16
-1.979 5.895 -1.868 0.2
-2 5.8979998 -1.8710001 0.1
-2 5.868 -1.862 0.18000001
-2.0250001 5.8800001 -1.868 0.050000001
-2.0450001 5.8790002 -1.87 0.16
-2.0639999 5.8720002 -1.87 0.2
-2.0829999 5.869 -1.8710001 0.1
-2.105 5.8720002 -1.874 0.16
-2.119 5.8520002 -1.87 0.050000001
-2.1259999 5.842 -1.868 0.17
-2.152 5.8579998 -1.876 0.1
-2.164 5.8340001 -1.869 0.18000001
-2.184 5.8299999 -1.8710001 0.050000001
-2.204 5.829 -1.872 0.16
-2.22 5.8150001 -1.87 0.2
-2.2409999 5.8169999 -1.873 0.1
-2.2490001 5.8080001 -1.8710001 0.18000001
-2.2650001 5.7950001 -1.869 0.050000001
-2.283 5.7880001 -1.869 0.17
-2.306 5.7940001 -1.874 0.2
-2.322 5.7810001 -1.872 0.1
-2.3399999 5.7719998 -1.8710001 0.18000001
-2.3540001 5.7820001 -1.876 0.2
-2.368 5.7639999 -1.872 0.1
-2.385 5.7529998 -1.8710001 0.18000001
-2.4100001 5.763 -1.877 0.11
-2.4219999 5.7420001 -1.872 0.18000001
-2.441 5.7360001 -1.873 0.2
-2.464 5.7389998 -1.877 0.1
-2.467 5.7210002 -1.872 0.18000001
