# .PCD v0.7 - Point Cloud Data file format
VERSION 0.7
FIELDS x y z intensity
SIZE 4 4 4 4
TYPE F F F F
COUNT 1 1 1 1
WIDTH 1452
HEIGHT 1
VIEWPOINT 0 0 0 1 0 0 0
POINTS 1452
DATA ascii
22.856001 9.5790005 -1.625 0.22
22.830999 9.6529999 -1.625 0.2
22.837 9.7410002 -1.628 0.38
22.83 9.823 -1.63 0.20999999
22.825001 9.9049997 -1.632 0.25
22.764 9.9639997 -1.63 0.18000001
22.732 9.993 -1.628 0.17
22.667999 10.05 -1.626 0.23999999
22.289 9.9650002 -1.598 0.16
22.233999 10.024 -1.596 0.090000004
22.150999 10.071 -1.592 0.14
21.989 10.08 -1.581 0.16
21.780001 10.067 -1.567 0.1
21.657 10.052 -1.558 0.16
21.478001 10.05 -1.546 0.1
21.305 10.051 -1.535 0
21.129999 10.049 -1.523 0
20.931 10.035 -1.5089999 0
20.781 10.044 -1.499 0
20.622999 10.047 -1.489 0
22.305 10.913 -1.628 0.07
21.971001 10.834 -1.604 0.18000001
21.974001 10.922 -1.607 0.25999999
21.964001 11.003 -1.609 0.31999999
21.923 11.069 -1.608 0.28999999
21.896999 11.142 -1.609 0.27000001
21.849001 11.204 -1.608 0.25999999
21.766001 11.205 -1.603 0.30000001
21.719999 11.268 -1.602 0.30000001
21.690001 11.339 -1.602 0.25999999
21.667999 11.414 -1.603 0.27000001
21.669001 11.502 -1.6059999 0.28
21.656 11.582 -1.608 0.25
21.568001 11.623 -1.604 0.28
21.525999 11.643 -1.602 0.34
21.454 11.692 -1.599 0.28999999
21.440001 11.771 -1.601 0.41
21.323999 11.795 -1.594 0.30000001
21.188999 11.808 -1.586 0.22
21.066999 11.826 -1.579 0.27000001
20.973 11.86 -1.574 0
23.028999 13.074 -1.75 0.07
23.009001 13.158 -1.752 0.090000004
22.995001 13.246 -1.7539999 0.090000004
22.979 13.333 -1.756 0.090000004
22.985001 13.433 -1.76 0.14
22.966999 13.52 -1.763 0.1
22.974001 13.621 -1.767 0.090000004
22.993999 13.682 -1.77 0.14
22.99 13.778 -1.774 0.1
22.972 13.865 -1.776 0
22.993 13.977 -1.7819999 0
22.973 14.064 -1.784 0
23 14.18 -1.79 0
22.981001 14.268 -1.7920001 0
18.649 11.613 -1.4170001 0
23.003 14.432 -1.8 0
23.014999 14.541 -1.8049999 0
23.002001 14.634 -1.808 0
23.014999 14.744 -1.813 0
23.021 14.85 -1.817 0
22.99 14.933 -1.819 0
23.01 14.998 -1.823 0
23.014999 15.104 -1.827 0.13
22.992001 15.193 -1.829 0.090000004
23.002001 15.304 -1.835 0.15000001
22.983999 15.396 -1.837 0.1
22.969999 15.491 -1.84 0.16
22.951 15.584 -1.8430001 0.1
22.973 15.651 -1.847 0.090000004
23.044001 15.806 -1.858 0.14
23.073 15.932 -1.865 0.17
23.004 15.992 -1.863 0.19
22.959 16.068001 -1.864 0.43000001
22.969999 16.184 -1.869 0.2
23.025 16.330999 -1.8789999 0.1
23.073999 16.42 -1.886 0.15000001
23.087 16.539 -1.891 0.16
23.069 16.636 -1.895 0.16
23.034 16.721001 -1.896 0.1
23.028 16.827999 -1.9 0.15000001
23.011 16.926001 -1.904 0.16
22.986 17.02 -1.906 0.16
22.975 17.068001 -1.908 0.090000004
22.966 17.173 -1.9119999 0.14
22.955 17.278 -1.916 0.16
22.985001 17.414 -1.924 0.090000004
22.999001 17.538 -1.9299999 0.14
22.975 17.635 -1.933 0.090000004
23.006001 17.716 -1.938 0.14
22.983 17.813999 -1.941 0.090000004
22.968 17.917999 -1.9450001 0.090000004
22.952 18.021999 -1.949 0.14
22.952 18.138 -1.954 0.090000004
22.996 18.291 -1.964 0.14
23.004999 18.417 -1.97 0.090000004
23.02 18.548 -1.977 0.090000004
23.091999 18.666 -1.987 0.15000001
23.110001 18.801001 -1.994 0.18000001
23.09 18.905001 -1.998 0.28
23.032 18.979 -1.998 0.28
22.885 18.979 -1.99 0.27000001
22.77 19.004 -1.984 0.36000001
22.617001 18.997 -1.975 0.31
22.559999 19.01 -1.973 0.27000001
22.422001 19.014999 -1.965 0.20999999
22.257999 18.996 -1.955 0.2
22.171 19.042 -1.952 0.38999999
21.995001 19.011 -1.941 0.22
21.857 19.011999 -1.933 0.31
21.747 19.037001 -1.929 0.25
21.68 19.038 -1.925 0.34
21.636999 19.121 -1.926 0.22
21.474001 19.097 -1.916 0.27000001
21.372999 19.129 -1.9119999 0.33000001
21.346001 19.225 -1.916 0.30000001
21.150999 19.17 -1.902 0.23
21.054001 19.202999 -1.899 0.28999999
21.079 19.287001 -1.904 0.13
21.150999 19.475 -1.9170001 0.14
21.110001 19.559999 -1.919 0.090000004
21.061001 19.639 -1.921 0.14
21.004999 19.709999 -1.921 0.1
20.945 19.777 -1.921 0.15000001
20.884001 19.844999 -1.9220001 0.090000004
20.849001 19.872999 -1.921 0.16
20.787001 19.940001 -1.921 0.1
20.735001 20.014999 -1.9220001 0.14
20.66 20.069 -1.921 0.090000004
20.610001 20.146 -1.923 0.15000001
20.548 20.212 -1.923 0.090000004
20.475 20.267 -1.9220001 0.090000004
20.455 20.312 -1.923 0.14
20.407 20.391001 -1.925 0.090000004
20.343 20.455 -1.925 0.090000004
20.294001 20.535 -1.926 0.15000001
20.254 20.624001 -1.929 0.20999999
20.162001 20.659 -1.926 0.28999999
20.083 20.708 -1.924 0.34
20.018 20.705999 -1.921 0.30000001
19.934999 20.750999 -1.919 0.23
19.902 20.846001 -1.923 0.1
19.858999 20.933001 -1.925 0.079999998
19.809 21.011999 -1.927 0.090000004
19.737 21.068001 -1.926 0.090000004
19.674999 21.134001 -1.926 0.090000004
19.648001 21.172001 -1.927 0.090000004
19.579 21.231001 -1.927 0.090000004
19.518 21.298 -1.928 0.090000004
19.452 21.361 -1.928 0.090000004
19.386 21.423 -1.928 0.090000004
19.312 21.476999 -1.927 0.079999998
19.250999 21.545 -1.928 0.079999998
19.221001 21.58 -1.928 0.090000004
19.156 21.643 -1.929 0.090000004
19.101 21.718 -1.9299999 0.14
19.035 21.781 -1.9299999 0.090000004
18.976 21.851 -1.931 0.15000001
18.915001 21.92 -1.932 0.16
18.846001 21.979 -1.932 0.16
18.830999 22.031 -1.934 0.18000001
18.754999 22.083 -1.934 0.28
18.679001 22.134001 -1.933 0.15000001
18.562 22.136 -1.928 0.36000001
18.440001 22.131001 -1.921 0.27000001
18.406 22.232 -1.926 0.33000001
18.268999 22.208 -1.918 0.31999999
18.226 22.226 -1.9170001 0.28
18.091 22.204 -1.909 0.27000001
17.924999 22.141001 -1.898 0.38999999
17.879 22.226999 -1.901 0.30000001
17.74 22.195999 -1.893 0.31999999
17.641001 22.216 -1.8890001 0.31
17.629 22.344999 -1.896 0.31999999
17.587999 22.364 -1.895 0.25
17.542 22.451 -1.898 0.28999999
17.462999 22.495001 -1.897 0.23
17.351999 22.497999 -1.892 0.41
17.243999 22.503 -1.888 0.31999999
17.056999 22.403999 -1.874 0.30000001
16.929001 22.382 -1.867 0.36000001
16.775999 22.323999 -1.8559999 0.31999999
16.622 22.191 -1.842 0.28999999
16.524 22.205999 -1.8380001 0.33000001
16.400999 22.186001 -1.832 0.31
16.334999 22.242001 -1.832 0.33000001
16.223 22.235001 -1.827 0.25
16.166 22.304001 -1.829 0.38999999
16.039 22.201 -1.817 0.28999999
15.916 22.179001 -1.8099999 0.34999999
15.824 22.195999 -1.807 0.33000001
15.763 22.259001 -1.809 0.30000001
15.66 22.261 -1.804 0.31999999
15.508 22.191999 -1.794 0.31
15.463 22.277 -1.7970001 0.38
15.422 22.292999 -1.796 0.28999999
15.381 22.384001 -1.8 0.36000001
15.266 22.365999 -1.794 0.31999999
15.047 22.194 -1.775 0.31
14.973 22.235001 -1.774 0.28999999
14.869 22.23 -1.7690001 0.34999999
14.782 22.252001 -1.767 0.33000001
14.702 22.207001 -1.761 0.31
14.623 22.24 -1.76 0.28999999
14.555 22.287001 -1.76 0.36000001
14.426 22.243 -1.752 0.30000001
14.394 22.346001 -1.757 0.34999999
14.285 22.330999 -1.752 0.28999999
14.266 22.457001 -1.7589999 0.38
14.17 22.461 -1.756 0.31
14.091 22.414 -1.75 0.36000001
13.998 22.422001 -1.747 0.28999999
13.815 22.283001 -1.7309999 0.30000001
13.808 22.43 -1.74 0.31999999
13.746 22.487 -1.7410001 0.37
13.611 22.424 -1.732 0.28
13.585 22.540001 -1.738 0.41999999
13.551 22.565001 -1.738 0.31
13.388 22.452 -1.725 0.38
13.262 22.400999 -1.717 0.33000001
13.122 22.323999 -1.707 0.31
13.02 22.309999 -1.702 0.31999999
12.978 22.399 -1.706 0.28999999
12.98 22.566 -1.717 0.38
12.935 22.57 -1.716 0.34
12.891 22.658001 -1.72 0.31999999
12.778 22.622999 -1.7130001 0.44
12.631 22.528 -1.702 0.30000001
12.517 22.490999 -1.6950001 0.33000001
12.466 22.565001 -1.698 0.34
12.372 22.562 -1.6950001 0.33000001
12.33 22.569 -1.694 0.33000001
12.219 22.534 -1.688 0.36000001
12.11 22.502001 -1.682 0.31
12.014 22.492001 -1.678 0.36000001
11.984 22.607 -1.684 0.28999999
11.856 22.535999 -1.675 0.43000001
11.811 22.622 -1.679 0.27000001
11.739 22.572001 -1.673 0.37
11.637 22.546 -1.668 0.28
11.46 22.377001 -1.651 0.36000001
11.397 22.427 -1.652 0.38
11.454 22.716 -1.673 0.31
11.324 22.634001 -1.664 0.36000001
11.316 22.798 -1.674 0.40000001
11.371 23 -1.689 0.28999999
11.254 22.944 -1.682 0.34999999
11.164 22.941999 -1.679 0.27000001
11.051 22.892 -1.6720001 0.40000001
11.01 22.992001 -1.677 0.31999999
11.071 23.306999 -1.7 0.34999999
10.902 23.138 -1.683 0.22
10.727 22.952999 -1.666 0.46000001
10.788 23.177999 -1.683 0.38
11.157 24.172001 -1.76 0.27000001
11.166 24.393999 -1.776 0.22
11.22 24.716 -1.799 0.25
11.041 24.525999 -1.781 0.40000001
11.045 24.742001 -1.795 0.18000001
11.047 24.853001 -1.803 0.41999999
10.962 24.871 -1.802 0.28999999
10.059 23.014 -1.649 0.25999999
9.9720001 23.011 -1.647 0.38999999
9.9619999 23.188999 -1.658 0.31
9.8260002 23.07 -1.646 0.30000001
9.7539997 23.101999 -1.647 0.33000001
9.6190004 22.882 -1.628 0.25
9.4119997 22.586 -1.602 0.36000001
9.349 22.636 -1.603 0.34999999
9.3690004 22.889 -1.6210001 0.34
9.323 22.983 -1.626 0.31
10.248 25.5 -1.824 0.25
9.7919998 24.584999 -1.749 0.43000001
9.2299995 23.382999 -1.651 0.13
8.8079996 22.415001 -1.573 0.28999999
8.743 22.455999 -1.574 0.36000001
8.7410002 22.664 -1.589 0.44999999
8.6850004 22.73 -1.592 0.31
8.3789997 22.136 -1.543 0.31999999
8.3129997 22.172001 -1.543 0.23
8.2019997 22.084999 -1.535 0.54000002
8.2370005 22.289 -1.55 0.2
8.3140001 22.718 -1.581 0.46000001
8.0649996 22.252001 -1.543 0.31
7.9809999 22.236 -1.54 0.27000001
7.9109998 22.263 -1.54 0.41
7.7670002 22.075001 -1.523 0.38
7.73 22.194 -1.53 0.33000001
7.75 22.364 -1.543 0.31
7.6859999 22.407 -1.544 0.36000001
7.5780001 22.32 -1.536 0.40000001
7.507 22.34 -1.535 0.28999999
7.4330001 22.351999 -1.534 0.44
7.3530002 22.347 -1.5319999 0.34999999
7.2940001 22.403999 -1.535 0.38
7.3660002 22.749001 -1.561 0.51999998
7.322 22.858 -1.567 0.23999999
7.2670002 22.934 -1.571 0.33000001
7.072 22.562 -1.541 0.23
7.0009999 22.584999 -1.541 0.28
7.0349998 22.950001 -1.567 0.44
6.8189998 22.493999 -1.531 0.34999999
6.829 22.658001 -1.5420001 0.28
6.6490002 22.312 -1.5140001 0.28999999
6.5640001 22.281 -1.51 0.47999999
6.5840001 22.612 -1.534 0.28999999
6.4559999 22.433001 -1.5190001 0.38999999
6.3709998 22.403999 -1.515 0.41
6.3280001 22.521 -1.522 0.25
6.2270002 22.431999 -1.5140001 0.31
6.1729999 22.374001 -1.5089999 0.37
6.0760002 22.295 -1.501 0.41999999
6.0510001 22.482 -1.5140001 0.28999999
5.9710002 22.466 -1.512 0.25999999
6.118 23.318001 -1.575 0.44999999
5.875 22.679001 -1.525 0.30000001
5.7389998 22.440001 -1.505 0.36000001
5.6869998 22.385 -1.501 0.38999999
5.6339998 22.471001 -1.506 0.25999999
5.5609999 22.481001 -1.505 0.49000001
5.5209999 22.622 -1.515 0.25
5.4099998 22.474001 -1.502 0.43000001
5.3439999 22.513 -1.5039999 0.43000001
5.3010001 22.648001 -1.513 0.31999999
5.2470002 22.573999 -1.506 0.15000001
5.2480001 22.906 -1.53 0.38
5.1539998 22.827 -1.523 0.44
5.013 22.528999 -1.499 0.22
4.9520001 22.587999 -1.503 0.54000002
5.0289998 23.294001 -1.5549999 0.17
4.8260002 22.695 -1.508 0.33000001
4.7779999 22.646 -1.5039999 0.27000001
4.743 22.836 -1.517 0.50999999
4.6490002 22.742001 -1.5089999 0.33000001
4.52 22.465 -1.487 0.23
4.4629998 22.551001 -1.493 0.31999999
4.3740001 22.471001 -1.4859999 0.25
4.3569999 22.764999 -1.507 0.36000001
4.29 22.605 -1.494 0.38
4.1890001 22.455999 -1.482 0.31999999
4.0939999 22.337 -1.472 0.33000001
4.0019999 22.228001 -1.4630001 0.28999999
3.9779999 22.502001 -1.482 0.38
3.9100001 22.532 -1.484 0.5
3.793 22.267 -1.4630001 0.17
3.777 22.391001 -1.472 0.36000001
3.711 22.426001 -1.474 0.33000001
3.6659999 22.594 -1.485 0.38
3.575 22.483 -1.476 0.30000001
3.4909999 22.405001 -1.47 0.41999999
3.4089999 22.343 -1.464 0.33000001
3.3529999 22.444 -1.471 0.36000001
3.3299999 22.535999 -1.477 0.31999999
3.2309999 22.351 -1.4630001 0.36000001
3.138 22.198999 -1.451 0.34999999
3.0929999 22.389 -1.464 0.38
3.0280001 22.438 -1.467 0.41999999
2.984 22.650999 -1.482 0.25
2.878 22.384001 -1.462 0.44
2.8440001 22.688999 -1.484 0.25
2.7720001 22.395 -1.461 0.44
2.701 22.398001 -1.461 0.41
2.612 22.243 -1.449 0.38999999
2.5409999 22.247999 -1.449 0.33000001
2.494 22.462 -1.464 0.30000001
2.392 22.174 -1.442 0.30000001
2.309 22.049999 -1.432 0.38999999
2.266 21.971001 -1.426 0.34
2.2030001 22.041 -1.431 0.44
2.141 22.125 -1.437 0.34999999
2.063 22.045 -1.4299999 0.27000001
1.976 21.85 -1.415 0.49000001
1.9170001 21.962 -1.423 0.34
1.8559999 22.065001 -1.4299999 0.47
1.853 22.455999 -1.459 0.27000001
1.784 22.489 -1.461 0.41
1.717 22.538 -1.464 0.38999999
1.665 22.808001 -1.484 0.47999999
1.566 22.417 -1.455 0.28
1.4910001 22.343 -1.449 0.30000001
1.421 22.351 -1.449 0.57999998
1.391 22.437 -1.455 0.25999999
1.316 22.362 -1.449 0.30000001
1.245 22.368 -1.449 0.44999999
1.165 22.184 -1.436 0.23
1.098 22.226 -1.438 0.23
1.013 21.9 -1.414 0.43000001
0.94999999 22.042999 -1.424 0.36000001
0.93099999 22.421 -1.452 0.38999999
0.85500002 22.298 -1.443 0.30000001
0.78799999 22.370001 -1.448 0.51999998
0.72399998 22.584 -1.464 0.28999999
0.65399998 22.606001 -1.465 0.31
0.583 22.625999 -1.466 0.34
0.51999998 22.981001 -1.492 0.57999998
0.50099999 23.868999 -1.558 0.2
0.419 23.459999 -1.528 0.14
0.33899999 22.962 -1.4910001 0.40000001
0.26300001 22.6 -1.464 0.23
0.191 22.462999 -1.454 0.40000001
0.12 22.448 -1.4529999 0.44999999
0.050000001 22.554001 -1.461 0.28999999
0.014 22.486 -1.456 0.5
-0.056000002 22.351999 -1.446 0.25999999
-0.125 22.167 -1.432 0.31
-0.19499999 22.205999 -1.4349999 0.47
-0.26199999 21.98 -1.418 0.23999999
-0.33000001 21.934999 -1.415 0.43000001
-0.40099999 22.032 -1.4220001 0.38999999
-0.47499999 22.268 -1.4400001 0.37
-0.50999999 22.261 -1.439 0.25
-0.57300001 22.004 -1.421 0.41999999
-0.64499998 22.091999 -1.427 0.46000001
-0.70999998 21.954 -1.4170001 0.31999999
-0.792 22.313999 -1.444 0.43000001
-0.86199999 22.308001 -1.444 0.28999999
-0.93000001 22.245001 -1.439 0.41
-0.97299999 22.431 -1.4529999 0.31
-1.041 22.379999 -1.45 0.44999999
-1.113 22.417999 -1.4529999 0.38999999
-1.1849999 22.433001 -1.454 0.38999999
-1.256 22.438999 -1.455 0.33000001
-1.3279999 22.459 -1.456 0.41999999
-1.398 22.451 -1.456 0.47999999
-1.45 22.702999 -1.475 0.19
-1.499 22.370001 -1.451 0.38999999
-1.5650001 22.308001 -1.446 0.41999999
-1.658 22.613001 -1.469 0.34999999
-1.786 23.339001 -1.523 0.14
-1.807 22.691 -1.476 0.25
-1.86 22.462999 -1.46 0.51999998
-1.915 22.687 -1.476 0.25
-1.927 22.017 -1.427 0.38999999
-1.998 22.031 -1.429 0.41
-2.059 21.941 -1.4220001 0.40000001
-2.151 22.167999 -1.4400001 0.41
-2.2320001 22.267 -1.448 0.23999999
-2.2820001 22.070999 -1.434 0.52999997
-2.2850001 21.77 -1.4119999 0.30000001
-2.359 21.816 -1.416 0.31
-2.431 21.841999 -1.418 0.41
-2.5150001 21.959999 -1.427 0.37
-2.592 22.023001 -1.433 0.27000001
-2.7019999 22.351 -1.4579999 0.41
-2.777 22.382 -1.461 0.27000001
-2.852 22.407 -1.4630001 0.52999997
-2.8180001 21.870001 -1.424 0.23
-2.8759999 21.780001 -1.4170001 0.37
-2.948 21.801001 -1.42 0.49000001
-3.108 22.443001 -1.4680001 0.38999999
-3.1670001 22.355 -1.462 0.31
-3.223 22.246 -1.455 0.2
-3.2449999 21.914 -1.431 0.56999999
-3.299 22.037001 -1.441 0.31
-3.365 22.009001 -1.439 0.25999999
-3.4619999 22.177 -1.4529999 0.31999999
-3.5450001 22.245001 -1.459 0.5
-3.6300001 22.329 -1.466 0.30000001
-3.609 21.77 -1.425 0.37
-3.698 21.882999 -1.434 0.31
-3.7449999 21.948999 -1.439 0.38
-3.832 22.038 -1.447 0.34
-3.911 22.083 -1.451 0.44
-3.9449999 21.878 -1.437 0.37
-4.027 21.936001 -1.442 0.36000001
-4.0939999 21.910999 -1.441 0.34
-4.1469998 21.818001 -1.4349999 0.33000001
-4.1810002 21.809999 -1.4349999 0.47
-4.2600002 21.851 -1.439 0.31
-4.388 22.131001 -1.461 0.41
-4.4780002 22.223 -1.469 0.38999999
-4.5929999 22.423 -1.485 0.25999999
-4.6040001 22.128 -1.464 0.28
-4.6960001 22.219 -1.472 0.47999999
-4.7449999 22.277 -1.477 0.27000001
-4.8969998 22.639 -1.505 0.57999998
-4.9320002 22.461 -1.493 0.25
-4.9499998 22.208 -1.475 0.25
-5.3899999 23.823 -1.598 0.15000001
-5.1230001 22.323 -1.4859999 0.37
-5.2800002 22.677 -1.5140001 0.28999999
-5.3280001 22.721001 -1.518 0.46000001
-5.381 22.631001 -1.513 0.2
-5.546 23.002001 -1.5420001 0.16
-5.4770002 22.409 -1.499 0.31999999
-5.5310001 22.323999 -1.493 0.56999999
-5.6659999 22.565001 -1.513 0.25999999
-5.7620001 22.643999 -1.52 0.31
-5.8309999 22.766001 -1.53 0.41
-5.9099998 22.777 -1.533 0.25
-6.2470002 23.764999 -1.609 0.31
-6.381 23.965 -1.626 0.31999999
-6.5079999 24.136999 -1.641 0.20999999
-6.211 22.757 -1.5369999 0.38
-6.2709999 22.695 -1.534 0.31999999
-6.3509998 22.705999 -1.536 0.19
-6.3860002 22.694 -1.536 0.46000001
-6.5749998 23.086 -1.567 0.31999999
-6.6700001 23.143999 -1.573 0.25999999
-6.7119999 23.014999 -1.5650001 0.23
-6.9239998 23.468 -1.602 0.41
-6.9780002 23.379999 -1.597 0.28
-6.8470001 22.684 -1.545 0.33000001
-6.8699999 22.631001 -1.541 0.34
-6.9320002 22.579 -1.539 0.31999999
-7.2600002 23.382999 -1.603 0.34999999
-7.348 23.406 -1.6059999 0.46000001
-7.3979998 23.309 -1.601 0.28999999
-7.3429999 22.886999 -1.5700001 0.28999999
-7.4070001 22.839001 -1.568 0.34999999
-7.4499998 22.85 -1.5700001 0.27000001
-7.527 22.841999 -1.571 0.52999997
-7.691 23.094 -1.592 0.27000001
-7.763 23.07 -1.592 0.27000001
-7.836 23.047001 -1.592 0.38999999
-7.868 22.903999 -1.5829999 0.31999999
-7.9759998 22.982 -1.591 0.28999999
-7.987 22.9 -1.586 0.38999999
-7.9860001 22.667999 -1.5700001 0.33000001
-8.0120001 22.517 -1.5599999 0.38
-8.0819998 22.488001 -1.5599999 0.40000001
-8.1590004 22.481001 -1.561 0.33000001
-8.2259998 22.444 -1.5599999 0.38
-8.3039999 22.438999 -1.562 0.34999999
-8.382 22.542 -1.571 0.33000001
-8.4729996 22.569 -1.575 0.28999999
-8.4829998 22.381001 -1.562 0.46000001
-8.5600004 22.372 -1.564 0.31
-8.6219997 22.325001 -1.562 0.34999999
-8.6289997 22.136 -1.549 0.34
-8.7550001 22.252001 -1.561 0.31999999
-8.7989998 22.159 -1.556 0.34999999
-8.8439999 22.17 -1.557 0.37
-8.8579998 22.004999 -1.5470001 0.30000001
-9.0679998 22.322001 -1.574 0.36000001
-9.0690002 22.125999 -1.561 0.25
-9.0500002 21.882999 -1.544 0.44999999
-9.2370005 22.138 -1.566 0.30000001
-9.2989998 22.091 -1.5650001 0.36000001
-9.283 21.959 -1.5549999 0.31
-9.3760004 21.983999 -1.5599999 0.34
-9.4429998 21.948999 -1.559 0.34
-9.4969997 21.886999 -1.557 0.34
-9.6459999 22.039 -1.571 0.38
-9.6990004 21.972 -1.568 0.31
-9.7480001 21.896 -1.5650001 0.37
-9.7889996 21.896999 -1.566 0.33000001
-9.8479996 21.843 -1.564 0.38
-9.9180002 21.815001 -1.5650001 0.33000001
-10.003 21.82 -1.567 0.36000001
-10.104 21.858999 -1.573 0.38999999
-10.151 21.781 -1.569 0.34999999
-10.211 21.732 -1.568 0.30000001
-10.238 21.700001 -1.567 0.41
-10.355 21.77 -1.575 0.33000001
-10.469 21.833 -1.5829999 0.38999999
-10.56 21.847 -1.587 0.33000001
-10.605 21.764999 -1.5829999 0.37
-10.726 21.839001 -1.592 0.34999999
-10.792 21.799999 -1.591 0.30000001
-10.766 21.577 -1.576 0.37
-10.81 21.579 -1.577 0.38999999
-10.93 21.649 -1.586 0.25
-11.149 21.910999 -1.61 0.30000001
-11.195 21.830999 -1.607 0.46000001
-11.262 21.792999 -1.6059999 0.28
-11.268 21.639 -1.596 0.28
-11.297 21.610001 -1.596 0.44999999
-11.422 21.681999 -1.605 0.34
-11.752 22.139 -1.646 0.33000001
-11.717 21.907 -1.6289999 0.31999999
-12.04 22.341 -1.669 0.28999999
-12.054 22.198999 -1.66 0.38999999
-12.172 22.25 -1.668 0.28999999
-12.223 22.261 -1.67 0.37
-12.443 22.493 -1.693 0.31999999
-12.54 22.500999 -1.697 0.33000001
-12.52 22.299 -1.683 0.31999999
-12.661 22.385 -1.694 0.33000001
-12.787 22.444 -1.702 0.23999999
-12.9 22.478001 -1.7079999 0.43000001
-13.15 22.746 -1.735 0.16
-12.832 22.117001 -1.683 0.14
-12.942 22.146999 -1.689 0.57999998
-13.038 22.150999 -1.693 0.22
-13.832 23.329 -1.7970001 0.30000001
-13.891 23.261 -1.795 0.20999999
-13.803 22.948999 -1.772 0.31999999
-13.903 22.952 -1.776 0.41
-13.931 22.917999 -1.775 0.31999999
-13.903 22.711 -1.761 0.34999999
-13.908 22.559999 -1.752 0.30000001
-14.231 22.921 -1.7869999 0.23
-14.46 23.127001 -1.809 0.30000001
-13.814 21.791 -1.7 0.57999998
-16.049999 25.222 -2.0020001 0.14
-15.545 24.261999 -1.9220001 0.36000001
-13.938 21.610001 -1.694 0.18000001
-14.011 21.573 -1.694 0.38999999
-14.12 21.591999 -1.7 0.25999999
-14.228 21.608999 -1.705 0.38
-14.975 22.586 -1.796 0.28999999
-15.311 23.014 -1.836 0.17
-15.207 22.702999 -1.812 0.38
-15.294 22.677999 -1.814 0.28999999
-15.276 22.499001 -1.803 0.34
-15.266 22.333 -1.7920001 0.31999999
-15.367 22.330999 -1.796 0.27000001
-15.39 22.212999 -1.79 0.38999999
-15.482 22.271 -1.7970001 0.30000001
-15.538 22.202999 -1.796 0.37
-15.697 22.281 -1.807 0.31999999
-15.713 22.155001 -1.8 0.31999999
-15.503 21.715 -1.765 0.25
-15.961 22.208 -1.814 0.36000001
-16.094 22.245001 -1.822 0.31999999
-16.204 22.249001 -1.827 0.40000001
-16.118999 22.059999 -1.812 0.23
-16.302999 22.165001 -1.826 0.31
-16.198999 21.879 -1.8049999 0.25999999
-16.385 21.987 -1.819 0.33000001
-16.422001 21.892 -1.8150001 0.31
-16.421 21.747999 -1.807 0.36000001
-16.423 21.608999 -1.799 0.28
-16.771999 21.995001 -1.837 0.23
-16.924 22.052 -1.847 0.28999999
-16.836 21.795 -1.8279999 0.38999999
-16.993 21.855 -1.839 0.34999999
-17.059 21.798 -1.8380001 0.37
-17.368 22.049999 -1.867 0.27000001
-17.495001 22.066999 -1.874 0.34999999
-17.622 22.157 -1.885 0.31
-17.650999 22.049999 -1.88 0.28
-17.856001 22.164 -1.896 0.31
-17.959999 22.149 -1.9 0.30000001
-18.040001 22.105 -1.901 0.33000001
-18.08 22.013 -1.898 0.34999999
-18.128 21.931 -1.895 0.31999999
-18.004 21.711 -1.877 0.30000001
-18.110001 21.700001 -1.881 0.38
-18.312 21.802 -1.897 0.31
-18.396 21.763 -1.899 0.41
-18.521 21.771 -1.905 0.30000001
-18.577 21.700001 -1.904 0.36000001
-18.698 21.701 -1.91 0.25999999
-18.745001 21.687 -1.911 0.37
-18.829 21.646 -1.913 0.34999999
-18.874001 21.561001 -1.91 0.30000001
-18.924999 21.483 -1.908 0.37
-19.061001 21.500999 -1.916 0.31
-19.096001 21.405001 -1.913 0.20999999
-19.118 21.294001 -1.908 0.38
-19.124001 21.233 -1.904 0.27000001
-19.209 21.194 -1.906 0.41
-19.343 21.207001 -1.914 0.28999999
-19.83 21.604 -1.96 0.23999999
-19.902 21.546 -1.96 0.36000001
-19.975 21.489 -1.961 0.28
-20.171 21.563 -1.975 0.31999999
-20.25 21.511 -1.976 0.31
-20.312 21.51 -1.979 0.38
-20.459 21.530001 -1.987 0.31
-20.622999 21.566 -1.998 0.28
-20.757999 21.57 -2.0050001 0.27000001
-20.764 21.441999 -1.998 0.28999999
-20.964001 21.511999 -2.0120001 0.31
-21.08 21.496 -2.017 0.27000001
-21.098 21.447001 -2.016 0.31999999
-21.219999 21.436001 -2.0209999 0.30000001
-21.437 21.518999 -2.0369999 0.28999999
-21.41 21.357 -2.027 0.31
-21.483 21.296 -2.0280001 0.28999999
-21.783001 21.457001 -2.052 0.28999999
-21.973 21.509001 -2.0650001 0.23999999
-21.948 21.417 -2.0580001 0.18000001
-22.190001 21.517 -2.076 0.47
-22.231001 21.423 -2.0739999 0.25
-22.319 21.372 -2.076 0.28999999
-22.507 21.417 -2.0880001 0.27000001
-22.688 21.452999 -2.0999999 0.27000001
-22.825001 21.447001 -2.1070001 0.28999999
-22.863001 21.415001 -2.1070001 0.34
-22.988001 21.398001 -2.1129999 0.28999999
-23.139 21.403 -2.1210001 0.27000001
-23.282 21.4 -2.1289999 0.28
-23.413 21.384001 -2.135 0.28999999
-23.598 21.417999 -2.1470001 0.27000001
-23.774 21.441 -2.158 0.23999999
-23.827 21.421 -2.1600001 0.36000001
-24.59 21.966999 -2.2290001 0.19
-24.705999 21.931 -2.233 0.34
-24.806999 21.882 -2.2360001 0.23
-24.837 21.77 -2.233 0.28999999
-24.868999 21.660999 -2.2290001 0.27000001
-24.855 21.511999 -2.221 0.23999999
-24.847 21.436001 -2.217 0.16
-24.978001 21.413 -2.223 0.5
-25.066 21.351999 -2.2249999 0.25
-25.264 21.384001 -2.2379999 0.27000001
-25.351 21.320999 -2.24 0.27000001
-25.438999 21.259001 -2.2420001 0.30000001
-25.594999 21.253 -2.25 0.28999999
-25.639 21.222 -2.2509999 0.28
-25.775 21.198 -2.2579999 0.27000001
-25.868 21.139 -2.26 0.27000001
-26.030001 21.135 -2.27 0.23
-26.163 21.107 -2.276 0.37
-26.330999 21.106001 -2.2850001 0.19
-26.525999 21.125999 -2.2980001 0.41
-26.712999 21.138 -2.309 0.23999999
-26.891001 21.209 -2.323 0.25999999
-26.99 21.150999 -2.326 0.30000001
-27.146 21.135 -2.3340001 0.25999999
-27.34 21.149 -2.346 0.2
-27.396999 21.055 -2.345 0.40000001
-27.511999 21.007 -2.3499999 0.23999999
-27.659 20.982 -2.3570001 0.28
-27.690001 20.937 -2.3570001 0.36000001
-27.855 20.924 -2.3659999 0.22
-28.018 20.909 -2.375 0.25999999
-28.236 20.934 -2.3889999 0
-28.289 20.836 -2.388 0
-28.362 20.752001 -2.3889999 0
-28.427 20.663 -2.3889999 0
-28.468 20.624001 -2.3889999 0
-28.549999 20.548 -2.391 0
-28.622999 20.464001 -2.392 0
-28.702 20.384001 -2.3929999 0
-28.780001 20.304001 -2.3940001 0
-28.867001 20.23 -2.3959999 0
-25.049999 17.267 -2.0409999 0.19
-25.014999 17.128 -2.033 0.14
-25.034 17.025999 -2.03 0.33000001
-25.023001 16.903 -2.0239999 0.12
-25.024 16.676001 -2.0150001 0.95999998
-25.004999 16.607 -2.0109999 0.98000002
-25.011 16.497999 -2.007 0.94999999
-24.870001 16.294001 -1.99 0.81999999
-25.228001 16.414 -2.017 0
-25.004 16.158001 -1.992 0.14
-25.009001 16.049999 -1.989 0.15000001
-24.965 15.911 -1.98 0.22
-24.844999 15.78 -1.9680001 0.19
-24.974001 15.752 -1.975 0.079999998
-24.992001 15.653 -1.972 0.16
-26.438999 16.443001 -2.0929999 0.31
-26.436001 16.326 -2.0880001 0.2
-26.441 16.215 -2.0840001 0.17
-26.43 16.094 -2.079 0.18000001
-26.427999 16.035999 -2.0769999 0.31
-25.924999 15.62 -2.029 0.19
-25.902 15.496 -2.023 0.2
-25.950001 15.414 -2.023 0.30000001
-26.205 15.454 -2.0409999 0.19
-26.393 15.453 -2.052 0.20999999
-26.509001 15.409 -2.0580001 0
-26.865999 15.448 -2.082 0.12
-27.045 15.437 -2.0929999 0.34999999
-27.208 15.417 -2.1029999 0
-31.479 17.702 -2.46 0
-31.686001 17.688 -2.473 0.039999999
-31.895 17.673 -2.4860001 0
-32.02 17.677 -2.494 0
-32.268002 17.681999 -2.51 0
-32.445999 17.646999 -2.5209999 0
-32.698002 17.650999 -2.5369999 0
-32.883999 17.618 -2.5480001 0
-33.115002 17.608 -2.563 0.07
-33.34 17.593 -2.5769999 0.18000001
-33.526001 17.624001 -2.5899999 0.13
-33.645 17.552 -2.595 0.16
-33.764 17.479 -2.6010001 0
-33.799 17.363001 -2.599 0
-33.501999 17.077 -2.5699999 0
-33.464001 16.926001 -2.562 0
-33.394001 16.759001 -2.552 0
-33.338001 16.666 -2.5450001 0
-33.355 16.542999 -2.5420001 0
-33.339001 16.405001 -2.5369999 0
-33.285999 16.249001 -2.5280001 0
-33.266998 16.111 -2.523 0
-33.227001 15.963 -2.5150001 0
-33.217999 15.83 -2.51 0
-33.185001 15.751 -2.506 0
-22.523001 10.527 -1.631 0.2
-22.409 10.388 -1.619 0
-22.598 10.389 -1.631 0
-32.978001 15.023 -2.4690001 0.050000001
-32.868999 14.849 -2.457 0.090000004
-32.955002 14.763 -2.46 0
-32.973 14.709 -2.4590001 0
-32.912998 14.559 -2.451 0
-32.841999 14.404 -2.441 0
-24.801001 10.792 -1.7920001 0
-32.747002 14.118 -2.427 0
-32.708 13.98 -2.4200001 0
-32.681999 13.847 -2.414 0
-25.156 10.618 -1.811 0
-32.591 13.628 -2.402 0
-32.535999 13.485 -2.3940001 0
-32.486 13.345 -2.3870001 0
-32.431 13.204 -2.3789999 0
-32.358002 13.056 -2.3699999 0
-32.307999 12.918 -2.3629999 0
-32.254002 12.838 -2.3570001 0
-32.222 12.708 -2.3510001 0
-32.175999 12.573 -2.3440001 0
-32.133999 12.44 -2.3380001 0
-32.102001 12.312 -2.332 0
-32.082001 12.189 -2.3280001 0
-32.056999 12.065 -2.323 0
-32.07 12.012 -2.322 0
-29.124001 10.807 -2.0880001 0
-29.240999 10.746 -2.0940001 0.12
-29.431999 10.711 -2.1070001 0.20999999
-29.548 10.648 -2.1129999 0.11
-29.6 10.562 -2.115 0.14
-29.660999 10.531 -2.118 0.28
-29.621 10.412 -2.112 0.19
-29.569 10.29 -2.1059999 0.15000001
-29.714001 10.236 -2.115 0.31999999
-29.809999 10.164 -2.1199999 0.19
-29.905001 10.092 -2.125 0.23
-30.028999 10.028 -2.132 0.23999999
-30.242001 9.9940004 -2.1459999 0
-30.409 9.9960003 -2.158 0
-29.091 9.3620005 -2.0510001 0
-29.368999 9.3500004 -2.0699999 0
-29.684 9.3470001 -2.092 0
-29.987 9.3389997 -2.1129999 0
-30.299 9.3310003 -2.135 0
-30.573 9.3629999 -2.155 0
-30.768 9.3170004 -2.168 0
-31.107 9.3129997 -2.1919999 0
-31.191 9.2309999 -2.1960001 0
-31.538 9.2259998 -2.22 0
-31.759001 9.1820002 -2.2349999 0
-31.749001 9.0710001 -2.2320001 0
-31.752001 9.0179996 -2.2309999 0
-31.813999 8.9280005 -2.234 0
-31.837999 8.8269997 -2.233 0
-31.964001 8.7539997 -2.2409999 0
-29.014 7.8499999 -2.0139999 0
-29.306999 7.8299999 -2.0339999 0
-29.691999 7.8330002 -2.062 0
-30.040001 7.8740001 -2.0869999 0
-30.379 7.8610001 -2.1110001 0
-30.608999 7.8179998 -2.1270001 0
-31.004999 7.8150001 -2.155 0
-31.122 7.7399998 -2.1619999 0
-31.358999 7.6950002 -2.178 0.039999999
-29.652 7.1789999 -2.0469999 0.16
-29.607 7.118 -2.043 0.090000004
-29.732 7.0500002 -2.05 0.16
-29.771 6.96 -2.052 0.28999999
-29.868999 6.8839998 -2.0569999 0.25
-30.025999 6.8210001 -2.0680001 0.19
-30.278999 6.7779999 -2.085 0.23
-30.458 6.7179999 -2.0969999 0
-30.742001 6.73 -2.118 0
-29.253 6.2129998 -2.0020001 0
-29.684999 6.2069998 -2.033 0
-30.099001 6.1939998 -2.063 0
-30.500999 6.177 -2.092 0
-30.702999 6.1170001 -2.1059999 0
-31.063999 6.0869999 -2.131 0
-31.362 6.0939999 -2.1530001 0
-31.575001 6.033 -2.168 0
-31.576 5.9299998 -2.1659999 0
-31.636999 5.8390002 -2.1689999 0
-31.556 5.7210002 -2.1619999 0
-31.624001 5.631 -2.1659999 0
-31.642 5.5320001 -2.1659999 0
-31.525 5.461 -2.1559999 0
-31.563 5.3649998 -2.158 0
-31.702 5.2859998 -2.1670001 0
-28.771 4.7069998 -1.947 0
-29.226999 4.6869998 -1.98 0
-29.804001 4.6830001 -2.0220001 0
-30.319 4.6659999 -2.059 0
-23.447001 3.5009999 -1.546 0
-31.01 4.5229998 -2.108 0
-31.216 4.4520001 -2.122 0
-21.073999 2.947 -1.367 0
-23.548 3.214 -1.55 0.1
-24.790001 3.303 -1.642 0.090000004
-30.159 3.9649999 -2.04 0.079999998
-25.478001 3.2720001 -1.692 0.16
-25.936001 3.2479999 -1.725 0.20999999
-24.893999 3.039 -1.647 0.2
-24.934999 2.964 -1.649 0.12
-23.405001 2.7090001 -1.535 0
-25.757999 2.8970001 -1.709 0.12
-25.370001 2.8139999 -1.6799999 0.13
-25.292 2.6440001 -1.673 0.57999998
-25.475 2.582 -1.686 0.16
-23.924 2.2750001 -1.5700001 0.57999998
-24.292 2.233 -1.596 0.18000001
-25.722 2.322 -1.702 0.20999999
-24.679001 2.073 -1.624 0.19
-24.888 2.0109999 -1.6390001 0.17
-25.302 1.964 -1.669 0.30000001
-26.311001 1.9579999 -1.743 0.27000001
-26.766001 1.9069999 -1.776 0.14
-27.087 1.844 -1.799 0.41
-27.374001 1.8200001 -1.8200001 0.2
-28.573999 1.809 -1.909 0.31
-29.240999 1.758 -1.957 0.2
-29.316 1.67 -1.962 0.1
-30.056 1.617 -2.017 0.12
-30.934999 1.566 -2.0810001 0.13
-31.319 1.487 -2.109 0
-31.371 1.4400001 -2.1129999 0
-31.365 1.341 -2.112 0
-31.306999 1.24 -2.108 0
-31.329 1.142 -2.109 0
-31.370001 1.045 -2.112 0
-31.410999 0.94700003 -2.115 0
-31.455999 0.85000002 -2.118 0
-31.490999 0.801 -2.1199999 0
-31.502001 0.70300001 -2.1210001 0
-31.534 0.60399997 -2.1229999 0
-31.531 0.505 -2.1229999 0
-31.541 0.40599999 -2.1229999 0
-31.548 0.30700001 -2.1240001 0
-31.541 0.208 -2.1229999 0
-31.531 0.15800001 -2.122 0
-31.521 0.059 -2.122 0
-31.525 -0.039999999 -2.122 0
-31.517 -0.139 -2.1210001 0
-31.509001 -0.23800001 -2.1210001 0
-32.580002 -0.40000001 -2.2 0
-32.592999 -0.50300002 -2.201 0
-32.597 -0.60500002 -2.201 0
-32.611 -0.708 -2.2019999 0
-32.613998 -0.81099999 -2.2030001 0
-32.646999 -0.86299998 -2.2049999 0
-32.666 -0.96600002 -2.207 0
-32.665001 -1.069 -2.207 0
-32.648998 -1.171 -2.2060001 0
-32.650002 -1.274 -2.207 0
-32.646999 -1.376 -2.207 0
-32.629002 -1.478 -2.2060001 0
-32.564999 -1.527 -2.201 0
-32.495998 -1.626 -2.1960001 0
-32.412998 -1.724 -2.191 0
-32.386002 -1.824 -2.1889999 0
-32.397999 -1.927 -2.1900001 0
-32.355999 -2.026 -2.188 0.059999999
-32.418999 -2.184 -2.1930001 0.34
-32.439999 -2.2880001 -2.1949999 0
-32.361 -2.3840001 -2.1900001 0
-32.401001 -2.49 -2.1930001 0
-32.396999 -2.592 -2.194 0
-32.437 -2.698 -2.197 0
-32.442001 -2.8010001 -2.198 0
-32.469002 -2.8540001 -2.201 0
-32.507999 -2.961 -2.204 0
-32.515999 -3.0650001 -2.2060001 0
-32.528 -3.1689999 -2.207 0
-32.548 -3.2739999 -2.2090001 0
-32.523998 -3.375 -2.2079999 0
-32.542999 -3.48 -2.211 0
-32.541 -3.5840001 -2.211 0
-32.537998 -3.635 -2.211 0
-32.546001 -3.7390001 -2.2130001 0
-32.52 -3.8399999 -2.2119999 0
-32.5 -3.941 -2.211 0
-32.487999 -4.0430002 -2.211 0
-32.493 -4.1479998 -2.2130001 0
-32.477001 -4.2490001 -2.2119999 0
-32.493999 -4.303 -2.214 0
-32.494999 -4.4070001 -2.2149999 0
-32.465 -4.507 -2.214 0
-32.466 -4.612 -2.2149999 0
-32.419998 -4.7090001 -2.2130001 0
-32.415001 -4.8119998 -2.214 0
-32.423 -4.9180002 -2.2149999 0
-32.415001 -4.9689999 -2.2149999 0
-32.408001 -5.072 -2.2160001 0
-32.386002 -5.1719999 -2.2160001 0
-32.389 -5.277 -2.217 0
-32.369999 -5.3790002 -2.217 0
-32.339001 -5.4780002 -2.2160001 0
-32.361 -5.586 -2.2190001 0
-32.382 -5.6420002 -2.221 0
-32.311001 -5.7350001 -2.217 0
-32.375 -5.8509998 -2.223 0
-32.383999 -5.9580002 -2.2249999 0
-32.370998 -6.0609999 -2.2260001 0
-32.379002 -6.1680002 -2.2279999 0
-32.348 -6.2670002 -2.227 0
-32.335999 -6.3169999 -2.227 0.07
-32.494999 -6.5609999 -2.2420001 0
-32.318001 -6.631 -2.23 0.07
-32.303001 -6.7340002 -2.23 0.14
-32.259998 -6.8299999 -2.2290001 0
-32.354 -6.9569998 -2.237 0
-32.377998 -7.0149999 -2.24 0
-32.390999 -7.1240001 -2.243 0
-32.415001 -7.237 -2.2460001 0
-32.435001 -7.348 -2.2490001 0
-32.462002 -7.4619999 -2.253 0
-32.477001 -7.573 -2.256 0
-32.504002 -7.6869998 -2.26 0
-32.537998 -7.7490001 -2.2639999 0
-32.550999 -7.8600001 -2.266 0
-32.561001 -7.9710002 -2.2690001 0
-32.566002 -8.0810003 -2.2709999 0
-32.547001 -8.184 -2.2720001 0
-32.549999 -8.2939997 -2.2739999 0
-32.562 -8.4060001 -2.277 0
-32.542999 -8.4560003 -2.277 0
-32.574001 -8.573 -2.2809999 0
-32.591999 -8.6870003 -2.2839999 0
-32.584999 -8.7959995 -2.286 0
-32.577 -8.9029999 -2.2869999 0
-32.587002 -9.0159998 -2.29 0
-32.583 -9.125 -2.2920001 0
-32.610001 -9.2440004 -2.2969999 0
-32.639999 -9.3070002 -2.3 0
-32.639 -9.4180002 -2.302 0
-32.657001 -9.5349998 -2.306 0
-32.66 -9.6470003 -2.3080001 0
-32.676998 -9.7639999 -2.312 0
-32.668999 -9.8730001 -2.3139999 0
-32.675999 -9.9320002 -2.3150001 0
-32.661999 -10.04 -2.3169999 0
-32.672001 -10.155 -2.3199999 0
-32.674999 -10.269 -2.323 0
-32.665001 -10.378 -2.3239999 0
-32.708 -10.505 -2.3299999 0
-32.612 -10.588 -2.325 0
-32.779999 -10.756 -2.3410001 0.039999999
-32.700001 -10.787 -2.336 0.14
-32.696999 -10.9 -2.339 0.1
-32.783001 -11.043 -2.348 0.079999998
-32.824001 -11.172 -2.3540001 0.14
-32.946999 -11.33 -2.3659999 0.17
-33.008999 -11.467 -2.3740001 0.20999999
-33.046001 -11.597 -2.3800001 0.36000001
-33.083 -11.668 -2.3840001 0.23
-33.089001 -11.787 -2.3870001 0.40000001
-33.064999 -11.896 -2.388 0.2
-32.945 -11.97 -2.382 0.090000004
-32.889999 -12.067 -2.3800001 0.090000004
-32.883999 -12.182 -2.3829999 0.079999998
-32.862 -12.291 -2.3840001 0.079999998
-32.873001 -12.354 -2.3870001 0.079999998
-32.854 -12.465 -2.388 0
-32.854 -12.583 -2.391 0
-32.859001 -12.704 -2.395 0
-32.845001 -12.817 -2.3970001 0
-32.844002 -12.936 -2.4000001 0
-32.84 -13.054 -2.4030001 0
-32.868999 -13.125 -2.4070001 0
-32.893002 -13.255 -2.4119999 0
-32.943001 -13.395 -2.4189999 0
-32.966999 -13.526 -2.425 0
-33 -13.661 -2.431 0
-33.021999 -13.792 -2.4360001 0
-33.028 -13.916 -2.4400001 0
-33.061001 -13.991 -2.444 0
-33.026001 -14.099 -2.4449999 0
-33.005001 -14.213 -2.447 0
-33.004002 -14.336 -2.45 0
-32.967999 -14.443 -2.451 0
-33.015999 -14.588 -2.4590001 0
-32.826 -14.628 -2.447 0
-32.948002 -14.744 -2.4590001 0.07
-32.938 -14.864 -2.4619999 0.14
-32.632 -14.849 -2.441 0.19
-32.424 -14.878 -2.428 0.31
-32.285 -14.937 -2.4200001 0.17
-31.934 -14.896 -2.395 0.28
-31.761 -14.937 -2.385 0.18000001
-31.452 -14.852 -2.362 0.16
-31.115999 -14.812 -2.3380001 0.16
-30.783001 -14.773 -2.3150001 0.1
-30.452999 -14.732 -2.2920001 0.16
-30.188 -14.721 -2.2739999 0.28
-30.016001 -14.754 -2.263 0.12
-29.745001 -14.736 -2.2449999 0.40000001
-29.357 -14.601 -2.2149999 0.23
-29.114 -14.594 -2.1989999 0.27000001
-28.844999 -14.573 -2.1800001 0.27000001
-28.542999 -14.533 -2.1589999 0.25999999
-28.361 -14.552 -2.148 0.30000001
-28.15 -14.556 -2.1340001 0.30000001
-27.99 -14.584 -2.125 0.28999999
-27.521999 -14.45 -2.089 0.25999999
-27.285999 -14.381 -2.072 0.30000001
-27.077999 -14.38 -2.0580001 0.28999999
-26.761999 -14.32 -2.0350001 0.28
-26.561001 -14.32 -2.0220001 0.31
-26.483 -14.385 -2.02 0.25999999
-26.266001 -14.374 -2.0050001 0.33000001
-26.069 -14.373 -1.992 0.30000001
-25.898001 -14.331 -1.98 0.31999999
-25.496 -14.213 -1.95 0.28999999
-25.448999 -14.292 -1.95 0.25999999
-25.284 -14.304 -1.939 0.30000001
-25.231001 -14.379 -1.939 0.20999999
-25.099001 -14.408 -1.931 0.31999999
-24.51 -14.172 -1.885 0.20999999
-24.27 -14.084 -1.8660001 0.23
-23.985001 -14.019 -1.846 0.23
-23.642 -13.918 -1.8200001 0.34
-23.475 -13.919 -1.8099999 0.31999999
-23.452999 -14.006 -1.812 0.31999999
-23.315001 -14.023 -1.804 0.30000001
-23.07 -13.974 -1.786 0.28999999
-23.125999 -14.058 -1.793 0.16
-22.864 -13.997 -1.774 0.54000002
-22.622999 -13.947 -1.757 0.22
-22.413 -13.915 -1.743 0.2
-22.806999 -14.259 -1.781 0.44
-22.896 -14.415 -1.7920001 0.22
-22.271 -14.119 -1.742 0.31
-22.4 -14.251 -1.755 0.25
-22.24 -14.246 -1.745 0.18000001
-22.108999 -14.261 -1.737 0.31999999
-21.813999 -14.167 -1.715 0.2
-21.59 -14.119 -1.7 0.23999999
-21.500999 -14.157 -1.696 0.36000001
-21.417 -14.198 -1.692 0.2
-21.212 -14.11 -1.676 0.2
-21.132999 -14.153 -1.673 0.47999999
-20.790001 -14.018 -1.646 0.2
-20.690001 -14.045 -1.641 0.25999999
-20.934 -14.308 -1.6670001 0.30000001
-20.405001 -14.039 -1.624 0.36000001
-19.993 -13.848 -1.591 0.28999999
-20.018999 -13.913 -1.595 0.25999999
-19.745001 -13.814 -1.574 0.28
-19.636 -13.83 -1.568 0.23
-19.462999 -13.799 -1.557 0.36000001
-20.743 -14.807 -1.677 0.23
-20.599001 -14.803 -1.668 0.22
-19.101 -13.815 -1.536 0.19
-19.219 -13.947 -1.548 0.57999998
-19.356001 -14.139 -1.5650001 0.23999999
-19.923 -14.651 -1.6210001 0.20999999
-19.870001 -14.708 -1.62 0.34
-19.618 -14.713 -1.6059999 0.19
-20.607 -15.558 -1.701 0.11
-18.475 -13.99 -1.506 0.33000001
-18.719 -14.269 -1.533 0.28999999
-18.952 -14.541 -1.559 0.19
-18.296 -14.128 -1.502 0.36000001
-18.521999 -14.397 -1.527 0.28999999
-18.587 -14.541 -1.538 0.25
-18.712 -14.734 -1.554 0.25
-18.603001 -14.695 -1.546 0.38
-18.492001 -14.703 -1.54 0.31999999
-18.080999 -14.467 -1.505 0.27000001
-17.981001 -14.48 -1.5 0.25999999
-17.907 -14.514 -1.497 0.38999999
-16.549 -13.497 -1.372 0.2
-16.499001 -13.543 -1.3710001 0.30000001
-16.257999 -13.387 -1.35 0.30000001
-16.105 -13.346 -1.34 0.38999999
-16.143999 -13.465 -1.348 0.34
-16.07 -13.488 -1.345 0.5
-15.939 -13.464 -1.336 0.27000001
-16.009001 -13.61 -1.347 0.38
-15.91 -13.612 -1.341 0.47999999
-15.743 -13.512 -1.327 0.25
-15.427 -13.324 -1.301 0.46000001
-15.136 -13.156 -1.276 0.31
-15.173 -13.272 -1.284 0.20999999
-15.203 -13.383 -1.291 0.36000001
-14.742 -13.058 -1.25 0.28
-14.662 -13.07 -1.2460001 0.30000001
-14.426 -12.9 -1.225 0.41999999
-14.477 -13.028 -1.234 0.37
-14.405 -13.045 -1.2309999 0.38
-14.354 -13.081 -1.23 0.34999999
-14.432 -13.235 -1.242 0.41
-14.286 -13.184 -1.2309999 0.51999998
-14.232 -13.217 -1.23 0.25999999
-14.142 -13.175 -1.223 0.31
-14.226 -13.337 -1.235 0.28999999
-14.03 -13.236 -1.22 0.5
-14.161 -13.444 -1.237 0.34999999
-13.935 -13.313 -1.219 0.34999999
-13.886 -13.35 -1.2180001 0.46000001
-13.86 -13.409 -1.22 0.31999999
-13.715 -13.352 -1.209 0.47
-13.653 -13.333 -1.205 0.41
-13.761 -13.524 -1.22 0.34
-13.703 -13.552 -1.219 0.31999999
-13.67 -13.605 -1.22 0.47999999
-13.702 -13.723 -1.228 0.34
-13.82 -13.929 -1.244 0.47999999
-13.912 -14.11 -1.2589999 0.34
-14.119 -14.366 -1.283 0.41
-13.659 -13.984 -1.239 0.27000001
-13.166 -13.563 -1.191 0.31999999
-13.152 -13.634 -1.194 0.38
-13.192 -13.762 -1.2029999 0.51999998
-13.091 -13.742 -1.197 0.23999999
-12.802 -13.524 -1.171 0.34
-12.837 -13.604 -1.177 0.38
-13.064 -13.932 -1.206 0.30000001
-12.982 -13.932 -1.202 0.28
-12.857 -13.885 -1.193 0.47
-12.792 -13.902 -1.191 0.34999999
-12.48 -13.647 -1.161 0.36000001
-12.742 -13.98 -1.192 0.34999999
-12.423 -13.715 -1.1619999 0.31999999
-11.86 -13.175 -1.105 0.27000001
-11.612 -12.98 -1.082 0.38
-11.53 -12.97 -1.077 0.28999999
-11.347 -12.844 -1.061 0.47999999
-11.327 -12.904 -1.064 0.31999999
-11.147 -12.738 -1.046 0.36000001
-11.128 -12.798 -1.048 0.38999999
-11.125 -12.876 -1.052 0.47999999
-11.164 -13.004 -1.061 0.33000001
-11.14 -13.058 -1.063 0.50999999
-11.047 -13.032 -1.057 0.38999999
-10.946 -12.995 -1.051 0.44
-10.875 -12.993 -1.0470001 0.43000001
-10.889 -13.051 -1.051 0.54000002
-11.295 -13.627 -1.103 0.28999999
-11.295 -13.714 -1.108 0.30000001
-11.245 -13.742 -1.107 0.51999998
-11.103 -13.655 -1.095 0.34999999
-11 -13.615 -1.0880001 0.28999999
-11.068 -13.788 -1.101 0.25
-10.984 -13.728 -1.094 0.55000001
-11.045 -13.893 -1.1059999 0.25
-10.665 -13.5 -1.066 0.44999999
-10.637 -13.553 -1.068 0.38
-10.625 -13.625 -1.072 0.38999999
-10.573 -13.648 -1.071 0.28999999
-10.567 -13.728 -1.075 0.56999999
-10.539 -13.737 -1.074 0.31999999
-10.535 -13.821 -1.079 0.44999999
-10.544 -13.924 -1.086 0.40000001
-10.525 -13.99 -1.089 0.41
-10.512 -14.065 -1.092 0.47
-10.44 -14.059 -1.089 0.34
-10.133 -13.735 -1.056 0.34999999
-9.3970003 -12.776 -0.96700001 0.41
-9.3109999 -12.743 -0.96100003 0.25
-10.089 -13.903 -1.064 0.30000001
-9.9759998 -13.838 -1.056 0.27000001
-8.9680004 -12.518 -0.93300003 0.38
-8.9530001 -12.581 -0.93599999 0.31999999
-8.9779997 -12.7 -0.94499999 0.47
-8.9829998 -12.75 -0.94800001 0.38999999
-8.9759998 -12.826 -0.95200002 0.30000001
-8.9259996 -12.841 -0.95099998 0.52999997
-9.4359999 -13.667 -1.022 0.28999999
-9.4510002 -13.783 -1.03 0.20999999
-9.2740002 -13.616 -1.012 0.61000001
-9.2480001 -13.67 -1.015 0.31999999
-9.2639999 -13.739 -1.02 0.47
-9.2790003 -13.856 -1.027 0.33000001
-9.3900003 -14.118 -1.048 0.41
-9.3990002 -14.229 -1.0549999 0.40000001
-8.7860003 -13.388 -0.97899997 0.28999999
-8.7360001 -13.404 -0.977 0.47
-8.7320004 -13.49 -0.98299998 0.34
-8.6890001 -13.47 -0.98000002 0.40000001
-8.6870003 -13.561 -0.98500001 0.41
-8.625 -13.558 -0.98299998 0.41999999
-9.1230001 -14.443 -1.057 0.43000001
-9.0600004 -14.444 -1.0549999 0.22
-8.533 -13.697 -0.98799998 0.44
-8.5200005 -13.773 -0.99199998 0.30000001
-8.4849997 -13.764 -0.99000001 0.63
-8.5609999 -13.986 -1.007 0.14
-8.4130001 -13.841 -0.99199998 0.51999998
-8.4530001 -14.006 -1.0039999 0.36000001
-8.3470001 -13.929 -0.995 0.31999999
-8.3219995 -13.986 -0.99800003 0.41999999
-8.151 -13.798 -0.97899997 0.41
-8.224 -13.972 -0.99299997 0.41
-8.0039997 -13.695 -0.96700001 0.30000001
-8.0039997 -13.794 -0.97399998 0.49000001
-8.1230001 -14.103 -0.99800003 0.31999999
-8.177 -14.3 -1.012 0.36000001
-7.7189999 -13.596 -0.95099998 0.46000001
-7.9819999 -14.165 -0.99699998 0.14
-7.6529999 -13.629 -0.94999999 0.51999998
-8.1160002 -14.563 -1.027 0.37
-7.691 -13.9 -0.96899998 0.28
-7.7950001 -14.196 -0.99199998 0.47999999
-7.506 -13.77 -0.954 0.22
-8.3629999 -15.465 -1.094 0.33000001
-7.612 -14.177 -0.98400003 0.37
-8.1350002 -15.212 -1.0700001 0.22
-7.4679999 -14.066 -0.972 0.51999998
-7.375 -13.998 -0.96399999 0.33000001
-7.2179999 -13.803 -0.94599998 0.28999999
-7.2340002 -13.941 -0.95599997 0.5
-7.2729998 -14.125 -0.96899998 0.2
-7.2680001 -14.225 -0.97600001 0.58999997
-7.0320001 -13.814 -0.94099998 0.31
-6.4320002 -12.73 -0.84899998 0.41
-6.1560001 -12.277 -0.81 0.31999999
-7.1900001 -14.465 -0.98900002 0.22
-6.2719998 -12.709 -0.84299999 0.47999999
-6.2049999 -12.673 -0.838 0.5
-6.8540001 -14.119 -0.95499998 0.2
-5.8779998 -12.149 -0.79299998 0.38999999
-5.8899999 -12.272 -0.801 0.41
-6.5349998 -13.732 -0.91900003 0.16
-5.9549999 -12.61 -0.82599998 0.43000001
-5.9650002 -12.735 -0.83499998 0.41
-5.8990002 -12.7 -0.82999998 0.36000001
-5.8400002 -12.675 -0.82700002 0.38
-5.8249998 -12.695 -0.82800001 0.46000001
-5.934 -13.042 -0.85399997 0.47
-6.0219998 -13.348 -0.87800002 0.28999999
-5.8559999 -13.09 -0.85500002 0.47
-5.5289998 -12.458 -0.80299997 0.30000001
-5.493 -12.485 -0.80400002 0.46000001
-5.4640002 -12.526 -0.80500001 0.34
-5.5289998 -12.729 -0.82099998 0.58999997
-5.6360002 -13.091 -0.84899998 0.2
-5.4959998 -12.875 -0.82999998 0.46000001
-5.428 -12.826 -0.82499999 0.34
-5.3460002 -12.744 -0.81699997 0.58999997
-5.3270001 -12.812 -0.82099998 0.20999999
-5.237 -12.707 -0.81099999 0.61000001
-5.4039998 -13.173 -0.84799999 0.18000001
-5.4770002 -13.473 -0.87 0.50999999
-5.0970001 -12.648 -0.80299997 0.47999999
-5.5100002 -13.932 -0.90200001 0.50999999
-5.441 -13.884 -0.89700001 0.33000001
-5.3779998 -13.851 -0.89300001 0.34
-5.348 -13.837 -0.89200002 0.62
-5.7620001 -15.054 -0.986 0.18000001
-5.3899999 -14.214 -0.91900003 0.47999999
-5.276 -14.044 -0.90399998 0.2
-5.2509999 -14.113 -0.90799999 0.58999997
-5.2659998 -14.29 -0.921 0.28
-5.1040001 -13.984 -0.89499998 0.52999997
-5.0780001 -13.983 -0.89499998 0.27000001
-4.9749999 -13.834 -0.88200003 0.38999999
-4.927 -13.834 -0.88099998 0.49000001
-4.901 -13.9 -0.88499999 0.43000001
-4.8769999 -13.972 -0.889 0.36000001
-4.8200002 -13.95 -0.88599998 0.47999999
-4.777 -13.969 -0.88599998 0.28999999
-4.743 -13.94 -0.884 0.47999999
-4.7420001 -14.082 -0.89300001 0.44999999
-4.6900001 -14.072 -0.89099997 0.40000001
-4.711 -14.288 -0.90700001 0.33000001
-4.5599999 -13.976 -0.88200003 0.47999999
-4.5229998 -14.009 -0.88300002 0.38
-4.448 -13.926 -0.87599999 0.54000002
-4.4180002 -13.909 -0.87400001 0.28999999
-4.381 -13.945 -0.87599999 0.46000001
-4.3629999 -14.041 -0.88200003 0.41
-4.3260002 -14.079 -0.884 0.41
-4.3099999 -14.186 -0.89099997 0.34
-4.2820001 -14.253 -0.89499998 0.54000002
-4.2579999 -14.339 -0.90100002 0.40000001
-4.3340001 -14.681 -0.926 0.38999999
-4.237 -14.518 -0.91299999 0.31999999
-4.1799998 -14.493 -0.91000003 0.41
-4.1599998 -14.597 -0.917 0.44
-4.1430001 -14.713 -0.92500001 0.44
-4.0780001 -14.655 -0.91900003 0.31
-4.0370002 -14.687 -0.921 0.56
-4.1240001 -15.29 -0.96499997 0.38999999
-8.0270004 -30.235001 -2.1040001 0.17
-6.698 -25.535999 -1.744 0.28
-6.6059999 -25.514 -1.7410001 0.28999999
-7.4169998 -29.035 -2.007 0.40000001
-7.2779999 -28.868999 -1.993 0.23999999
-6.5079999 -25.974001 -1.772 0.25
-6.4130001 -25.941999 -1.768 0.28999999
-6.2950001 -25.809999 -1.756 0.27000001
-6.0650001 -25.207001 -1.709 0.27000001
-5.9749999 -25.181999 -1.706 0.47999999
-6.0279999 -25.768 -1.749 0.28999999
-5.678 -24.614 -1.66 0.19
-5.5500002 -24.23 -1.63 0.34999999
-5.4780002 -24.267 -1.632 0.34
-5.3969998 -24.264999 -1.63 0.36000001
-5.3039999 -24.205 -1.625 0.34999999
-5.217 -24.167 -1.6210001 0.30000001
-5.1599998 -24.277 -1.628 0.38
-5.1110001 -24.42 -1.637 0.41
-5.0500002 -24.323 -1.6289999 0.30000001
-4.96 -24.271999 -1.624 0.33000001
-4.8899999 -24.319 -1.627 0.31999999
-4.809 -24.306999 -1.624 0.46000001
-4.7659998 -24.497999 -1.638 0.27000001
-4.664 -24.378 -1.628 0.43000001
-4.6739998 -24.857 -1.6619999 0.16
-4.6160002 -24.764 -1.655 0.38999999
-4.5300002 -24.731001 -1.651 0.43000001
-4.448 -24.722 -1.65 0.34
-4.3740001 -24.757 -1.651 0.34
-4.3330002 -24.983 -1.6670001 0.2
-4.23 -24.851 -1.656 0.44
-4.1599998 -24.912001 -1.66 0.43000001
-4.4359999 -26.841 -1.803 0.27000001
-4.3660002 -26.941999 -1.8099999 0.30000001
-4.2750001 -26.914 -1.807 0.22
-4.178 -26.85 -1.801 0.31
-3.9000001 -25.579 -1.705 0.2
-3.9200001 -26.271999 -1.756 0.25999999
-3.5139999 -24.056 -1.59 0.14
-3.4820001 -24.097 -1.5930001 0.33000001
-3.118 -22.052999 -1.4400001 0.23999999
-3.052 -22.084999 -1.441 0.41
-2.9849999 -22.112 -1.443 0.34999999
-2.835 -21.506001 -1.397 0.44
-2.7709999 -21.549 -1.4 0.34999999
-2.717 -21.666 -1.408 0.36000001
-2.6860001 -21.691999 -1.409 0.40000001
-2.6199999 -21.716 -1.41 0.31999999
-2.5510001 -21.719999 -1.41 0.44999999
-2.4979999 -21.861 -1.42 0.31
-2.4130001 -21.726 -1.409 0.30000001
-2.3410001 -21.700001 -1.4069999 0.56
-2.302 -21.985001 -1.427 0.30000001
-2.263 -21.945 -1.424 0.23999999
-2.2119999 -22.136 -1.438 0.38999999
-2.3039999 -23.827 -1.563 0.15000001
-1.9220001 -20.511 -1.317 0.20999999
-1.858 -20.521 -1.317 0.25
-1.793 -20.527 -1.317 0.38
-1.733 -20.584 -1.321 0.31999999
-1.7 -20.575001 -1.3200001 0.50999999
-1.647 -20.737 -1.331 0.34
-1.596 -20.921 -1.345 0.37
-1.507 -20.606001 -1.321 0.51999998
-1.485 -21.229 -1.367 0.12
-1.391 -20.823999 -1.336 0.36000001
-1.317 -20.691 -1.326 0.31
-1.293 -20.823999 -1.336 0.25
-1.217 -20.660999 -1.324 0.34999999
-1.137 -20.374001 -1.302 0.52999997
-1.072 -20.362 -1.301 0.33000001
-1.171 -23.74 -1.55 0.47
-1.411 -30.743 -2.0669999 0.14
-0.88700002 -20.540001 -1.314 0
-1.168 -30.698999 -2.063 0.33000001
-1.068 -30.611 -2.056 0.2
-0.92199999 -28.976 -1.9349999 0.16
-0.829 -28.934999 -1.932 0.16
-0.52899998 -20.424999 -1.304 0.25999999
-0.46399999 -20.393999 -1.302 0.36000001
