# .PCD v0.7 - Point Cloud Data file format
VERSION 0.7
FIELDS x y z intensity
SIZE 4 4 4 4
TYPE F F F F
COUNT 1 1 1 1
WIDTH 1406
HEIGHT 1
VIEWPOINT 0 0 0 1 0 0 0
POINTS 1406
DATA ascii
-19.004999 15.999 -0.31600001 0.54000002
-19.216 16.073999 -0.31999999 0.33000001
-19.409 16.132999 -0.324 0.28999999
-19.538 16.136999 -0.32600001 0.28999999
-19.658001 16.132 -0.32800001 0.27000001
-19.791 16.138 -0.33000001 0.28
-19.888 16.165001 -0.33199999 0.27000001
-20.030001 16.176001 -0.33500001 0.25
-20.152 16.171 -0.33700001 0.31
-20.228001 16.127001 -0.33700001 0.27000001
-20.417999 16.174 -0.34099999 0.27000001
-20.558001 16.181 -0.34299999 0.25999999
-20.691999 16.181999 -0.34599999 0.23999999
-20.784 16.201 -0.347 0.18000001
-20.938999 16.216 -0.34999999 0.43000001
-21.069 16.211 -0.352 0.25
-21.209 16.212999 -0.35499999 0.20999999
-21.309 16.184 -0.35600001 0.20999999
-21.389999 16.139999 -0.35699999 0.36000001
-21.474001 16.098 -0.35800001 0.36000001
-21.594999 16.136 -0.36000001 0.41
-25.864 19.205999 -0.47 0.31
-26.032 19.204 -0.47299999 0.33000001
-26.223 19.218 -0.477 0.41
-26.469 19.271 -0.48100001 0.37
-26.653999 19.278 -0.48500001 0.19
-26.837999 19.283001 -0.48800001 0.36000001
-27.007 19.275999 -0.491 0.18000001
-27.110001 19.285999 -0.493 0.25999999
-27.290001 19.285 -0.49599999 0.41
-27.516001 19.315001 -0.5 0
-27.747 19.348 -0.50400001 0
-27.937 19.351 -0.50700003 0.1
-28.093 19.329 -0.50999999 0.15000001
-28.263 19.315001 -0.51300001 0.28
-28.391001 19.337 -0.51499999 0.30000001
-28.599001 19.348 -0.51899999 0.41
-28.834999 19.375999 -0.523 0.18000001
-29.841999 19.917999 -0.54699999 0.34
-29.851999 19.789 -0.546 0.34
-29.868 19.665001 -0.54500002 0.36000001
-29.879 19.538 -0.54299998 0.31999999
-29.863001 19.459999 -0.542 0.40000001
-29.879 19.337 -0.54100001 0.31999999
-29.899 19.216999 -0.54000002 0.28
-29.971001 19.131001 -0.54000002 0
-30.166 19.122 -0.54400003 0
-14.487 9.1040001 -0.154 0
-14.472 9.0310001 -0.153 0
-14.493 8.9809999 -0.152 0
-14.456 8.927 -0.15099999 0
-14.46 8.8660002 -0.15099999 0.12
-14.457 8.802 -0.15000001 0.090000004
-14.459 8.7410002 -0.149 0
-14.458 8.6780005 -0.148 0
-14.447 8.6099997 -0.148 0
-14.453 8.552 -0.147 0
-14.441 8.5139999 -0.146 0
-14.438 8.4519997 -0.146 0
-14.448 8.3959999 -0.145 0
-14.464 8.3450003 -0.145 0
-14.562 8.3409996 -0.147 0
-14.662 8.3369999 -0.149 0
-14.757 8.3299999 -0.15000001 0
-14.851 8.3219995 -0.152 0
-14.938 8.3400002 -0.154 0
-15.055 8.3439999 -0.156 0
-15.156 8.3380003 -0.15800001 0
-15.242 8.323 -0.15899999 0
-15.364 8.3269997 -0.161 0
-15.51 8.3439999 -0.164 0
-15.632 8.3459997 -0.16599999 0
-15.682 8.3409996 -0.167 0.050000001
-37.847 19.716 -0.69 0.69999999
-37.877998 19.582001 -0.68900001 0.38
-38.049999 19.518999 -0.69199997 0.18000001
-38.904999 19.726999 -0.70999998 0.64999998
-39.240002 19.743 -0.71600002 0.19
-36.518002 18.228001 -0.65100002 0.14
-36.535999 18.094 -0.64999998 0.25
-36.619999 17.992001 -0.64999998 0.16
-42.141998 20.546 -0.778 0.23
-42.152 20.386999 -0.77700001 0.11
-39.658001 19.101999 -0.71799999 0.079999998
-42.146999 20.139999 -0.77399999 0.18000001
-42.160999 19.983999 -0.773 0.25999999
-42.154999 19.819 -0.77200001 0.13
-39.688 18.504999 -0.713 0.34999999
-39.617001 18.320999 -0.70999998 0.28999999
-39.613998 18.169001 -0.70899999 0.28999999
-39.681 18.124001 -0.70999998 0
-39.903999 18.075001 -0.713 0.1
-40.414001 18.153 -0.72399998 0.23
-40.785 18.166 -0.73100001 0.18000001
-41.138 18.169001 -0.73799998 0.31
-32.710999 14.319 -0.54400003 0.20999999
-32.756001 14.216 -0.54400003 0.34
-42.205002 18.246 -0.759 0.18000001
-42.439999 18.190001 -0.76300001 0.36000001
-42.548 18.077999 -0.764 0.25999999
-42.555 17.924 -0.76300001 0.11
-44.134998 18.427 -0.79799998 0.15000001
-44.209 18.295 -0.79799998 0.18000001
-44.609001 18.297001 -0.80599999 0.12
-44.455002 18.070999 -0.801 0.13
-46.110001 18.66 -0.838 0.15000001
-46.188999 18.523001 -0.838 0.46000001
-46.272999 18.389 -0.83899999 0.2
-46.551998 18.33 -0.84399998 0.1
-46.625999 18.191 -0.84399998 0
-47.276001 18.274 -0.85799998 0.12
-47.821999 18.313 -0.86900002 0
-47.799 18.216999 -0.86699998 0
-47.949001 18.103001 -0.87 0
-72.068001 26.964001 -1.408 0
-72.241997 26.771 -1.41 0
-72.305 26.535999 -1.41 0
-72.224998 26.249001 -1.406 0
-72.003998 25.913 -1.4 0
-71.950996 25.766001 -1.397 0
-71.986 25.524 -1.396 0
-72.001999 25.275 -1.395 0
-72.137001 25.069 -1.396 0
-72.542999 24.954 -1.404 0
-72.783997 24.782 -1.4069999 0
-73.176003 24.659 -1.414 0
-73.148003 24.393999 -1.4119999 0
-73.257004 24.302999 -1.413 0
-41.603001 13.5 -0.71200001 0
-74.425003 23.399 -1.431 0
-74.501999 23.167 -1.431 0
-74.768997 23.121 -1.436 0
-73.491997 22.473 -1.406 0
-73.706001 22.285 -1.409 0
-74.033997 22.131001 -1.415 0
-73.630997 21.759001 -1.405 0
-73.810997 21.559999 -1.4069999 0
-73.924004 21.341 -1.408 0
-73.657997 21.014 -1.401 0
-73.709999 20.903999 -1.401 0
-76.545998 21.448999 -1.462 0
-47.479 12.973 -0.82700002 0
-74.823997 20.208 -1.42 0
-75.004997 20.004 -1.423 0
-74.691002 19.669001 -1.414 0
-74.918999 19.603001 -1.419 0
-74.856003 19.336 -1.416 0
-74.901001 19.096001 -1.416 0
-75.543999 19.007999 -1.428 0
-74.955002 18.360001 -1.413 0
-77.160004 18.643999 -1.459 0
-74.834999 17.957001 -1.409 0
-75.782997 16.68 -1.4220001 0
-75.961998 16.344999 -1.424 0
-76.078003 16.120001 -1.426 0
-75.755997 15.803 -1.418 0
-75.450996 15.492 -1.41 0
-75.755997 15.307 -1.415 0
-76.066002 15.121 -1.421 0
-76.103996 14.88 -1.421 0
-75.643997 14.667 -1.411 0
-75.148003 14.326 -1.399 0
-76.540001 14.094 -1.427 0
-76.458 13.83 -1.424 0
-76.571999 13.603 -1.426 0
-75.353996 12.047 -1.395 0
-77.644997 11.664 -1.441 0
-77.634003 11.538 -1.441 0
-77.624001 11.287 -1.4400001 0
-77.613998 11.037 -1.439 0
-77.605003 10.787 -1.438 0
-77.551003 10.531 -1.436 0
-77.528 10.28 -1.4349999 0
-77.497002 10.028 -1.433 0
-77.441002 9.8970003 -1.432 0
-75.670998 -20.200001 -1.437 0
-72.559998 -19.860001 -1.372 0
-70.504997 -19.537001 -1.329 0
-69.608002 -19.524 -1.311 0
-68.112999 -19.336 -1.28 0
-66.089996 -18.875 -1.2359999 0
-65.139 -18.826 -1.217 0
-64.022003 -18.721001 -1.194 0
-62.945 -18.622 -1.171 0
-60.75 -18.181 -1.125 0
-60.547001 -18.327999 -1.1210001 0
-59.108002 -18.096001 -1.091 0
-57.409 -17.674999 -1.054 0
-57.237 -17.819 -1.052 0
-56.493999 -17.783001 -1.0369999 0
-51.793999 -16.485001 -0.935 0
-51.715 -16.639 -0.93400002 0
-53.544998 -17.412001 -0.97600001 0
-52.723 -17.329 -0.95899999 0
-51.772999 -17.107 -0.93800002 0
-50.674 -16.921 -0.91500002 0
-50.283001 -16.966999 -0.90799999 0
-49.368 -16.830999 -0.889 0
-48.693001 -16.771999 -0.875 0
-47.958 -16.688 -0.86000001 0
-47.192001 -16.589001 -0.84399998 0
-46.251999 -16.422001 -0.824 0
-46.07 -16.438999 -0.82099998 0
-45.731998 -16.481001 -0.81400001 0.1
-45.137001 -16.427 -0.80199999 0
-44.914001 -16.506001 -0.79799998 0
-44.491001 -16.51 -0.79000002 0
-44.047001 -16.503 -0.78100002 0
-43.641998 -16.507999 -0.773 0.079999998
-42.831001 -16.278 -0.75599998 0.079999998
-41.978001 -16.106001 -0.73799998 0.13
-41.662998 -16.136 -0.73199999 0.31
-41.323002 -16.153999 -0.72500002 0.25999999
-41.167999 -16.242001 -0.72299999 0.19
-40.368 -16.073999 -0.70599997 0.18000001
-40.091 -16.110001 -0.70099998 0.25
-40.012001 -16.225 -0.69999999 0.2
-40.037998 -16.308001 -0.70099998 0.23
-39.976002 -16.43 -0.70099998 0.16
-38.973999 -16.162001 -0.68000001 0.15000001
-38.566002 -16.135 -0.671 0.25
-38.389 -16.202999 -0.66900003 0.2
-38.200001 -16.264999 -0.66500002 0.13
-37.786999 -16.23 -0.65700001 0.43000001
-37.619999 -16.228001 -0.65399998 0.25
-21.632 -9.5050001 -0.28999999 0.44999999
-21.603001 -9.573 -0.28999999 0.30000001
-21.525 -9.6199999 -0.289 0.28
-21.511 -9.6949997 -0.28999999 0.5
-21.448 -9.7469997 -0.289 0.18000001
-21.481001 -9.8039999 -0.28999999 0.30000001
-21.358 -9.8280001 -0.28799999 0.25
-21.084999 -9.7840004 -0.28200001 0.36000001
-21.327999 -9.9779997 -0.289 0.40000001
-21.027 -9.9180002 -0.28200001 0.23999999
-21.052 -10.01 -0.28400001 0.36000001
-21.007999 -10.07 -0.28299999 0.30000001
-21.242001 -10.224 -0.289 0.25
-21.183001 -10.277 -0.289 0.36000001
-21.188999 -10.362 -0.289 0.5
-21.596001 -10.645 -0.30000001 0.22
-21.311001 -10.588 -0.294 0.36000001
-21.158001 -10.595 -0.29100001 0.25999999
-21.129999 -10.665 -0.29100001 0.36000001
-21.149 -10.716 -0.292 0.30000001
-31.136 -15.885 -0.528 0.25
-31.042999 -15.961 -0.52700001 0.18000001
-30.847 -15.983 -0.523 0.49000001
-30.771999 -16.066999 -0.523 0.2
-30.33 -15.958 -0.514 0.30000001
-30.181 -16.000999 -0.51099998 0.23
-30.002001 -16.027 -0.50800002 0.23
-29.792 -15.975 -0.50400001 0.47999999
-29.722 -16.058001 -0.50300002 0.2
-29.254999 -15.925 -0.493 0.25
-29.098 -15.959 -0.491 0.33000001
-28.945999 -15.994 -0.48800001 0.28999999
-29.027 -16.158001 -0.491 0.25999999
-28.771 -16.134001 -0.48699999 0.2
-28.351999 -15.958 -0.477 0.22
-16.173 -9.25 -0.186 0.25
-16.172001 -9.3170004 -0.186 0.47999999
-27.653999 -16.027 -0.465 0.22
-16.263 -9.5059996 -0.19 0.31999999
-16.205999 -9.5410004 -0.189 0.34
-16.193001 -9.5670004 -0.189 0.41
-16.184999 -9.6309996 -0.19 0.30000001
-26.636999 -15.946 -0.44600001 0.16
-15.697 -9.4759998 -0.17900001 0.28
-15.642 -9.5100002 -0.17900001 0.34
-15.632 -9.5719995 -0.17900001 0.41
-15.645 -9.6470003 -0.18000001 0.33000001
-25.844 -15.972 -0.43200001 0.30000001
-25.663 -15.972 -0.42899999 0.27000001
-25.403999 -15.922 -0.42399999 0.31
-25.207001 -15.909 -0.41999999 0.25999999
-25.094 -15.948 -0.41800001 0.28999999
-25.032 -16.02 -0.41800001 0.28999999
-24.938 -16.07 -0.417 0.28999999
-24.599001 -15.961 -0.41 0.11
-23.854 -15.533 -0.39199999 0.16
-23.76 -15.578 -0.391 0.52999997
-23.791 -15.705 -0.39300001 0.20999999
-24.027 -15.969 -0.40000001 0.2
-23.983 -16.049 -0.40000001 0.41
-24.062 -16.211 -0.403 0.28
-23.937 -16.236 -0.40099999 0.20999999
-23.575001 -16.046 -0.39300001 0.25999999
-23.422001 -16.049999 -0.38999999 0.31
-23.375 -16.125 -0.38999999 0.30000001
-23.226 -16.129999 -0.38800001 0.38
-23.200001 -16.221001 -0.38800001 0.34
-23.066999 -16.236 -0.38600001 0.27000001
-22.927 -16.246 -0.384 0.27000001
-22.792999 -16.204 -0.38100001 0.27000001
-22.649 -16.209999 -0.37900001 0.28999999
-22.368999 -16.115999 -0.373 0.27000001
-22.362 -16.218 -0.37400001 0.23
-22.23 -16.229 -0.37200001 0.37
-22.089001 -16.233 -0.37 0.22
-21.938 -16.228001 -0.36700001 0.23
-21.83 -16.202 -0.36500001 0.27000001
-21.690001 -16.204 -0.36300001 0.30000001
-21.535999 -16.195 -0.36000001 0.31999999
-21.413 -16.208 -0.35800001 0.28999999
-21.278 -16.211 -0.35600001 0.25999999
-21.139999 -16.211 -0.35299999 0.25
-21.006001 -16.214001 -0.35100001 0.22
-20.882 -16.224001 -0.34900001 0.41999999
-20.764999 -16.184999 -0.347 0.23999999
-20.593 -16.156 -0.34400001 0.25999999
-20.476 -16.167999 -0.34200001 0.25999999
-20.368 -16.187 -0.34 0.27000001
-20.273001 -16.215 -0.33899999 0.28
-20.131001 -16.205999 -0.33700001 0.25
-20.01 -16.212999 -0.33500001 0.27000001
-19.895 -16.171 -0.33199999 0.18000001
-19.787001 -16.187 -0.331 0.33000001
-19.655001 -16.183001 -0.329 0.23
-19.521 -16.176001 -0.32600001 0.25999999
-19.426001 -16.200001 -0.32499999 0.27000001
-19.297001 -16.195999 -0.32300001 0.28999999
-19.177999 -16.198999 -0.32100001 0.27000001
-19.080999 -16.169001 -0.31900001 0.28999999
-18.959999 -16.169001 -0.317 0.28999999
-18.841999 -16.171 -0.31600001 0.30000001
-18.737 -16.183001 -0.31400001 0.23
-18.629 -16.191999 -0.31200001 0.25
-18.495001 -16.179001 -0.31 0.20999999
-18.393999 -16.193001 -0.30899999 0.28
-18.301001 -16.162001 -0.30700001 0.23999999
-18.195 -16.171 -0.30500001 0.28999999
-18.065001 -16.157 -0.303 0.20999999
-17.969999 -16.174 -0.30199999 0.38999999
-17.855 -16.173 -0.30000001 0.25
-17.740999 -16.171 -0.29800001 0.27000001
-17.639999 -16.181 -0.29699999 0.23999999
-17.530001 -16.181999 -0.29499999 0.28999999
-17.443001 -16.152 -0.29300001 0.31999999
-17.332001 -16.150999 -0.292 0.27000001
-17.242001 -16.169001 -0.29100001 0.28999999
-17.136999 -16.172001 -0.289 0.30000001
-17.021 -16.164 -0.287 0.25999999
-16.915001 -16.165001 -0.285 0.28999999
-16.820999 -16.176001 -0.28400001 0.34999999
-16.657 -16.07 -0.28 0.23
-16.528999 -16.047001 -0.278 0.33000001
-16.422001 -16.044001 -0.27599999 0.28
-16.327999 -16.052 -0.27500001 0.33000001
-16.224001 -16.051001 -0.273 0.27000001
-16.143999 -16.073 -0.273 0.36000001
-16.041 -16.070999 -0.271 0.18000001
-16.054001 -16.135 -0.27200001 0.38999999
-15.948 -16.129 -0.271 0.20999999
-15.707 -15.986 -0.26499999 0.41
-15.776 -16.156 -0.26800001 0.30000001
-15.663 -16.143 -0.26699999 0.27000001
-15.571 -16.149 -0.26499999 0.25999999
-15.433 -16.107 -0.26300001 0.36000001
-15.351 -16.072001 -0.26100001 0.27000001
-15.288 -16.107 -0.26100001 0.38
-15.203 -16.118999 -0.259 0.30000001
-15.11 -16.121 -0.25799999 0.28999999
-15.032 -16.139 -0.257 0.34999999
-14.931 -16.132 -0.25600001 0.28
-14.834 -16.129 -0.25400001 0.33000001
-14.773 -16.114 -0.25299999 0.31999999
-14.689 -16.122999 -0.252 0.28
-14.587 -16.113001 -0.25099999 0.28999999
-14.519 -16.139999 -0.25 0.34
-14.423 -16.135 -0.249 0.31999999
-14.319 -16.120001 -0.24699999 0.27000001
-14.242 -16.135 -0.24600001 0.31999999
-14.171 -16.106001 -0.245 0.28999999
-14.09 -16.115999 -0.244 0.28999999
-13.996 -16.111 -0.242 0.28999999
-13.906 -16.108999 -0.241 0.31
-13.827 -16.118999 -0.23999999 0.28
-13.741 -16.122 -0.23899999 0.36000001
-13.661 -16.129999 -0.23800001 0.34999999
-13.558 -16.111 -0.236 0.27000001
-13.501 -16.094999 -0.235 0.19
-13.275 -15.927 -0.23 0.54000002
-13.107 -15.827 -0.226 0.2
-13.004 -15.803 -0.22400001 0.43000001
-13.181 -16.121 -0.23199999 0.30000001
-13.094 -16.117001 -0.23 0.36000001
-13.004 -16.110001 -0.229 0.28999999
-12.948 -16.093 -0.228 0.31
-12.873 -16.101999 -0.227 0.30000001
-12.777 -16.086 -0.226 0.28999999
-12.713 -16.108999 -0.22499999 0.31
-12.638 -16.118 -0.22400001 0.30000001
-12.541 -16.099001 -0.223 0.23
-12.259 -15.84 -0.215 0.23
-12.145 -15.743 -0.212 0.40000001
-12.149 -15.851 -0.214 0.31999999
-12.116 -15.912 -0.214 0.23
-12.046 -15.923 -0.214 0.46000001
-12.068 -16.056 -0.21600001 0.31
-12.012 -16.087999 -0.21600001 0.31
-11.925 -16.075001 -0.215 0.22
-11.677 -15.794 -0.207 0.43000001
-11.701 -15.93 -0.20900001 0.25999999
-11.662 -15.983 -0.20999999 0.47999999
-11.665 -16.091999 -0.212 0.31
-11.583 -16.084999 -0.211 0.27000001
-11.514 -16.094999 -0.20999999 0.34
-11.37 -16.000999 -0.206 0.28999999
-11.204 -15.874 -0.20200001 0.22
-11.086 -15.759 -0.199 0.46000001
-11.062 -15.83 -0.2 0.38
-11.157 -16.073 -0.205 0.34
-10.945 -15.874 -0.199 0.34999999
-10.846 -15.838 -0.197 0.25
-10.748 -15.801 -0.19599999 0.34999999
-10.688 -15.819 -0.19499999 0.5
-10.726 -15.929 -0.198 0.31999999
-10.748 -16.070999 -0.2 0.43000001
-10.688 -16.089001 -0.2 0.27000001
-10.56 -16.006001 -0.197 0.16
-10.326 -15.76 -0.19 0.43000001
-10.234 -15.727 -0.18799999 0.33000001
-10.181 -15.754 -0.18799999 0.40000001
-10.227 -15.879 -0.191 0.38999999
-10.11 -15.807 -0.18799999 0.38
-10.153 -15.984 -0.192 0.43000001
-10.143 -16.08 -0.19400001 0.28999999
-10.069 -16.073999 -0.193 0.28999999
-10.013 -16.097 -0.192 0.44999999
-9.9309998 -16.077999 -0.191 0.23999999
-9.8870001 -16.063 -0.19 0.36000001
-9.8179998 -16.063 -0.19 0.28999999
-9.7550001 -16.073 -0.189 0.34
-9.691 -16.082001 -0.189 0.36000001
-9.6149998 -16.070999 -0.18799999 0.28999999
-9.5129995 -16.013 -0.185 0.37
-9.4160004 -15.964 -0.184 0.31
-9.3690004 -16 -0.184 0.23999999
-9.2779999 -15.901 -0.18099999 0.44
-9.2019997 -15.887 -0.18000001 0.37
-9.1020002 -15.828 -0.178 0.33000001
-9.0450001 -15.844 -0.177 0.34999999
-8.9860001 -15.857 -0.177 0.41999999
-8.9099998 -15.838 -0.176 0.34
-8.8459997 -15.841 -0.175 0.41
-8.8059998 -15.827 -0.175 0.28999999
-8.6829996 -15.724 -0.17200001 0.31999999
-8.6239996 -15.733 -0.171 0.38999999
-8.5909996 -15.79 -0.17200001 0.38
-8.5089998 -15.757 -0.17 0.36000001
-8.4619999 -15.789 -0.171 0.28999999
-8.4020004 -15.796 -0.17 0.46000001
-8.3769999 -15.808 -0.17 0.38999999
-8.3549995 -15.887 -0.171 0.31999999
-8.2889996 -15.883 -0.171 0.38
-8.243 -15.916 -0.171 0.38
-8.1190004 -15.798 -0.167 0.31999999
-8.0109997 -15.71 -0.16500001 0.46000001
-8.0220003 -15.854 -0.167 0.30000001
-7.9520001 -15.777 -0.16500001 0.38
-7.842 -15.683 -0.163 0.33000001
-7.7849998 -15.691 -0.162 0.41
-7.7160001 -15.676 -0.161 0.38
-7.6539998 -15.675 -0.161 0.31
-7.6230001 -15.737 -0.162 0.55000001
-7.631 -15.879 -0.164 0.25999999
-7.5679998 -15.812 -0.162 0.25999999
-7.4510002 -15.695 -0.15899999 0.36000001
-7.388 -15.688 -0.15800001 0.38
-7.2930002 -15.615 -0.156 0.31999999
-7.2670002 -15.687 -0.15700001 0.40000001
-7.1989999 -15.669 -0.156 0.28
-7.1620002 -15.717 -0.15700001 0.47
-7.1479998 -15.752 -0.15800001 0.33000001
-7.1290002 -15.844 -0.15899999 0.52999997
-7.152 -16.028999 -0.163 0.23999999
-7.033 -15.896 -0.15899999 0.33000001
-6.9320002 -15.802 -0.15700001 0.23999999
-6.8649998 -15.784 -0.156 0.56
-6.915 -16.037001 -0.161 0.18000001
-6.7729998 -15.843 -0.156 0.38
-6.7509999 -15.861 -0.156 0.41
-6.7280002 -15.945 -0.15800001 0.28999999
-6.6599998 -15.925 -0.15700001 0.43000001
-6.632 -15.998 -0.15800001 0.46000001
-6.5760002 -16.006001 -0.15800001 0.28
-6.5170002 -16.004 -0.15700001 0.27000001
-6.4450002 -15.9 -0.155 0.43000001
-6.3509998 -15.81 -0.152 0.34
-6.2870002 -15.795 -0.15099999 0.28
-6.2350001 -15.809 -0.15099999 0.56999999
-6.2449999 -15.979 -0.155 0.36000001
-6.21 -16.038 -0.156 0.23
-6.1550002 -16.046 -0.155 0.33000001
-6.0939999 -16.037001 -0.155 0.28
-6.0560002 -16.013 -0.154 0.31
-5.9330001 -15.839 -0.15000001 0.31
-5.9039998 -15.914 -0.15099999 0.38
-5.8439999 -15.906 -0.15000001 0.27000001
-5.7709999 -15.861 -0.149 0.25
-5.6950002 -15.806 -0.147 0.54000002
-5.6960001 -15.965 -0.15000001 0.20999999
-5.6339998 -15.87 -0.148 0.31
-5.573 -15.857 -0.147 0.44999999
-5.54 -15.922 -0.148 0.25999999
-5.4720001 -15.888 -0.147 0.54000002
-5.4569998 -16.007999 -0.15000001 0.23999999
-5.4109998 -16.038 -0.15000001 0.34999999
-5.3540001 -16.034 -0.149 0.28999999
-5.3280001 -16.040001 -0.149 0.38
-5.2680001 -16.028999 -0.149 0.28999999
-5.2150002 -16.038 -0.149 0.31
-5.1620002 -16.046 -0.148 0.31999999
-5.099 -16.021999 -0.147 0.27000001
-5.046 -16.031 -0.147 0.30000001
-4.9910002 -16.028999 -0.147 0.25
-4.9650002 -16.035 -0.147 0.43000001
-4.9050002 -16.02 -0.146 0.31999999
-4.849 -16.016001 -0.146 0.34
-4.7950001 -16.02 -0.146 0.33000001
-4.7389998 -16.016001 -0.145 0.34
-4.684 -16.014999 -0.145 0.33000001
-4.6300001 -16.016001 -0.14399999 0.34
-4.5760002 -16.018999 -0.14399999 0.20999999
-4.5300002 -15.952 -0.14300001 0.43000001
-4.4889998 -16 -0.14300001 0.34999999
-4.4180002 -15.939 -0.142 0.33000001
-4.3759999 -15.984 -0.142 0.33000001
-4.3330002 -16.023001 -0.14300001 0.31999999
-4.277 -16.014999 -0.142 0.28999999
-4.2290001 -16.035999 -0.14300001 0.43000001
-4.1950002 -16.011999 -0.142 0.27000001
-4.1360002 -15.99 -0.141 0.28999999
-4.0359998 -15.811 -0.13699999 0.33000001
-3.9860001 -15.822 -0.13699999 0.41
-3.95 -15.887 -0.138 0.44999999
-3.911 -15.946 -0.139 0.34999999
-3.865 -15.973 -0.139 0.41999999
-3.845 -16.000999 -0.14 0.38999999
-3.793 -16.007 -0.14 0.31999999
-3.7420001 -16.013 -0.14 0.34999999
-3.6849999 -15.997 -0.139 0.33000001
-3.6289999 -15.985 -0.139 0.30000001
-3.5580001 -15.905 -0.13699999 0.27000001
-3.5020001 -15.889 -0.13600001 0.47
-3.4519999 -15.779 -0.134 0.28999999
-3.4119999 -15.835 -0.13500001 0.34
-3.3770001 -15.916 -0.13600001 0.41
-3.3280001 -15.93 -0.13600001 0.43000001
-3.277 -15.937 -0.13600001 0.30000001
-3.2090001 -15.857 -0.134 0.41999999
-3.152 -15.834 -0.133 0.34999999
-3.119 -15.797 -0.133 0.47999999
-3.0880001 -15.901 -0.13500001 0.37
-3.043 -15.934 -0.13500001 0.31999999
-2.987 -15.912 -0.134 0.41
-2.931 -15.892 -0.134 0.38
-2.8829999 -15.911 -0.134 0.34
-2.8299999 -15.903 -0.134 0.37
-2.8139999 -15.958 -0.13500001 0.33000001
-2.7539999 -15.912 -0.133 0.41999999
-2.7190001 -16.004999 -0.13500001 0.34
-2.668 -16.014 -0.13500001 0.38
-2.596 -15.888 -0.132 0.37
-2.533 -15.815 -0.131 0.34
-2.471 -15.748 -0.12899999 0.36000001
-2.4260001 -15.781 -0.13 0.41
-2.4159999 -15.88 -0.132 0.38
-2.3840001 -16.01 -0.134 0.36000001
-2.3299999 -15.989 -0.134 0.27000001
-2.279 -15.991 -0.134 0.38
-2.23 -16.011999 -0.134 0.34999999
-2.178 -16.003 -0.134 0.28999999
-2.1159999 -15.737 -0.12800001 0.31999999
-2.069 -15.763 -0.12800001 0.34999999
-2.0220001 -15.787 -0.12899999 0.44999999
-1.98 -15.851 -0.13 0.36000001
-1.92 -15.78 -0.12800001 0.25999999
-1.8660001 -15.746 -0.127 0.47
-1.821 -15.792 -0.12800001 0.47999999
-1.788 -15.94 -0.131 0.34999999
-1.77 -16.003 -0.132 0.34
-1.716 -15.982 -0.132 0.28999999
-1.6670001 -15.998 -0.132 0.38999999
-1.608 -15.917 -0.13 0.34999999
-1.556 -15.904 -0.13 0.34999999
-1.506 -15.909 -0.13 0.27000001
-1.456 -15.912 -0.13 0.28
-1.4299999 -15.898 -0.13 0.27000001
-1.38 -15.899 -0.13 0.25
-1.329 -15.893 -0.12899999 0.40000001
-1.279 -15.901 -0.12899999 0.34999999
-1.228 -15.891 -0.12899999 0.28
-1.178 -15.895 -0.12899999 0.25999999
-1.1160001 -15.727 -0.125 0.40000001
-1.089 -15.705 -0.125 0.41999999
-1.046 -15.798 -0.127 0.36000001
-1.008 -15.975 -0.131 0.33000001
-0.95899999 -15.996 -0.131 0.38999999
-0.90799999 -15.995 -0.131 0.34999999
-0.84399998 -15.744 -0.125 0.44999999
-0.79900002 -15.834 -0.127 0.28
-0.78200001 -15.993 -0.131 0.41999999
-0.73199999 -15.992 -0.131 0.37
-0.68099999 -15.99 -0.13 0.38
-0.63099998 -15.99 -0.13 0.36000001
-0.57999998 -15.984 -0.13 0.31
-0.52999997 -15.996 -0.13 0.38999999
-0.47999999 -15.993 -0.13 0.36000001
-0.43000001 -15.991 -0.13 0.36000001
-0.405 -15.991 -0.13 0.30000001
-0.354 -15.988 -0.13 0.41999999
-0.30399999 -15.987 -0.13 0.33000001
-0.25400001 -15.984 -0.13 0.38999999
-0.20100001 -15.799 -0.126 0.33000001
-0.152 -15.85 -0.127 0.31
-0.101 -15.744 -0.125 0.34999999
-0.075999998 -15.7 -0.124 0.38
-0.027000001 -15.786 -0.126 0.5
0.023 -15.886 -0.12800001 0.28999999
0.071999997 -15.78 -0.126 0.40000001
0.122 -15.852 -0.127 0.38999999
0.17299999 -15.927 -0.12899999 0.40000001
0.223 -15.983 -0.13 0.27000001
0.249 -15.988 -0.13 0.36000001
0.29899999 -15.994 -0.13 0.40000001
0.34900001 -16.000999 -0.13 0.38999999
0.39899999 -15.987 -0.13 0.31999999
0.449 -15.982 -0.13 0.36000001
0.5 -15.977 -0.13 0.31
0.55000001 -15.993 -0.13 0.38
0.57499999 -15.98 -0.13 0.31
0.625 -15.98 -0.13 0.23
0.676 -15.992 -0.131 0.54000002
0.72600001 -15.984 -0.13 0.30000001
0.77700001 -15.994 -0.131 0.34999999
0.82700002 -15.981 -0.13 0.25
0.87699997 -15.988 -0.131 0.34999999
0.903 -15.993 -0.131 0.34
0.95200002 -15.974 -0.13 0.18000001
1.0039999 -15.999 -0.131 0.50999999
1.053 -15.978 -0.131 0.28
1.104 -15.988 -0.131 0.34
1.154 -15.985 -0.131 0.30000001
1.205 -15.985 -0.131 0.33000001
1.229 -15.975 -0.131 0.31999999
1.281 -15.985 -0.131 0.23999999
1.331 -15.985 -0.131 0.38999999
1.382 -15.993 -0.131 0.38
1.431 -15.974 -0.131 0.25
1.483 -15.988 -0.132 0.41
1.533 -15.981 -0.132 0.31999999
1.559 -15.985 -0.132 0.30000001
1.608 -15.966 -0.131 0.25999999
1.659 -15.968 -0.132 0.2
1.7130001 -16.003 -0.132 0.49000001
1.76 -15.968 -0.132 0.25999999
1.8099999 -15.964 -0.132 0.33000001
1.864 -15.99 -0.132 0.34999999
1.887 -15.967 -0.132 0.25
1.9400001 -15.981 -0.132 0.34999999
1.99 -15.979 -0.133 0.31
2.0409999 -15.975 -0.133 0.34999999
2.0929999 -15.986 -0.133 0.31999999
2.1440001 -15.983 -0.133 0.30000001
2.194 -15.972 -0.133 0.31999999
2.244 -15.963 -0.133 0.28999999
2.2720001 -15.984 -0.133 0.34
2.323 -15.98 -0.133 0.28999999
2.3729999 -15.977 -0.134 0.31
2.4230001 -15.967 -0.134 0.28999999
2.4760001 -15.974 -0.134 0.30000001
2.5280001 -15.978 -0.134 0.37
2.5780001 -15.97 -0.134 0.25999999
2.6029999 -15.964 -0.134 0.37
2.6559999 -15.973 -0.134 0.31999999
2.7079999 -15.976 -0.13500001 0.34
2.7579999 -15.968 -0.13500001 0.31
2.809 -15.965 -0.13500001 0.36000001
2.862 -15.97 -0.13500001 0.36000001
2.9119999 -15.961 -0.13500001 0.33000001
2.938 -15.964 -0.13500001 0.34
2.9909999 -15.967 -0.13600001 0.31999999
3.043 -15.971 -0.13600001 0.33000001
3.0940001 -15.963 -0.13600001 0.28999999
3.1440001 -15.953 -0.13600001 0.31999999
3.197 -15.959 -0.13600001 0.31999999
3.253 -15.976 -0.13699999 0.41
3.277 -15.964 -0.13699999 0.28999999
3.3299999 -15.969 -0.13699999 0.34
3.3829999 -15.972 -0.13699999 0.31
3.4349999 -15.969 -0.13699999 0.30000001
3.487 -15.968 -0.138 0.41
3.5369999 -15.955 -0.138 0.34999999
3.5929999 -15.969 -0.138 0.31999999
3.6440001 -15.962 -0.138 0.30000001
3.6700001 -15.96 -0.138 0.31999999
3.723 -15.962 -0.139 0.31999999
3.7750001 -15.958 -0.139 0.34
3.8280001 -15.958 -0.139 0.31999999
3.8840001 -15.973 -0.14 0.37
3.9419999 -15.992 -0.14 0.36000001
3.9909999 -15.973 -0.14 0.31
4.0209999 -15.986 -0.141 0.30000001
4.0739999 -15.985 -0.141 0.28999999
4.1209998 -15.959 -0.141 0.25
4.1799998 -15.983 -0.141 0.34999999
4.2270002 -15.956 -0.141 0.25999999
4.2810001 -15.958 -0.141 0.36000001
4.309 -15.963 -0.142 0.28999999
4.3639998 -15.965 -0.142 0.31999999
4.4200001 -15.972 -0.142 0.41999999
4.474 -15.972 -0.14300001 0.27000001
4.5279999 -15.971 -0.14300001 0.31999999
4.579 -15.962 -0.14300001 0.34999999
4.6370001 -15.975 -0.14399999 0.34
4.6609998 -15.962 -0.14399999 0.33000001
4.7150002 -15.962 -0.14399999 0.31999999
4.7719998 -15.97 -0.14399999 0.37
4.822 -15.955 -0.14399999 0.28999999
4.8779998 -15.959 -0.145 0.40000001
4.9330001 -15.957 -0.145 0.36000001
4.9920001 -15.97 -0.146 0.40000001
5.0430002 -15.958 -0.146 0.34
5.0739999 -15.97 -0.146 0.34999999
5.1279998 -15.965 -0.146 0.28999999
5.1810002 -15.958 -0.147 0.34
5.2399998 -15.969 -0.147 0.38999999
5.2909999 -15.954 -0.147 0.30000001
5.348 -15.96 -0.148 0.28999999
5.4070001 -15.968 -0.148 0.38999999
5.4310002 -15.957 -0.148 0.31999999
5.4899998 -15.967 -0.149 0.31
5.5469999 -15.968 -0.149 0.30000001
5.5999999 -15.958 -0.15000001 0.36000001
5.6539998 -15.954 -0.15000001 0.30000001
5.711 -15.953 -0.15000001 0.28999999
5.7670002 -15.954 -0.15099999 0.33000001
5.7979999 -15.96 -0.15099999 0.34
5.8530002 -15.954 -0.15099999 0.34999999
5.908 -15.951 -0.152 0.37
5.9650002 -15.949 -0.152 0.36000001
6.0250001 -15.957 -0.153 0.43000001
6.0760002 -15.941 -0.153 0.25999999
6.131 -15.935 -0.153 0.31999999
6.165 -15.948 -0.153 0.34
6.224 -15.953 -0.154 0.38999999
6.2849998 -15.959 -0.155 0.34999999
6.3400002 -15.952 -0.155 0.36000001
6.3979998 -15.953 -0.155 0.31999999
6.4520001 -15.942 -0.156 0.36000001
6.5100002 -15.942 -0.156 0.34
6.5409999 -15.945 -0.156 0.34
6.5999999 -15.946 -0.15700001 0.37
6.6599998 -15.949 -0.15700001 0.28999999
6.7259998 -15.967 -0.15800001 0.47
4.4710002 -10.499 -0.034000002 0.2
4.4829998 -10.435 -0.033 0.23
4.5019999 -10.39 -0.032000002 0.38999999
4.5349998 -10.376 -0.032000002 0.25999999
4.5539999 -10.374 -0.032000002 0.38999999
4.5840001 -10.354 -0.032000002 0.25999999
4.6279998 -10.365 -0.033 0.38999999
4.6750002 -10.384 -0.034000002 0.34
7.2779999 -15.93 -0.162 0.46000001
7.3390002 -15.933 -0.163 0.36000001
7.3730001 -15.941 -0.163 0.30000001
7.4390001 -15.951 -0.164 0.30000001
7.4980001 -15.947 -0.164 0.44
7.552 -15.931 -0.16500001 0.28999999
5.1090002 -10.671 -0.043000001 0.41
5.1300001 -10.63 -0.041999999 0.34
5.1420002 -10.611 -0.041999999 0.34
5.1859999 -10.616 -0.043000001 0.31
5.2319999 -10.627 -0.043000001 0.16
7.8569999 -15.861 -0.16599999 0.55000001
5.2249999 -10.445 -0.039999999 0.18000001
5.244 -10.402 -0.039000001 0.30000001
5.2540002 -10.339 -0.037999999 0.34
5.224 -10.201 -0.035 0.25999999
5.2290001 -10.172 -0.035 0.36000001
5.2589998 -10.152 -0.035 0.31999999
5.29 -10.132 -0.035 0.33000001
5.3239999 -10.12 -0.035 0.30000001
5.3720002 -10.134 -0.035 0.41
5.4219999 -10.152 -0.035999998 0.20999999
8.5500002 -15.919 -0.17399999 0.30000001
8.5939999 -15.941 -0.175 0.28999999
8.6560001 -15.937 -0.175 0.40000001
8.7209997 -15.936 -0.176 0.37
8.783 -15.931 -0.176 0.37
8.8509998 -15.935 -0.177 0.40000001
8.9110003 -15.924 -0.178 0.31999999
8.9729996 -15.919 -0.178 0.38999999
9.0100002 -15.926 -0.17900001 0.28999999
9.0760002 -15.925 -0.17900001 0.40000001
9.1409998 -15.923 -0.18000001 0.38
9.2069998 -15.922 -0.18099999 0.38
9.2740002 -15.922 -0.18099999 0.31999999
9.3380003 -15.917 -0.182 0.31999999
9.4049997 -15.917 -0.183 0.38999999
9.448 -15.933 -0.183 0.40000001
9.5179996 -15.936 -0.184 0.38
9.5799999 -15.927 -0.185 0.28
9.6529999 -15.934 -0.186 0.38999999
9.7130003 -15.921 -0.186 0.25999999
9.7840004 -15.924 -0.18700001 0.28999999
9.8529997 -15.924 -0.18799999 0.43000001
9.8879995 -15.926 -0.18799999 0.25999999
9.9589996 -15.927 -0.189 0.38
10.025 -15.921 -0.189 0.28999999
10.092 -15.916 -0.19 0.33000001
10.159 -15.911 -0.191 0.36000001
10.229 -15.911 -0.192 0.36000001
10.309 -15.926 -0.193 0.37
10.351 -15.935 -0.193 0.34999999
10.42 -15.933 -0.19400001 0.34999999
10.492 -15.933 -0.19499999 0.31
10.553 -15.917 -0.19499999 0.27000001
10.629 -15.922 -0.19599999 0.34
10.694 -15.912 -0.197 0.28
10.766 -15.91 -0.198 0.27000001
10.815 -15.929 -0.199 0.36000001
10.889 -15.93 -0.199 0.41999999
10.951 -15.914 -0.2 0.25
11.032 -15.923 -0.20100001 0.34999999
11.104 -15.92 -0.20200001 0.34999999
11.166 -15.903 -0.20200001 0.23
11.243 -15.905 -0.20299999 0.28999999
11.319 -15.908 -0.204 0.37
11.368 -15.924 -0.205 0.34999999
11.44 -15.919 -0.206 0.27000001
11.523 -15.928 -0.207 0.46000001
11.592 -15.918 -0.208 0.33000001
11.671 -15.922 -0.20900001 0.30000001
11.738 -15.908 -0.20900001 0.31999999
11.815 -15.908 -0.20999999 0.36000001
11.864 -15.921 -0.211 0.31999999
11.94 -15.919 -0.212 0.25
12.019 -15.92 -0.213 0.38999999
12.092 -15.912 -0.214 0.34
12.166 -15.906 -0.215 0.38999999
12.241 -15.899 -0.21600001 0.36000001
12.326 -15.907 -0.21699999 0.36000001
12.377 -15.921 -0.21799999 0.38
12.449 -15.91 -0.21799999 0.33000001
12.533 -15.915 -0.22 0.34999999
12.613 -15.913 -0.221 0.38
12.69 -15.908 -0.222 0.31
12.766 -15.901 -0.222 0.34
12.848 -15.899 -0.22400001 0.34999999
12.898 -15.91 -0.22400001 0.34999999
12.987 -15.918 -0.226 0.38
13.071 -15.919 -0.227 0.31
13.15 -15.913 -0.228 0.31999999
13.221 -15.896 -0.228 0.25999999
13.317 -15.91 -0.23 0.34999999
13.392 -15.899 -0.23100001 0.34
13.448 -15.914 -0.23199999 0.28999999
13.511 -15.887 -0.23199999 0.31999999
13.533 -15.813 -0.23100001 0.31
13.621 -15.814 -0.233 0.34
13.699 -15.804 -0.233 0.31999999
9.1230001 -10.379 -0.085000001 0.38999999
9.1300001 -10.354 -0.083999999 0.38
9.1590004 -10.321 -0.083999999 0.34999999
9.1999998 -10.303 -0.085000001 0.36000001
9.243 -10.286 -0.085000001 0.36000001
9.3249998 -10.312 -0.086000003 0.40000001
14.443 -15.891 -0.245 0.2
9.717 -10.612 -0.097000003 0.36000001
9.7159996 -10.577 -0.096000001 0.30000001
9.75 -10.547 -0.096000001 0.38999999
9.7869997 -10.52 -0.096000001 0.27000001
9.8529997 -10.525 -0.097000003 0.51999998
14.961 -15.901 -0.25299999 0.25999999
15.052 -15.898 -0.25400001 0.28
15.138 -15.888 -0.255 0.28999999
15.21 -15.913 -0.25600001 0.31999999
15.301 -15.909 -0.25799999 0.28999999
15.393 -15.904 -0.259 0.30000001
15.486 -15.9 -0.25999999 0.23999999
15.568 -15.884 -0.26100001 0.20999999
15.674 -15.892 -0.26300001 0.47999999
15.766 -15.885 -0.264 0.25
15.835 -15.904 -0.26499999 0.27000001
15.927 -15.897 -0.26699999 0.28
16.028999 -15.899 -0.26800001 0.25
16.120001 -15.889 -0.27000001 0.28999999
16.219 -15.886 -0.271 0.25
16.32 -15.886 -0.27200001 0.31
16.42 -15.883 -0.27399999 0.28
16.521999 -15.881 -0.27500001 0.28
16.6 -15.906 -0.27700001 0.28
16.691999 -15.894 -0.278 0.31
16.785 -15.883 -0.27900001 0.27000001
16.895 -15.886 -0.28099999 0.25
16.997 -15.883 -0.28299999 0.28999999
17.084999 -15.864 -0.28400001 0.25
17.205 -15.876 -0.28600001 0.41999999
17.282 -15.896 -0.287 0.22
17.379 -15.885 -0.289 0.23
17.495001 -15.891 -0.28999999 0.33000001
17.586 -15.874 -0.292 0.30000001
17.705 -15.88 -0.294 0.28
17.811001 -15.875 -0.29499999 0.27000001
17.924 -15.874 -0.29699999 0.28
18.002001 -15.894 -0.29800001 0.28999999
18.118 -15.895 -0.30000001 0.27000001
18.212 -15.876 -0.30199999 0.16
11.311 -9.7849998 -0.109 0.30000001
11.328 -9.7379999 -0.108 0.47
11.364 -9.7060003 -0.108 0.28999999
11.475 -9.7390003 -0.11 0.38999999
11.513 -9.7410002 -0.111 0.40000001
11.582 -9.7370005 -0.112 0.23999999
11.411 -9.5319996 -0.107 0.43000001
11.417 -9.4759998 -0.106 0.31999999
11.44 -9.4350004 -0.106 0.43000001
11.552 -9.4659996 -0.108 0.31
11.57 -9.4209995 -0.108 0.43000001
11.587 -9.4040003 -0.108 0.31999999
11.622 -9.3719997 -0.108 0.34
11.685 -9.3620005 -0.109 0.44999999
11.633 -9.2600002 -0.107 0.34999999
11.67 -9.2299995 -0.107 0.28999999
11.717 -9.2080002 -0.107 0.38999999
11.93 -9.316 -0.112 0.25999999
11.983 -9.3260002 -0.113 0.55000001
11.935 -9.2290001 -0.111 0.20999999
12.09 -9.2889996 -0.115 0.38
12.131 -9.2589998 -0.115 0.28999999
12.031 -9.1230001 -0.111 0.28
12.335 -9.2939997 -0.119 0.38999999
21.146 -15.852 -0.34900001 0.18000001
21.254 -15.881 -0.35100001 0.34
21.372999 -15.865 -0.35299999 0.23999999
21.514999 -15.866 -0.35499999 0.23
21.646999 -15.858 -0.35800001 0.31999999
21.783001 -15.854 -0.36000001 0.16
21.919001 -15.848 -0.36199999 0.34999999
22.063 -15.846 -0.36399999 0.2
21.811001 -15.614 -0.35699999 0.23999999
22.256001 -15.827 -0.368 0.16
22.445999 -15.856 -0.37099999 0.17
22.582001 -15.847 -0.373 0.20999999
22.733999 -15.847 -0.37599999 0.36000001
22.886999 -15.847 -0.37900001 0.23
23.024 -15.835 -0.38100001 0.14
23.195999 -15.846 -0.384 0.41999999
23.280001 -15.85 -0.38499999 0.25
23.438999 -15.851 -0.38800001 0.22
23.593 -15.848 -0.391 0.14
23.742001 -15.84 -0.39300001 0.18000001
23.902 -15.839 -0.396 0.27000001
24.059 -15.834 -0.39899999 0.20999999
24.225 -15.835 -0.40200001 0.28
24.351999 -15.864 -0.40400001 0.20999999
24.499001 -15.85 -0.40700001 0.23
24.625 -15.822 -0.40900001 0.38
24.830999 -15.845 -0.41299999 0.23
24.983999 -15.832 -0.41499999 0.34
25.152 -15.828 -0.41800001 0.2
25.327 -15.827 -0.421 0.23999999
25.450001 -15.849 -0.42399999 0.18000001
25.622999 -15.846 -0.42699999 0.12
25.782 -15.832 -0.42899999 0.090000004
25.975 -15.839 -0.433 0
26.131001 -15.821 -0.435 0.090000004
26.319 -15.823 -0.43900001 0.090000004
26.49 -15.813 -0.442 0.15000001
26.653 -15.853 -0.44499999 0.16
26.819 -15.839 -0.44800001 0.090000004
26.990999 -15.826 -0.45100001 0.090000004
27.198 -15.833 -0.45500001 0.17
27.384001 -15.827 -0.458 0.11
27.554001 -15.809 -0.461 0.15000001
27.771999 -15.819 -0.465 0.28999999
27.909 -15.839 -0.46799999 0.14
28.118999 -15.842 -0.472 0.41
28.299999 -15.827 -0.47499999 0.2
28.503 -15.823 -0.47799999 0.18000001
28.554001 -15.735 -0.479 0.23
28.690001 -15.692 -0.48100001 0.18000001
28.882999 -15.68 -0.484 0.14
29.166 -15.775 -0.49000001 0.12
29.479 -15.825 -0.49599999 0.23
29.665001 -15.805 -0.5 0.23
29.934999 -15.829 -0.505 0.27000001
30.108999 -15.8 -0.50800002 0.19
30.325001 -15.792 -0.51200002 0.17
30.535999 -15.78 -0.51599997 0.16
30.76 -15.835 -0.51999998 0.31999999
30.973 -15.822 -0.52399999 0.25
31.177999 -15.804 -0.528 0.11
31.403999 -15.795 -0.53200001 0.19
31.646999 -15.792 -0.537 0.25999999
31.893 -15.791 -0.54100001 0.23999999
32.111 -15.773 -0.54500002 0.27000001
32.317001 -15.812 -0.54900002 0.11
31.653 -15.363 -0.53299999 0.11
31.642 -15.235 -0.53100002 0.28
31.723 -15.152 -0.53200001 0
33.313999 -15.784 -0.56800002 0.1
33.569 -15.777 -0.57300001 0.22
33.823002 -15.767 -0.57700002 0.11
34.080002 -15.756 -0.58200002 0.14
34.308998 -15.797 -0.58700001 0.17
34.588001 -15.794 -0.59200001 0
34.841 -15.778 -0.597 0
35.122002 -15.773 -0.602 0
35.389 -15.759 -0.60699999 0
35.665001 -15.748 -0.61199999 0
35.926998 -15.729 -0.61699998 0
36.208 -15.785 -0.62300003 0
36.463001 -15.76 -0.62800002 0
36.827999 -15.781 -0.63499999 0.07
37.095001 -15.758 -0.63999999 0.079999998
37.397999 -15.748 -0.64600003 0.14
37.700001 -15.736 -0.65200001 0.090000004
38.025002 -15.732 -0.65799999 0.14
38.236 -15.749 -0.662 0.16
38.570999 -15.746 -0.66799998 0
38.839001 -15.713 -0.67299998 0
39.172001 -15.705 -0.68000001 0
39.457001 -15.676 -0.685 0
39.783001 -15.661 -0.69099998 0.12
40.112999 -15.646 -0.69800001 0.16
40.372002 -15.674 -0.70300001 0.13
40.667999 -15.642 -0.70899999 0.15000001
40.941002 -15.6 -0.71399999 0.22
41.151001 -15.532 -0.71700001 0.19
41.404999 -15.48 -0.722 0.16
41.583 -15.398 -0.72500002 0
41.798 -15.328 -0.72799999 0
41.917999 -15.298 -0.73100001 0
36.717999 -13.266 -0.61400002 0
42.174999 -15.092 -0.73400003 0
37.331001 -13.223 -0.625 0
37.462002 -13.137 -0.62699997 0
42.546001 -14.774 -0.73900002 0
42.734001 -14.689 -0.74199998 0
38.535 -13.175 -0.64899999 0
42.974998 -14.546 -0.74599999 0
37.352001 -12.248 -0.61900002 0
37.366001 -12.123 -0.61900002 0.059999999
37.662998 -12.088 -0.62400001 0.11
37.620998 -11.945 -0.62300003 0
38.535 -12.169 -0.64200002 0
42.327 -13.223 -0.72500002 0
42.591999 -13.159 -0.73000002 0
43.243 -13.212 -0.74299997 0.079999998
43.509998 -13.144 -0.74800003 0
43.990002 -13.139 -0.75800002 0
44.751999 -13.214 -0.773 0
45.212002 -13.273 -0.78299999 0
45.616001 -13.236 -0.79100001 0
46.111 -13.223 -0.801 0
46.596001 -13.204 -0.81 0
46.819 -13.109 -0.81400001 0
40.243 -11.128 -0.67000002 0
40.381001 -11.03 -0.67299998 0
39.907001 -10.832 -0.662 0
40.209 -10.779 -0.66799998 0
40.507 -10.723 -0.67400002 0
40.539001 -10.595 -0.67299998 0
40.909 -10.555 -0.68099999 0
41.362 -10.534 -0.69 0
41.917 -10.535 -0.70099998 0.090000004
42.148998 -10.523 -0.70599997 0.16
42.416 -10.449 -0.71100003 0.18000001
42.637001 -10.361 -0.71499997 0
43.027 -10.313 -0.72299999 0.07
43.879002 -10.372 -0.74000001 0.090000004
43.942001 -10.241 -0.741 0
44.144001 -10.142 -0.745 0
44.813 -10.222 -0.759 0.1
45.459 -10.22 -0.77200001 0.1
45.77 -10.139 -0.778 0
46.778 -10.209 -0.79900002 0
47.071999 -10.118 -0.80400002 0.079999998
47.645 -10.085 -0.81599998 0
48.334999 -10.073 -0.82999998 0
48.998001 -10.132 -0.84399998 0
49.536999 -10.081 -0.85500002 0
50.285999 -10.07 -0.87 0
51.264999 -10.099 -0.89099997 0
52.195999 -10.112 -0.91000003 0
52.987 -10.093 -0.926 0
53.452999 -10.008 -0.935 0
54.098 -10.041 -0.949 0
55.108002 -9.3360004 -0.96700001 0
54.952 -9.132 -0.963 0
55.251999 -9.0930004 -0.96899998 0
55.250999 -8.915 -0.96799999 0
55.384998 -8.7580004 -0.97100002 0
55.598 -8.6129999 -0.97500002 0
54.530998 -7.9219999 -0.94999999 0
55.073002 -7.3829999 -0.95999998 0
55.168999 -7.2199998 -0.96200001 0
55.362 -7.0679998 -0.96499997 0
56.355999 -7.0159998 -0.986 0
57.245998 -7.0359998 -1.0039999 0
58.780998 -6.289 -1.034 0
58.785 -6.1030002 -1.034 0
58.910999 -5.9289999 -1.036 0
58.686001 -5.8130002 -1.031 0
58.477001 -5.6069999 -1.027 0
57.742001 -4.9879999 -1.01 0
57.921001 -4.8200002 -1.0140001 0
57.247002 -4.3109999 -0.99900001 0
56.209999 -3.8770001 -0.97600001 0
59.027 -3.7 -1.035 0
59.098 -3.5190001 -1.036 0
51.103001 0.125 -1.128 0
51.130001 0.28600001 -1.1289999 0
51.139 0.76800001 -1.1289999 0
51.164001 0.84899998 -1.13 0
51.134998 1.0089999 -1.1289999 0
51.183998 1.171 -1.13 0
51.166 1.331 -1.13 0
51.199001 1.493 -1.131 0
51.230999 1.816 -1.132 0
51.327999 1.9 -1.135 0
51.296001 2.0610001 -1.1339999 0
51.289001 2.2219999 -1.1339999 0
51.316002 2.3840001 -1.135 0
51.192001 2.54 -1.132 0
51 2.691 -1.127 0
50.238998 7.1950002 -1.119 0.33000001
50.212002 7.3520002 -1.119 0
50.174999 7.5079999 -1.118 0
50.179001 7.6690001 -1.119 0
50.169998 7.8299999 -1.119 0
50.176998 7.9920001 -1.12 0
50.181 8.1549997 -1.1210001 0
50.224998 8.243 -1.123 0
50.264 8.4110003 -1.124 0
56.485001 9.6379995 -1.29 0
56.002998 9.7370005 -1.278 0
55.352001 9.8030005 -1.261 0
54.77 9.8769999 -1.247 0
54.174999 9.9449997 -1.232 0
53.548 10.004 -1.216 0.079999998
52.935001 9.9750004 -1.2 0.090000004
52.564999 10.076 -1.191 0.090000004
51.937 10.125 -1.175 0
51.370998 10.182 -1.161 0.07
50.931999 10.261 -1.15 0
50.410999 10.321 -1.137 0.12
49.764 10.351 -1.1210001 0.23
49.568001 10.391 -1.1160001 0.25999999
49.275002 10.491 -1.109 0.25999999
49.057999 10.606 -1.104 0.19
48.888 10.73 -1.101 0
48.703999 10.85 -1.097 0
33.721001 7.6160002 -0.69700003 0
32.881001 7.5879998 -0.67500001 0
32.561001 7.6220002 -0.667 0
32.266998 7.6599998 -0.66000003 0
32.008999 7.7049999 -0.65399998 0
31.778999 7.7550001 -0.648 0
31.577999 8.4989996 -0.648 0
27.766001 9.3269997 -0.55900002 0
27.011 9.3100004 -0.54000002 0
44.431999 15.488 -1.022 0.1
44.457001 15.654 -1.024 0.18000001
44.562 15.848 -1.029 0.14
36.553001 13.124 -0.80800003 0.14
36.598999 13.271 -0.81099999 0.22
36.620998 13.41 -0.81199998 0.1
35.895 13.207 -0.79299998 0.090000004
35.737 13.277 -0.78899997 0.17
35.173 13.192 -0.77499998 0.28999999
35.014 13.258 -0.77200001 0.23999999
34.768002 13.29 -0.76599997 0.16
34.616001 13.357 -0.76300001 0.14
34.394001 13.395 -0.75800002 0.14
34.242001 13.398 -0.75400001 0.13
35.632999 14.073 -0.79400003 0.12
33.556 13.373 -0.73699999 0.13
35.097 14.116 -0.78200001 0.14
35.497002 14.407 -0.79400003 0.14
35.136002 14.389 -0.78500003 0
36.880001 15.24 -0.83600003 0.07
33.506001 13.905 -0.741 0
33.424999 13.994 -0.74000001 0.1
35.380001 14.946 -0.79699999 0
33.470001 14.261 -0.74400002 0
19.483 8.3620005 -0.34799999 0
19.475 8.4309998 -0.34900001 0
19.455 8.4949999 -0.34900001 0
18.614 8.302 -0.32699999 0
18.614 8.3719997 -0.32699999 0
18.656 8.4619999 -0.329 0
18.648001 8.5279999 -0.33000001 0
18.639 8.5950003 -0.331 0
18.65 8.6719999 -0.33199999 0
17.695999 8.3280001 -0.30500001 0
17.114 8.3850002 -0.292 0
17.046 8.3839998 -0.29100001 0
16.993999 8.4250002 -0.28999999 0
17.046 8.9580002 -0.29699999 0
17.040001 9.0229998 -0.29800001 0
17.037001 9.0900002 -0.29899999 0
17.017 9.1479998 -0.29899999 0
17.025 9.2220001 -0.30000001 0
17.061001 9.276 -0.30199999 0
17.055 9.342 -0.30199999 0
17.080999 9.427 -0.30399999 0
17.094999 9.5050001 -0.30500001 0
17.132999 9.5970001 -0.30700001 0
24.337999 13.745 -0.52399999 0.11
24.215 13.776 -0.52200001 0.17
24.124001 13.774 -0.51999998 0.25999999
24.101 13.862 -0.51999998 0.47
23.729 13.747 -0.50999999 0.20999999
23.333 13.615 -0.5 0.33000001
23.266001 13.674 -0.49900001 0.16
23.198 13.732 -0.498 0.28
23.160999 13.809 -0.498 0.34
23.098 13.821 -0.49700001 0.34
22.961 13.836 -0.49399999 0.27000001
22.559999 13.691 -0.48300001 0.23
22.427999 13.708 -0.48100001 0.20999999
22.409 13.793 -0.48100001 0.18000001
27.985001 17.354 -0.65399998 0.30000001
27.819 17.372 -0.65100002 0.31
27.646999 17.386 -0.64700001 0.34
27.5 17.353001 -0.64300001 0.27000001
27.378 17.396999 -0.64099997 0.34999999
27.299 17.468 -0.63999999 0.43000001
27.139 17.485001 -0.63700002 0.18000001
26.941 17.478001 -0.63300002 0.38999999
26.813999 17.514999 -0.63 0.31999999
26.617001 17.506001 -0.62599999 0.17
26.382999 17.410999 -0.62 0.31
26.219999 17.422001 -0.616 0.33000001
26.056999 17.431999 -0.61299998 0.34999999
25.903999 17.447001 -0.61000001 0.34999999
25.747999 17.459999 -0.60699999 0.30000001
25.593 17.472 -0.60299999 0.34999999
25.462999 17.441999 -0.60000002 0.25999999
25.308001 17.452999 -0.597 0.31999999
25.166 17.472 -0.59399998 0.38999999
25.018999 17.486 -0.59100002 0.36000001
24.863001 17.493 -0.588 0.34
24.721001 17.51 -0.58499998 0.34999999
24.575001 17.523001 -0.58200002 0.31999999
24.459999 17.497999 -0.57999998 0.54000002
20.969 15.096 -0.46900001 0.23999999
20.868999 15.125 -0.46700001 0.34
20.740999 15.131 -0.465 0.28
20.681 15.187 -0.46399999 0.30000001
20.591 15.221 -0.463 0.49000001
20.474001 15.234 -0.461 0.36000001
20.353001 15.243 -0.458 0.36000001
20.257999 15.222 -0.456 0.38999999
20.136999 15.23 -0.454 0.30000001
20.030001 15.248 -0.45199999 0.37
19.943001 15.281 -0.44999999 0.19
19.768 15.245 -0.44600001 0.57999998
19.709 15.299 -0.44600001 0.41
19.509001 15.291 -0.442 0.56
19.344 15.26 -0.43799999 0.27000001
19.228001 15.267 -0.43599999 0.22
19.118 15.277 -0.433 0.17
19.004 15.285 -0.43099999 0.34
18.902 15.3 -0.42899999 0.11
18.792 15.309 -0.42699999 0.14
16.959999 13.857 -0.366 0.2
18.573 15.276 -0.42199999 0.23999999
18.440001 15.264 -0.41999999 0.51999998
16.871 14.052 -0.368 0.2
16.783001 14.068 -0.366 0.34999999
16.763 14.141 -0.36700001 0.41
16.743 14.215 -0.368 0.30000001
18.214001 15.516 -0.419 0.38999999
18.201 15.604 -0.41999999 0.22
16.187 13.963 -0.35299999 0.41999999
16.271999 14.125 -0.35699999 0.20999999
18.212999 15.915 -0.426 0.44999999
15.742 13.838 -0.34200001 0.20999999
18.212999 16.118 -0.42899999 0.31999999
18.247 16.198999 -0.43200001 0.36000001
18.247999 16.302999 -0.433 0.34999999
18.253 16.410999 -0.435 0.40000001
18.25 16.513 -0.43700001 0.33000001
15.527 14.132 -0.34299999 0.19
15.422 14.126 -0.34099999 0
15.43 14.223 -0.34299999 0
18.27 16.9 -0.44400001 0
18.267 17.004 -0.44600001 0
9.2320004 8.6309996 -0.125 0
9.1750002 8.6309996 -0.124 0
9.1630001 8.6750002 -0.124 0
18.277 17.448 -0.454 0
9.0830002 8.7069998 -0.123 0
9.0209999 8.7019997 -0.122 0
8.9809999 8.691 -0.121 0
8.9139996 8.6809998 -0.12 0
8.8669996 8.6890001 -0.119 0
8.8170004 8.6940002 -0.118 0
8.7510004 8.684 -0.117 0
8.7049999 8.6929998 -0.116 0
8.6560001 8.6969995 -0.115 0
8.6219997 8.691 -0.115 0
8.5769997 8.6990004 -0.114 0
8.5279999 8.7049999 -0.113 0
8.4899998 8.7200003 -0.113 0
8.467 8.7510004 -0.113 0
8.3800001 8.7159996 -0.111 0
8.2030001 8.585 -0.105 0
8.1689997 8.5769997 -0.104 0
8.3070002 8.7770004 -0.11 0
8.2200003 8.7399998 -0.108 0
8.0229998 8.5830002 -0.102 0
7.9520001 8.5609999 -0.1 0
7.9369998 8.599 -0.1 0.029999999
16.405001 17.927 -0.42899999 0.14
16.313999 17.882999 -0.42699999 0.13
14.02 15.461 -0.34 0.13
13.949 15.48 -0.33899999 0.2
14.107 15.755 -0.347 0
13.886 15.606 -0.34 0.090000004
16.167 18.292 -0.43200001 0.12
15.851 18.048 -0.42199999 0.22
15.781 18.024 -0.41999999 0.34999999
15.742 18.094999 -0.421 0.62
15.638 18.09 -0.419 0.33000001
15.537 18.087 -0.417 0.20999999
15.421 18.066 -0.41499999 0.20999999
15.255 17.986 -0.41 0.52999997
15.257 18.103001 -0.41299999 0
8.2159996 9.7609997 -0.12800001 0.059999999
8.1619997 9.7589998 -0.127 0.19
8.1350002 9.7889996 -0.127 0.27000001
8.073 9.776 -0.126 0.20999999
14.729 17.985001 -0.40099999 0.17
14.658 18.014 -0.40099999 0.33000001
14.569 18.02 -0.40000001 0.41
14.482 18.028 -0.398 0.41999999
14.428 18.018 -0.39700001 0.40000001
14.337 18.021 -0.396 0.41
14.244 18.018999 -0.39399999 0.41
14.151 18.018 -0.39300001 0.38999999
14.074 18.035999 -0.39199999 0.38999999
13.987 18.042 -0.391 0.38999999
13.897 18.041 -0.389 0.47
13.854 18.044001 -0.38800001 0.38
13.758 18.035999 -0.38699999 0.47999999
13.677 18.048 -0.38600001 0.38
13.593 18.054001 -0.38499999 0.38999999
13.512 18.063999 -0.384 0.38999999
13.419 18.056999 -0.382 0.47999999
13.356 18.091 -0.382 0.28
13.286 18.056 -0.38 0.49000001
13.21 18.070999 -0.37900001 0.30000001
13.123 18.070999 -0.37799999 0.47999999
13.063 18.107 -0.377 0.31999999
13.007 18.149 -0.37799999 0.5
13.078 18.371 -0.38299999 0.57999998
12.917 18.264999 -0.37900001 0.25
12.859 18.245001 -0.377 0.23
12.777 18.249001 -0.37599999 0.14
12.649 18.187 -0.373 0.33000001
12.561 18.181999 -0.37200001 0.55000001
12.496 18.209999 -0.37099999 0.58999997
12.458 18.277 -0.37200001 0.27000001
12.388 18.298 -0.37200001 0.23999999
12.191 18.191999 -0.366 0.41
12.07 18.132999 -0.36300001 0.43000001
11.988 18.132999 -0.36199999 0.41
11.911 18.139999 -0.361 0.41
11.833 18.146 -0.36000001 0.44
11.758 18.153999 -0.359 0.43000001
11.677 18.153999 -0.35800001 0.41999999
11.633 18.149 -0.35699999 0.43000001
11.564 18.167 -0.35699999 0.34999999
11.466 18.136999 -0.35499999 0.63999999
9.8439999 15.673 -0.278 0.23
9.7810001 15.682 -0.27700001 0.40000001
9.7130003 15.682 -0.27599999 0.38999999
9.6529999 15.696 -0.27599999 0.38999999
9.6160002 15.69 -0.27500001 0.34
9.5480003 15.69 -0.27399999 0.44999999
9.5109997 15.74 -0.27500001 0.31
9.4519997 15.754 -0.27399999 0.41999999
9.3979998 15.777 -0.27399999 0.36000001
9.3339996 15.783 -0.273 0.41
9.276 15.796 -0.273 0.47999999
9.6040001 16.417 -0.29100001 0.28999999
9.6120005 16.549 -0.294 0.36000001
9.6120005 16.669001 -0.29699999 0.30000001
9.6160002 16.798 -0.30000001 0.36000001
9.6160002 16.923 -0.303 0.34
9.6280003 17.068001 -0.30599999 0.34
9.6230001 17.184999 -0.30899999 0.19
8.8000002 15.828 -0.26800001 0.28999999
8.7519999 15.8 -0.266 0.49000001
8.6999998 15.822 -0.266 0.20999999
8.6090002 15.774 -0.264 0.55000001
8.6750002 16.016001 -0.27000001 0
8.5089998 15.826 -0.264 0.12
8.4540005 15.844 -0.264 0.11
