# .PCD v0.7 - Point Cloud Data file format
VERSION 0.7
FIELDS x y z intensity
SIZE 4 4 4 4
TYPE F F F F
COUNT 1 1 1 1
WIDTH 1492
HEIGHT 1
VIEWPOINT 0 0 0 1 0 0 0
POINTS 1492
DATA ascii
-44.692001 -10.193 -1.563 0
-44.709999 -10.346 -1.5650001 0
-44.536999 -10.453 -1.5599999 0
-44.404999 -10.569 -1.556 0
-44.173 -10.587 -1.5470001 0.059999999
-44.054001 -10.705 -1.544 0.079999998
-43.91 -10.816 -1.539 0.090000004
-43.726002 -10.917 -1.533 0.16
-43.591 -11.028 -1.529 0.17
-43.418999 -11.13 -1.524 0.1
-43.292999 -11.17 -1.52 0.14
-43.125999 -11.272 -1.5140001 0.23
-34.778 -9.3190002 -1.184 0.33000001
-30.646 -8.415 -1.021 0
-42.411999 -11.8 -1.493 0.15000001
-42.285999 -11.908 -1.49 0.12
-20.879999 -5.9720001 -0.63300002 0.81999999
-20.629 -5.9710002 -0.62400001 0.91000003
-20.466 -5.993 -0.61799997 0.77999997
-20.478001 -6.066 -0.61900002 0.38
-20.754 -6.2189999 -0.63099998 0
-41.549 -12.55 -1.469 0.13
-41.570999 -12.699 -1.472 0
-41.744999 -12.896 -1.48 0
-41.792 -13.054 -1.484 0
-41.738998 -13.182 -1.483 0
-41.737 -13.326 -1.485 0
-41.749001 -13.474 -1.487 0
-41.759998 -13.55 -1.488 0
-41.73 -13.686 -1.489 0
-41.667999 -13.81 -1.488 0
-41.636002 -13.945 -1.489 0
-41.575001 -14.07 -1.488 0
-41.521 -14.197 -1.488 0
-41.494999 -14.261 -1.487 0
-41.429001 -14.384 -1.487 0
-41.356998 -14.505 -1.4859999 0
-41.292999 -14.628 -1.485 0
-41.194 -14.739 -1.483 0
-41.112 -14.855 -1.4809999 0
-41.027 -14.971 -1.48 0
-40.964001 -15.021 -1.478 0
-39.320999 -14.698 -1.414 0
-40.807999 -15.401 -1.477 0
-40.729 -15.518 -1.476 0
-40.608002 -15.618 -1.473 0
-40.550999 -15.742 -1.473 0
-40.485001 -15.79 -1.471 0
-40.339001 -15.879 -1.467 0
-40.25 -15.99 -1.466 0.07
-40.167999 -16.104 -1.464 0.079999998
-40.006001 -16.184999 -1.46 0.14
-20.141001 -8.2080002 -0.634 0.11
-20.093 -8.2989998 -0.634 0.58999997
-20.066999 -8.3620005 -0.634 0.47
-39.619999 -16.684 -1.4529999 0.11
-39.473999 -16.768999 -1.449 0.14
-37.875999 -16.23 -1.385 0.27000001
-37.735001 -16.309999 -1.381 0.25999999
-39.268002 -17.120001 -1.447 0.11
-39.181 -17.155001 -1.4450001 0.17
-39.000999 -17.222 -1.4400001 0.25
-37.643002 -16.764 -1.385 0
-38.303001 -17.202 -1.415 0
-38.160999 -17.283001 -1.411 0.12
-38.342999 -17.511 -1.421 0.16
-38.325001 -17.575001 -1.421 0.31999999
-38.252998 -17.688 -1.421 0.2
-38.108002 -17.767 -1.4170001 0.34
-38.152 -17.933001 -1.421 0.16
-38.028999 -18.021 -1.418 0.14
-37.907001 -18.108999 -1.415 0.17
-37.673 -18.143 -1.408 0.30000001
-37.846001 -18.299999 -1.4170001 0.14
-36.248001 -17.667 -1.35 0.15000001
-37.562 -18.455 -1.409 0.14
-37.493 -18.566999 -1.409 0.20999999
-37.52 -18.728001 -1.413 0.17
-37.348999 -18.789 -1.408 0.23
-37.376999 -18.950001 -1.411 0.2
-37.402 -19.037001 -1.414 0.22
-37.317001 -19.142 -1.413 0.20999999
-37.313999 -19.288 -1.415 0.23
-37.227001 -19.392 -1.414 0.20999999
-37.171001 -19.511 -1.414 0.23
-37.157001 -19.653 -1.416 0.18000001
-36.994999 -19.716 -1.4119999 0.31999999
-36.923 -19.753 -1.41 0.19
-36.828999 -19.851 -1.409 0.34
-36.716 -19.938999 -1.4069999 0.19
-36.618 -20.035 -1.405 0.23999999
-36.521 -20.132 -1.404 0.20999999
-36.393002 -20.211 -1.401 0.20999999
-36.334999 -20.253 -1.4 0.18000001
-36.243999 -20.351999 -1.398 0.31999999
-36.117001 -20.43 -1.396 0.2
-36.129002 -20.587 -1.399 0.17
-35.984001 -20.653999 -1.395 0.31
-35.862 -20.733999 -1.393 0.27000001
-35.832001 -20.867001 -1.3940001 0.25999999
-35.754002 -20.896999 -1.392 0.27000001
-35.707001 -21.02 -1.393 0.2
-35.612 -21.115 -1.392 0.19
-35.533001 -21.219999 -1.391 0.20999999
-35.437 -21.313999 -1.39 0.18000001
-35.462002 -21.481001 -1.3940001 0.30000001
-35.404999 -21.599001 -1.395 0.20999999
-35.327999 -21.628 -1.393 0.22
-35.210999 -21.708 -1.391 0.18000001
-35.012001 -21.738001 -1.385 0.23999999
-34.952999 -21.854 -1.385 0.2
-34.877998 -21.959 -1.385 0.20999999
-34.855999 -22.099001 -1.387 0.19
-34.852001 -22.173 -1.388 0.20999999
-34.799 -22.292999 -1.3890001 0.18000001
-34.701 -22.385 -1.388 0.13
-34.675999 -22.523001 -1.39 0.17
-34.569 -22.608 -1.388 0.30000001
-34.356998 -22.624001 -1.382 0.19
-34.521 -22.888 -1.393 0.16
-34.09 -22.679001 -1.374 0.16
-34.169998 -22.888 -1.381 0.23
-33.971001 -22.909 -1.375 0.25999999
-33.912998 -23.025 -1.376 0.11
-34.016998 -23.253 -1.3839999 0.079999998
-33.824001 -23.277 -1.3789999 0.14
-33.775002 -23.4 -1.38 0.11
-33.974998 -23.617001 -1.391 0.17
-33.984001 -23.782 -1.395 0.12
-34.046001 -23.986 -1.401 0.17
-34.022999 -24.129999 -1.404 0.23
-33.946999 -24.236 -1.404 0.19
-33.778 -24.275999 -1.4 0.12
-33.688 -24.372999 -1.399 0.15000001
-33.696999 -24.459999 -1.401 0.28
-33.751999 -24.663 -1.4069999 0.25999999
-33.720001 -24.802 -1.41 0.2
-33.601002 -24.878 -1.408 0.18000001
-33.581001 -25.025999 -1.41 0.12
-33.464001 -25.103001 -1.409 0.17
-33.307999 -25.066999 -1.403 0.27000001
-33.403999 -25.305 -1.411 0.19
-33.443001 -25.500999 -1.4170001 0.18000001
-33.365002 -25.607 -1.4170001 0.23999999
-33.249001 -25.684999 -1.416 0.2
-33.249001 -25.851999 -1.42 0.2
-33.172001 -25.959999 -1.42 0.36000001
-33.174 -26.045 -1.4220001 0.18000001
-33.118999 -26.17 -1.423 0.36000001
-33.089001 -26.316 -1.426 0.19
-33.049 -26.454 -1.428 0.37
-32.995998 -26.583 -1.429 0.18000001
-32.868 -26.65 -1.427 0.37
-32.841 -26.714001 -1.428 0.19
-32.776001 -26.832001 -1.429 0.34
-32.727001 -26.964001 -1.431 0.18000001
-32.657001 -27.08 -1.431 0.15000001
-30.191999 -25.193001 -1.312 0.11
-32.595001 -27.375999 -1.437 0.37
-32.568001 -27.528 -1.4400001 0.19
-32.495998 -27.555 -1.438 0.38
-32.480999 -27.718 -1.442 0.22
-32.451 -27.868999 -1.4450001 0.2
-32.401001 -28.004 -1.447 0.38
-32.383999 -28.167 -1.451 0.18000001
-32.321999 -28.292 -1.452 0.36000001
-32.265999 -28.423 -1.454 0.19
-32.258999 -28.507 -1.456 0.36000001
-32.201 -28.636 -1.457 0.2
-32.141998 -28.764999 -1.459 0.33000001
-32.068001 -28.879999 -1.46 0.18000001
-31.997 -29 -1.461 0.36000001
-31.955999 -29.146 -1.4630001 0.20999999
-31.936001 -29.219 -1.465 0.34
-31.867001 -29.341 -1.466 0.19
-31.763 -29.43 -1.465 0.34
-31.736 -29.591 -1.469 0.17
-31.68 -29.725 -1.471 0.14
-6.322 -5.9780002 -0.131 0.28999999
-6.2750001 -5.9530001 -0.12899999 0.31999999
-6.256 -5.9720001 -0.12899999 0.34999999
-6.2329998 -5.9879999 -0.12899999 0.22
-6.2020001 -5.9949999 -0.12899999 0.5
-6.1859999 -6.0170002 -0.12899999 0.34999999
-6.165 -6.0349998 -0.12899999 0.41
-6.1599998 -6.0679998 -0.12899999 0.31999999
-6.178 -6.105 -0.131 0.5
-31.035 -31.01 -1.487 0.18000001
-30.983 -31.153 -1.49 0.36000001
-30.906 -31.271999 -1.4910001 0.20999999
-30.844999 -31.407 -1.493 0.23999999
-30.809 -31.568001 -1.4960001 0.20999999
-30.747 -31.704 -1.499 0.19
-30.684999 -31.739 -1.498 0.38999999
-30.666 -31.919001 -1.502 0.20999999
-30.615999 -32.069 -1.505 0.25
-30.549999 -32.201 -1.507 0.20999999
-30.452 -32.300999 -1.507 0.19
-30.389 -32.437 -1.5089999 0.38999999
-30.361 -32.509998 -1.511 0.2
-30.332001 -32.683998 -1.515 0.38
-30.292999 -32.848999 -1.5190001 0.19
-30.226 -32.983002 -1.521 0.31999999
-30.114 -33.069 -1.52 0.19
-30.049 -33.207001 -1.522 0.36000001
-29.978001 -33.338001 -1.524 0.19
-29.975 -33.439999 -1.527 0.36000001
-29.903999 -33.573002 -1.529 0.20999999
-29.813 -33.682999 -1.53 0.25
-29.735001 -33.807999 -1.5319999 0.20999999
-29.665001 -33.944 -1.534 0.22
-29.618 -34.105 -1.5369999 0.18000001
-29.538 -34.229 -1.539 0.22
-29.516001 -34.313999 -1.541 0.19
-29.452999 -34.458 -1.543 0.20999999
-29.417999 -34.637001 -1.548 0.18000001
-29.316999 -34.738998 -1.548 0.30000001
-29.292 -34.931999 -1.553 0.2
-29.224001 -35.074001 -1.556 0.19
-29.247999 -35.215 -1.561 0.28
-29.177 -35.355 -1.563 0.2
-29.070999 -35.452999 -1.563 0.18000001
-29.038 -35.639999 -1.568 0.30000001
-28.945999 -35.756001 -1.569 0.2
-28.872999 -35.896 -1.572 0.17
-28.799999 -36.036999 -1.574 0.31999999
-28.806 -36.16 -1.5779999 0.2
-28.747 -36.32 -1.582 0.18000001
-28.643 -36.424 -1.582 0.31999999
-28.579 -36.577999 -1.585 0.20999999
-28.479 -36.687 -1.586 0.19
-28.372 -36.786999 -1.587 0.12
-28.305 -36.939999 -1.59 0.17
-28.316999 -37.076 -1.594 0
-28.174 -37.130001 -1.5930001 0
-2.8699999 -3.793 0.021 0
-28.129999 -37.316002 -1.597 0
-2.8640001 -3.8099999 0.02 0
-2.8429999 -3.8080001 0.021 0.1
-2.8280001 -3.812 0.021 0.13
-2.734 -3.6949999 0.027000001 0
-2.7980001 -3.809 0.022 0
-2.8010001 -3.839 0.021 0
-2.7920001 -3.8510001 0.021 0.059999999
-27.620001 -38.75 -1.63 0.17
-27.488001 -38.821999 -1.63 0.11
-27.516001 -38.991001 -1.636 0
-27.419001 -39.115002 -1.637 0
-27.381001 -39.321999 -1.643 0
-27.273001 -39.431 -1.6440001 0
-27.18 -39.561001 -1.646 0
-27.055 -39.646 -1.646 0
-26.986 -39.813999 -1.65 0
-26.955999 -39.903999 -1.652 0
-26.875999 -40.056999 -1.656 0
-26.757999 -40.153 -1.656 0
-26.538 -40.095001 -1.65 0
-26.493999 -40.303001 -1.655 0
-24.264 -37.160999 -1.507 0
-24.278 -37.308998 -1.512 0
-24.259001 -37.537998 -1.5190001 0
-24.046 -37.466 -1.512 0
-23.93 -37.544998 -1.512 0
-23.847 -37.674999 -1.515 0.07
-23.823 -37.901001 -1.522 0.14
-23.757 -38.060001 -1.526 0.22
-23.653 -38.026001 -1.522 0.11
-23.589001 -38.191002 -1.526 0.16
-23.525 -38.356998 -1.531 0.16
-23.528999 -38.634998 -1.54 0.23
-23.382 -38.666 -1.538 0.11
-23.33 -38.855999 -1.543 0.17
-23.250999 -39.000999 -1.546 0.28999999
-23.215 -39.081001 -1.548 0.2
-23.132999 -39.222 -1.551 0.18000001
-23.035 -39.338001 -1.553 0.13
-22.979 -39.528 -1.559 0.18000001
-22.947001 -39.758999 -1.566 0.30000001
-22.878 -39.93 -1.5700001 0.19
-22.877001 -40.073002 -1.575 0
-9.0760002 -16.1 -0.50800002 0
-22.712 -40.668999 -1.592 0
-22.59 -40.752998 -1.592 0
-8.8050003 -15.97 -0.49900001 0
-8.7329998 -15.957 -0.49700001 0
-8.7309999 -16.013 -0.49900001 0
-8.6549997 -15.993 -0.49700001 0
-8.5950003 -16.002001 -0.49599999 0
-8.5100002 -15.964 -0.493 0
-8.4379997 -15.95 -0.49200001 0
-8.3859997 -15.972 -0.491 0
-8.3190002 -15.965 -0.49000001 0
-8.2600002 -15.912 -0.48699999 0
-8.1949997 -15.91 -0.486 0
-8.1129999 -15.873 -0.48300001 0
-8.0559998 -15.884 -0.48300001 0
-7.9790001 -15.856 -0.47999999 0
-7.9310002 -15.885 -0.47999999 0
-7.862 -15.87 -0.479 0
-7.8169999 -15.843 -0.477 0
-7.7620001 -15.857 -0.477 0.16
-7.7529998 -15.965 -0.47999999 0.14
-7.974 -16.688999 -0.509 0.92000002
-7.9850001 -16.847 -0.51499999 0.94999999
-7.9130001 -16.761999 -0.51099998 0.86000001
-7.6069999 -16.245001 -0.48800001 0.19
-7.4499998 -16.041 -0.47799999 0.11
-7.4229999 -16.115 -0.47999999 0.31999999
-7.375 -16.143999 -0.47999999 0
-7.1160002 -15.706 -0.461 0.090000004
-7.329 -16.384001 -0.48800001 0.23999999
-7.2750001 -16.399 -0.48800001 0.37
-7.2140002 -16.402 -0.48699999 0.61000001
-7.1459999 -16.386 -0.48500001 0.28999999
-7.0840001 -16.384001 -0.484 0.19
-7.0469999 -16.440001 -0.486 0.28999999
-7.0019999 -16.478001 -0.486 0.36000001
-6.974 -16.483999 -0.486 0.52999997
-6.9439998 -16.559 -0.48800001 0.58999997
-6.9549999 -16.732 -0.495 0.12
-6.8660002 -16.665001 -0.491 0.19
-6.8559999 -16.790001 -0.495 0.68000001
-6.8520002 -16.934 -0.5 0
-6.9159999 -17.327 -0.51499999 0
-6.8629999 -17.354 -0.51499999 0
-6.8099999 -17.377001 -0.51599997 0
-6.7639999 -17.421 -0.51599997 0
-6.717 -17.464001 -0.51700002 0
-6.6259999 -17.638 -0.52200001 0.31999999
-6.6059999 -17.754999 -0.52600002 0.41999999
-6.5489998 -17.773001 -0.52600002 0.43000001
-6.4819999 -17.764 -0.52499998 0.55000001
-6.4369998 -17.813999 -0.52600002 0.66000003
-6.4460001 -17.927999 -0.52999997 0.28
-6.4089999 -18.000999 -0.53299999 0.44
-6.375 -18.084999 -0.53500003 0.34999999
-6.3429999 -18.177 -0.53799999 0.5
-6.3150001 -18.283001 -0.542 0.28999999
-6.2810001 -18.368999 -0.54400003 0.5
-6.257 -18.490999 -0.54900002 0.37
-6.2579999 -18.59 -0.55199999 0.46000001
-6.2249999 -18.687 -0.55500001 0.37
-6.198 -18.804001 -0.55900002 0.44999999
-6.1690001 -18.914 -0.56300002 0.38
-6.1389999 -19.027 -0.56699997 0.44999999
-6.112 -19.149 -0.57099998 0.34999999
-6.0809999 -19.259001 -0.57499999 0.43000001
-6.0840001 -19.375999 -0.579 0.36000001
-6.052 -19.488001 -0.583 0.41999999
-6.0229998 -19.612 -0.58700001 0.38999999
-5.993 -19.735001 -0.59100002 0.41
-5.9640002 -19.864 -0.59600002 0.31999999
-5.928 -19.975 -0.59899998 0.46000001
-5.902 -20.118 -0.60399997 0.25999999
-5.8979998 -20.223 -0.60799998 0.62
-5.9200001 -20.538 -0.62 0
-14.731 -51.863998 -1.874 0
-14.601 -52.027 -1.8789999 0
-14.473 -52.200001 -1.8839999 0
-14.327 -52.311001 -1.887 0
-14.275 -52.443001 -1.891 0
-11.762 -48.254002 -1.711 0
-11.646 -48.439999 -1.717 0
-11.56 -48.755001 -1.728 0
-11.403 -48.775002 -1.727 0
-11.358 -48.926998 -1.732 0
-11.258 -49.201 -1.742 0
-11.08 -49.132 -1.738 0
-10.944 -49.250999 -1.7410001 0
-10.823 -49.438999 -1.747 0
-10.746 -49.834 -1.761 0
-10.633 -50.075001 -1.7690001 0.07
-10.564 -50.139 -1.771 0.090000004
-10.416 -50.216999 -1.773 0.079999998
-10.349 -50.695999 -1.791 0.2
-3.825 -19.275 -0.55400002 0.44
-3.7579999 -19.252001 -0.55199999 0.23
-3.6860001 -19.205 -0.55000001 0.17
-3.6289999 -19.065001 -0.54400003 0.44999999
-3.5799999 -19.135 -0.546 0.44
-3.533 -19.223 -0.54900002 0.28
-3.471 -19.224001 -0.54900002 0.30000001
-3.4030001 -19.190001 -0.54699999 0.25
-3.381 -19.421 -0.55599999 0
-9.2600002 -53.967999 -1.9069999 0
-9.1440001 -54.318001 -1.919 0
-9.0299997 -54.688 -1.933 0
-8.9189997 -55.095001 -1.948 0
-8.8000002 -55.466 -1.961 0
-8.6780005 -55.825001 -1.974 0
-8.5200005 -55.973 -1.979 0
-8.5050001 -56.472 -1.998 0
-8.3900003 -56.917999 -2.0139999 0
-8.2469997 -57.193001 -2.0239999 0
-8.0749998 -57.278 -2.026 0
-7.9070001 -57.391998 -2.029 0
-7.7399998 -57.515999 -2.033 0
-7.5780001 -57.676998 -2.039 0
-7.4970002 -57.764 -2.0409999 0
-7.3330002 -57.925999 -2.0469999 0
-7.1630001 -58.049999 -2.0510001 0
-5.8649998 -58.924999 -2.079 0
-5.6880002 -59.023998 -2.082 0
-5.5139999 -59.167 -2.0869999 0
-3.8770001 -59.889999 -2.1099999 0
-3.7030001 -60.131001 -2.118 0
-3.5280001 -60.382 -2.128 0
-3.345 -60.528 -2.1329999 0
-3.2579999 -60.679001 -2.138 0
0.68199998 -63.311001 -2.237 0
0.88999999 -63.919998 -2.26 0
1.098 -64.346001 -2.277 0
2.4760001 -31.096001 -0.99900001 0.11
2.529 -30.548 -0.97799999 0.19
2.6289999 -30.591999 -0.98000002 0.37
2.7320001 -30.657 -0.98299998 0.43000001
2.835 -30.719999 -0.98500001 0.28999999
2.938 -30.778999 -0.98799998 0.54000002
3.0639999 -31.062 -0.99900001 0
3.0940001 -30.868 -0.99199998 0
9.4160004 -67.004997 -2.404 0
9.6029997 -67.568001 -2.427 0
8.6429996 -59.490002 -2.1129999 0
10.121 -68.130997 -2.451 0
10.473 -69.005997 -2.487 0
10.845 -69.975998 -2.526 0
8.1339998 -51.459999 -1.804 0
7.8470001 -49.150002 -1.715 0
7.973 -48.953999 -1.7079999 0
8.1309996 -48.952 -1.709 0
8.0480003 -47.528999 -1.654 0
8.1599998 -47.292999 -1.646 0.090000004
8.283 -47.122002 -1.64 0
1.596 -8.7969999 -0.141 0.44
1.624 -8.7919998 -0.141 0.27000001
1.66 -8.8319998 -0.142 0.72000003
1.729 -9.0369997 -0.15099999 0
7.362 -37.411999 -1.266 0.1
7.5549998 -37.769001 -1.281 0.23
7.5409999 -37.390999 -1.266 0.16
7.5890002 -37.029999 -1.253 0.41999999
7.6409998 -36.699001 -1.2410001 0.23
7.717 -36.488998 -1.234 0.18000001
7.7639999 -36.153999 -1.221 0.40000001
7.8080001 -35.811001 -1.209 0.25
7.8140001 -35.57 -1.2 0.27000001
7.882 -35.348999 -1.192 0.28999999
7.9559999 -35.16 -1.186 0.25
7.9959998 -34.831001 -1.174 0.28
8.0749998 -34.673 -1.168 0.27000001
8.1599998 -34.549 -1.164 0.28999999
8.1969995 -34.462002 -1.1619999 0.31999999
8.2889996 -34.372002 -1.159 0.27000001
8.3789997 -34.27 -1.156 0.31999999
8.4689999 -34.175999 -1.153 0.28999999
8.552 -34.049999 -1.149 0.27000001
8.632 -33.917999 -1.145 0.30000001
8.7320004 -33.863998 -1.1440001 0.31999999
8.7700005 -33.793999 -1.142 0.28
8.8570004 -33.695 -1.1390001 0.31999999
8.9549999 -33.633999 -1.138 0.28999999
9.0439997 -33.548 -1.135 0.33000001
9.1499996 -33.521 -1.136 0.28999999
9.25 -33.473 -1.135 0.28999999
9.3400002 -33.388 -1.133 0.28999999
9.3889999 -33.362 -1.132 0.31999999
9.4910002 -33.325001 -1.132 0.28
9.5959997 -33.292999 -1.132 0.30000001
9.698 -33.255001 -1.131 0.31999999
9.8009996 -33.220001 -1.131 0.30000001
9.9029999 -33.18 -1.131 0.28
10.006 -33.145 -1.131 0.30000001
10.055 -33.118999 -1.13 0.28999999
10.16 -33.091 -1.13 0.31
10.262 -33.054001 -1.13 0.28999999
10.367 -33.025002 -1.13 0.30000001
10.465 -32.973 -1.13 0.31999999
10.582 -32.984001 -1.131 0.27000001
10.626 -32.943001 -1.13 0.27000001
10.728 -32.903 -1.13 0.28999999
10.833 -32.875 -1.13 0.28999999
10.935 -32.837002 -1.13 0.31
11.037 -32.799 -1.13 0.33000001
11.145 -32.780998 -1.131 0.28999999
11.251 -32.752998 -1.131 0.34999999
11.317 -32.778999 -1.133 0.31
11.432 -32.775002 -1.1339999 0.30000001
11.54 -32.754002 -1.135 0.27000001
11.655 -32.754002 -1.136 0.31999999
11.785 -32.792 -1.1390001 0.27000001
11.888 -32.755001 -1.1390001 0.34
12.015 -32.783001 -1.142 0.28
12.071 -32.776001 -1.142 0.28
12.197 -32.799 -1.145 0.31999999
12.32 -32.814999 -1.147 0.30000001
12.454 -32.856998 -1.151 0.28
12.599 -32.926998 -1.155 0.28999999
12.713 -32.916 -1.156 0.30000001
12.792 -32.964001 -1.159 0.23999999
8.3260002 -21.282 -0.67699999 0.23
8.2989998 -21.02 -0.667 0.36000001
8.2679996 -20.750999 -0.65700001 0.16
8.2620001 -20.548 -0.64999998 0.46000001
8.3439999 -20.565001 -0.65200001 0.33000001
8.408 -20.539 -0.65200001 0.47
8.4499998 -20.548 -0.65200001 0.34999999
8.5170002 -20.525999 -0.653 0.47
8.5959997 -20.535 -0.65399998 0.38999999
8.6590004 -20.506001 -0.65399998 0.5
8.7390003 -20.513 -0.65600002 0.36000001
8.8100004 -20.502001 -0.65600002 0.47999999
8.8540001 -20.514 -0.65700001 0.36000001
8.9200001 -20.492001 -0.65799999 0.46000001
9.0019999 -20.502001 -0.65899998 0.34999999
9.0679998 -20.476999 -0.65899998 0.47999999
9.1450005 -20.478001 -0.66100001 0.36000001
9.2200003 -20.473 -0.662 0.46000001
9.2919998 -20.462 -0.662 0.40000001
9.3240004 -20.445 -0.662 0.60000002
16.648001 -36.155998 -1.33 0.38
16.802 -36.189999 -1.334 0.25
16.924999 -36.159 -1.335 0.20999999
17.044001 -36.116001 -1.336 0.38
17.174999 -36.098999 -1.337 0.20999999
17.294001 -36.056999 -1.3380001 0.20999999
17.389 -36.109001 -1.341 0.38
17.5 -36.049 -1.341 0.20999999
17.694 -36.159 -1.348 0.16
17.858999 -36.209 -1.352 0.38999999
17.954 -36.115002 -1.351 0.23
18.101 -36.124001 -1.354 0.2
18.193001 -36.166 -1.357 0.41
18.306 -36.108002 -1.357 0.25
18.479 -36.166 -1.362 0.18000001
18.607 -36.136002 -1.363 0.41
18.698999 -36.036999 -1.3609999 0.23999999
18.882999 -36.112999 -1.367 0.19
19.016001 -36.09 -1.369 0.41999999
19.120001 -36.150002 -1.372 0.2
19.305 -36.223999 -1.378 0.37
19.459999 -36.241001 -1.382 0.23
8.7119999 -16.132 -0.50300002 0.20999999
8.9020004 -16.361 -0.514 0
20.129 -36.651001 -1.408 0
26.364 -47.810001 -1.901 0
26.378 -47.133999 -1.878 0
26.223 -46.513 -1.854 0
26.125999 -46.002998 -1.835 0
25.996 -45.442001 -1.814 0
7.4070001 -12.752 -0.36500001 0.56
7.527 -12.864 -0.37099999 0
7.4899998 -12.71 -0.36500001 0
27.469999 -46.148998 -1.8660001 0
27.608999 -46.051998 -1.8660001 0
27.601999 -45.715 -1.855 0
27.49 -45.368 -1.841 0
27.341999 -44.806999 -1.819 0
27.275 -44.382 -1.804 0
27.134001 -43.844002 -1.784 0
26.975 -43.284 -1.762 0
28.627001 -45.453999 -1.867 0
28.832001 -45.462002 -1.8710001 0
28.902 -45.256001 -1.8660001 0
28.885 -44.917999 -1.855 0
28.865999 -44.581001 -1.8430001 0
28.816 -44.199001 -1.83 0
28.671 -43.676998 -1.8099999 0
28.497 -43.263 -1.793 0
28.361 -42.764 -1.774 0
29.438 -43.786999 -1.83 0
29.441999 -43.497002 -1.821 0
29.500999 -43.291 -1.8150001 0
29.541 -43.058998 -1.809 0
29.454 -42.787998 -1.798 0
29.423 -42.457001 -1.7869999 0
29.462 -42.23 -1.781 0
29.511 -42.018002 -1.775 0.07
29.499001 -41.722 -1.766 0
29.598 -41.584 -1.7640001 0
29.517 -41.333 -1.7539999 0.13
29.448999 -40.966 -1.7410001 0.090000004
29.448 -40.693001 -1.732 0.090000004
29.437 -40.411999 -1.723 0.15000001
29.393 -40.084999 -1.712 0.16
29.361 -39.778999 -1.702 0.17
29.333 -39.480999 -1.692 0.18000001
29.254 -39.245998 -1.683 0.17
29.285999 -39.033001 -1.677 0.17
29.367001 -38.886002 -1.674 0.16
29.357 -38.619999 -1.666 0.1
29.312 -38.311001 -1.656 0.14
8.8950005 -11.543 -0.35800001 0.22
8.901 -11.476 -0.35600001 0.68000001
8.96 -11.477 -0.35699999 0.34
29.636 -37.620998 -1.642 0.23
29.679001 -37.431999 -1.638 0.25999999
29.764 -37.298 -1.636 0.25
29.858999 -37.178001 -1.6339999 0.23999999
29.834999 -37.028 -1.6289999 0.23999999
29.924999 -36.902 -1.627 0.25999999
29.979 -36.731998 -1.624 0.18000001
29.988001 -36.508999 -1.617 0.17
29.997 -36.286999 -1.6109999 0.18000001
30.094 -36.173 -1.61 0.16
30.087 -36.049 -1.6059999 0.17
30.202 -35.956001 -1.6059999 0.16
30.243 -35.777 -1.602 0.1
30.239 -35.543999 -1.595 0.15000001
30.336 -35.432999 -1.594 0.16
30.399 -35.280998 -1.591 0.23
30.445999 -35.112 -1.5880001 0.25
30.429001 -34.980999 -1.5829999 0.1
30.483999 -34.823002 -1.58 0.15000001
30.521 -34.645 -1.576 0.16
30.611 -34.528 -1.575 0.17
30.613001 -34.312 -1.569 0.17
30.643999 -34.131001 -1.564 0.18000001
30.757999 -34.042 -1.5650001 0.1
30.698999 -33.869999 -1.558 0.15000001
30.747 -33.709999 -1.5549999 0.1
30.709 -33.457001 -1.5470001 0.15000001
30.627001 -33.158001 -1.536 0.12
30.806999 -33.143002 -1.54 0.12
13.201 -14.09 -0.54000002 0.37
13.223 -14.025 -0.53899997 0.38999999
13.267 -13.983 -0.53899997 0.41999999
13.331 -13.963 -0.54000002 0.44999999
13.408 -13.956 -0.542 0.47
31.006001 -32.021 -1.5140001 0.25
31.118999 -31.936001 -1.515 0.16
31.087 -31.802999 -1.51 0.14
31.069 -31.586 -1.5039999 0.17
31.096001 -31.415001 -1.5 0.30000001
31.049 -31.172001 -1.492 0.16
31.202 -31.129 -1.495 0.36000001
31.101 -30.834 -1.484 0.27000001
30.815001 -30.455 -1.466 0.14
12.096 -11.902 -0.44999999 0.14
12.116 -11.847 -0.449 0.44999999
12.136 -11.792 -0.44800001 0.44999999
12.17 -11.751 -0.44800001 0.34
30.785999 -29.485001 -1.439 0.20999999
30.945 -29.452 -1.443 0.2
30.875999 -29.295 -1.437 0.28999999
30.746 -28.988001 -1.425 0.20999999
30.641001 -28.708 -1.415 0.20999999
30.709 -28.591 -1.413 0.14
30.73 -28.431 -1.41 0.16
30.978001 -28.48 -1.418 0.12
31.032 -28.35 -1.416 0.14
30.702 -27.961 -1.397 0.17
30.941 -28.002001 -1.405 0.17
31.132999 -27.997999 -1.41 0.13
31.135 -27.823 -1.406 0.16
30.610001 -27.181999 -1.374 0.23
30.802999 -27.181 -1.38 0.11
30.697001 -27.002001 -1.372 0.28
30.877001 -26.988001 -1.377 0.18000001
30.893999 -26.832001 -1.373 0.23999999
31.353001 -27.059 -1.393 0.11
11.066 -9.4519997 -0.35699999 0.43000001
11.106 -9.4259996 -0.35800001 0.54000002
31.120001 -26.267 -1.3660001 0.23999999
31.304001 -26.253 -1.3710001 0.18000001
31.424 -26.187 -1.373 0.23999999
31.356001 -25.962999 -1.365 0.20999999
31.493999 -25.912001 -1.368 0.28
31.287001 -25.495001 -1.352 0.47
31.302 -25.344 -1.349 0.23999999
31.347 -25.218 -1.347 0.23
31.292 -25.011999 -1.34 0.31999999
31.284 -24.846001 -1.336 0.22
31.312 -24.708 -1.334 0.25999999
31.388 -24.608 -1.334 0.28
31.445 -24.573 -1.334 0.25
31.423 -24.396999 -1.33 0.28
31.468 -24.274 -1.3279999 0.20999999
31.68 -24.280001 -1.335 0.41
31.535 -24.011999 -1.324 0.22
31.606001 -23.909 -1.324 0.18000001
31.785999 -23.889 -1.329 0.44
31.723 -23.763 -1.324 0.23999999
31.781 -23.652 -1.323 0.25
31.672001 -23.416 -1.314 0.15000001
31.739 -23.312 -1.314 0.46000001
31.58 -23.042999 -1.303 0.23
31.618999 -22.92 -1.301 0.2
31.492001 -22.677 -1.2920001 0.27000001
31.867001 -22.871 -1.308 0.19
31.606001 -22.534 -1.2920001 0.28
31.486 -22.299999 -1.283 0.2
31.514999 -22.172001 -1.281 0.31
31.528999 -22.034 -1.279 0.33000001
31.622999 -21.952 -1.28 0.30000001
31.587999 -21.854 -1.277 0.23
31.966 -21.968 -1.291 0.41
32.189999 -21.973 -1.298 0.20999999
32.277 -21.884001 -1.299 0.25
31.827 -21.433001 -1.275 0.15000001
5.5430002 -3.7079999 -0.052999999 0.28
5.5050001 -3.671 -0.050999999 0.99000001
5.4970002 -3.6400001 -0.050000001 0.99000001
5.4850001 -3.608 -0.048999999 0.99000001
5.4790001 -3.5799999 -0.048 0.99000001
5.474 -3.552 -0.048 0.99000001
5.4879999 -3.536 -0.048 0.99000001
5.487 -3.5239999 -0.046999998 0.99000001
5.5009999 -3.5079999 -0.048 0.99000001
5.5089998 -3.4890001 -0.046999998 0.99000001
5.5159998 -3.47 -0.046999998 0.99000001
5.527 -3.4519999 -0.046999998 0.99000001
5.5229998 -3.425 -0.046999998 0.99000001
5.5229998 -3.402 -0.046 0.99000001
5.1890001 -3.1860001 -0.030999999 0.81999999
5.572 -3.395 -0.048 0.47999999
32.466 -19.499001 -1.256 0.25999999
32.400002 -19.320999 -1.25 0.25
32.554001 -19.274 -1.2539999 0.23
32.59 -19.157 -1.253 0.41999999
32.625 -19.108999 -1.2539999 0.23
32.673 -19 -1.253 0.25999999
32.618 -18.830999 -1.248 0.25
32.66 -18.719 -1.247 0.28
32.723999 -18.618999 -1.247 0.28999999
32.726002 -18.485001 -1.245 0.27000001
32.763 -18.370001 -1.244 0.25999999
32.754002 -18.297001 -1.242 0.20999999
32.804001 -18.190001 -1.242 0.41999999
32.894001 -18.105 -1.243 0.25
33.011002 -18.034 -1.2460001 0.27000001
33.039001 -17.915001 -1.245 0.25
33.060001 -17.792999 -1.243 0.25
33.028999 -17.643 -1.24 0.20999999
21.551001 -11.478 -0.73699999 0.23999999
21.556 -11.394 -0.736 0.34999999
21.568001 -11.314 -0.73500001 0.38
21.57 -11.229 -0.73299998 0.36000001
21.738001 -11.23 -0.73900002 0.16
33.280998 -17.045 -1.237 0.25
33.32 -16.999001 -1.238 0.31999999
33.368 -16.891001 -1.238 0.20999999
33.349998 -16.75 -1.235 0.44
33.530998 -16.709999 -1.24 0.22
33.673 -16.649 -1.244 0.13
21.489 -10.551 -0.71899998 0.31
21.479 -10.463 -0.71700001 0.38999999
21.445 -10.405 -0.71499997 0.38
21.445 -10.322 -0.713 0.44
21.530001 -10.279 -0.71600002 0.38999999
21.642 -10.249 -0.71899998 0.38999999
21.743999 -10.214 -0.722 0.36000001
21.847 -10.179 -0.72500002 0.36000001
21.938999 -10.179 -0.72799999 0.38
21.975 -10.112 -0.72899997 0.37
33.869999 -15.442 -1.2309999 0.20999999
33.935001 -15.343 -1.232 0.27000001
34.028 -15.257 -1.234 0.27000001
34.134998 -15.176 -1.2359999 0.27000001
34.280998 -15.112 -1.24 0.27000001
34.215 -15.018 -1.2359999 0.25
34.269001 -14.914 -1.237 0.27000001
34.331001 -14.813 -1.237 0.30000001
34.428001 -14.727 -1.24 0.28
34.501999 -14.63 -1.2410001 0.28
34.541 -14.519 -1.24 0.19
20.438999 -8.5649996 -0.64999998 0.20999999
20.447001 -8.493 -0.64999998 0.54000002
20.524 -8.4490004 -0.65200001 0.28999999
34.758999 -14.163 -1.243 0.25999999
34.875999 -14.083 -1.2460001 0.27000001
34.868 -13.952 -1.244 0.30000001
34.952 -13.859 -1.245 0.27000001
34.978001 -13.805 -1.2460001 0.30000001
35.035999 -13.701 -1.2460001 0.30000001
35.113998 -13.605 -1.248 0.30000001
35.237 -13.525 -1.251 0.25
35.289001 -13.418 -1.251 0.28999999
35.34 -13.311 -1.252 0.28999999
35.387001 -13.265 -1.253 0.30000001
35.414001 -13.148 -1.252 0.27000001
35.436001 -13.03 -1.251 0.27000001
35.490002 -12.923 -1.252 0.27000001
35.606998 -12.839 -1.255 0.18000001
35.620998 -12.718 -1.2539999 0.44999999
35.701 -12.62 -1.256 0.23999999
35.765999 -12.58 -1.258 0.28
35.860001 -12.486 -1.26 0.28999999
35.955002 -12.393 -1.262 0.27000001
36.008999 -12.285 -1.263 0.16
36.080002 -12.183 -1.2640001 0.44
36.181 -12.091 -1.267 0.23
36.247002 -11.986 -1.268 0.25999999
36.241001 -11.921 -1.267 0.28999999
36.370998 -11.837 -1.27 0.28
36.416 -11.726 -1.271 0.23999999
36.443001 -11.608 -1.27 0.2
36.504002 -11.501 -1.271 0.44999999
36.603001 -11.406 -1.274 0.25
36.705002 -11.375 -1.277 0.2
36.783001 -11.272 -1.279 0.41
36.842999 -11.164 -1.28 0.25
36.937 -11.066 -1.2819999 0.16
37.046001 -10.972 -1.285 0.44
37.120998 -10.867 -1.2869999 0.25
37.212002 -10.767 -1.289 0.2
37.256001 -10.716 -1.29 0.41
37.368999 -10.622 -1.294 0.23
37.573002 -10.552 -1.3 0.18000001
37.679001 -10.454 -1.303 0.38999999
37.658001 -10.321 -1.301 0.25
37.759998 -10.222 -1.304 0.2
37.963001 -10.149 -1.311 0.38
37.997002 -10.094 -1.312 0.23
38.168999 -10.011 -1.317 0.20999999
38.201 -9.8909998 -1.317 0.38
38.313 -9.7919998 -1.3200001 0.23999999
38.367001 -9.677 -1.321 0.2
38.501999 -9.5830002 -1.326 0.38
38.443001 -9.5039997 -1.323 0.19
38.560001 -9.4049997 -1.326 0.25999999
38.671001 -9.3030005 -1.329 0.20999999
38.729 -9.1879997 -1.33 0.12
35.362999 -8.2749996 -1.196 0.30000001
35.372002 -8.1599998 -1.1950001 0.40000001
35.473 -8.066 -1.198 0.41
38.818001 -8.7600002 -1.33 0.19
38.772999 -8.6219997 -1.327 0.17
38.988998 -8.5410004 -1.335 0.23
39.026001 -8.4209995 -1.335 0.18000001
38.970001 -8.2810001 -1.332 0.20999999
39.085999 -8.177 -1.335 0.2
39.062 -8.0439997 -1.3329999 0.22
39.153 -7.9990001 -1.337 0.14
39.504002 -7.941 -1.349 0.34999999
39.830002 -7.8759999 -1.3609999 0.17
40.438999 -7.8639998 -1.3839999 0.36000001
40.861 -7.8130002 -1.4 0
41.062 -7.7179999 -1.4069999 0
41.141998 -7.6659999 -1.409 0
41.223 -7.5469999 -1.4119999 0
41.331001 -7.4330001 -1.415 0
41.443001 -7.3179998 -1.418 0
41.561001 -7.204 -1.4220001 0
41.672001 -7.0890002 -1.425 0
41.750999 -6.967 -1.428 0
41.841 -6.915 -1.431 0
41.918999 -6.7930002 -1.433 0
27.221001 -4.3319998 -0.85900003 0
31.829 -4.8569999 -1.0369999 0.23
31.825001 -4.7540002 -1.036 0.31999999
31.82 -4.7020001 -1.036 0.34
31.813 -4.599 -1.035 0.30000001
31.827 -4.4990001 -1.035 0.5
31.796 -4.2909999 -1.033 0.46000001
31.797001 -4.1890001 -1.0319999 0.36000001
31.798 -4.0879998 -1.0319999 0.33000001
31.795 -4.0370002 -1.0319999 0.34999999
31.799 -3.9360001 -1.031 0.37
31.813 -3.836 -1.031 0.31999999
31.663 -3.717 -1.025 0
31.767 -3.628 -1.029 0.050000001
31.822001 -3.533 -1.03 0.14
41.021 -4.4819999 -1.387 0.12
41.220001 -4.3720002 -1.3940001 0.090000004
41.403999 -4.2600002 -1.401 0.15000001
41.407001 -4.1290002 -1.4 0.11
41.431999 -4 -1.401 0.17
41.613998 -3.8859999 -1.4069999 0.28
42.049999 -3.793 -1.424 0
42.34 -3.7520001 -1.4349999 0.12
42.105 -3.598 -1.425 0.12
42.119999 -3.4660001 -1.425 0.14
42.271999 -3.345 -1.431 0
42.527 -3.23 -1.4400001 0.14
42.710999 -3.109 -1.447 0.28999999
42.700001 -3.0409999 -1.446 0.11
41.872002 -2.8510001 -1.414 0.079999998
42.960999 -2.7880001 -1.456 0.15000001
43.223 -2.6689999 -1.465 0.1
43.077999 -2.5239999 -1.459 0.14
43.009998 -2.385 -1.457 0.30000001
43.126999 -2.2550001 -1.461 0.27000001
43.335999 -2.198 -1.469 0.11
43.834 -2.085 -1.488 0
44.323002 -1.9680001 -1.506 0
45.375 -1.872 -1.5470001 0
46.977001 -1.789 -1.608 0
47.452999 -1.6569999 -1.626 0
47.571999 -1.512 -1.631 0
47.429001 -1.433 -1.625 0
47.333 -1.281 -1.6210001 0
47.263 -1.131 -1.618 0
47.222 -0.98100001 -1.617 0
47.154999 -0.83200002 -1.614 0
47.124001 -0.68300003 -1.613 0
47.073002 -0.60900003 -1.6109999 0
47.02 -0.46000001 -1.609 0
46.978001 -0.31200001 -1.607 0
46.903 -0.164 -1.604 0
46.868999 -0.017000001 -1.603 0
41.145 0.061000001 -1.626 0
41.106998 0.19 -1.625 0
41.028999 0.255 -1.6210001 0
40.993999 0.38299999 -1.62 0
40.924 0.51099998 -1.617 0
40.865002 0.639 -1.614 0
40.825001 0.76599997 -1.612 0
40.790001 0.89399999 -1.6109999 0
40.775002 1.022 -1.6109999 0
40.749001 1.085 -1.609 0
40.689999 1.212 -1.607 0
40.66 1.339 -1.6059999 0
40.631001 1.466 -1.605 0
40.598999 1.592 -1.603 0
40.59 1.72 -1.603 0
40.556999 1.7819999 -1.602 0
40.539001 1.909 -1.601 0
40.516998 2.0350001 -1.601 0
40.481998 2.161 -1.599 0
40.466999 2.2880001 -1.599 0
40.439999 2.414 -1.598 0
40.402 2.539 -1.597 0
40.375999 2.6010001 -1.596 0
40.355999 2.727 -1.595 0
40.328999 2.8529999 -1.595 0
40.312 2.9790001 -1.594 0
40.271 3.1029999 -1.5930001 0
40.223 3.2260001 -1.591 0
40.178001 3.286 -1.589 0
40.139999 3.4100001 -1.5880001 0
40.134998 3.5369999 -1.5880001 0
40.068001 3.658 -1.586 0.059999999
39.932999 3.7720001 -1.58 0.11
39.736 3.8800001 -1.572 0.34
39.523998 3.9849999 -1.563 0
38.376999 3.931 -1.512 0
36.902 4.0149999 -1.447 0.38
36.237 4.0580001 -1.418 0.22
36.07 4.1539998 -1.411 0.18000001
35.894001 4.2490001 -1.404 0.41
35.766998 4.348 -1.399 0.23
35.504002 4.3720002 -1.387 0.18000001
35.363998 4.4679999 -1.382 0.41999999
35.301998 4.573 -1.38 0.23
35.103001 4.6599998 -1.3710001 0.14
35.179001 4.7820001 -1.375 0.43000001
35.147999 4.8899999 -1.375 0.23999999
35.145 4.9460001 -1.375 0.2
35.077 5.0489998 -1.373 0.28999999
35.046001 5.1570001 -1.372 0.20999999
34.752998 5.2259998 -1.359 0.23
35.534 5.4569998 -1.395 0.12
35.728001 5.6009998 -1.405 0.27000001
29.035 4.697 -1.105 0.43000001
29.021 4.789 -1.105 0
39.964001 6.7129998 -1.599 0
39.972 6.8439999 -1.6 0
39.976002 6.974 -1.601 0
39.950001 7.099 -1.601 0
39.922001 7.223 -1.601 0
39.889 7.2820001 -1.6 0
39.875 7.4089999 -1.6 0
39.874001 7.5380001 -1.601 0
39.860001 7.6659999 -1.602 0
39.834999 7.7909999 -1.602 0
39.838001 7.921 -1.603 0
39.833 7.9850001 -1.603 0
39.816002 8.1120005 -1.604 0
39.833 8.2460003 -1.6059999 0
39.849998 8.3800001 -1.608 0
39.845001 8.5100002 -1.609 0
39.824001 8.6359997 -1.609 0
39.777 8.757 -1.608 0
39.778999 8.823 -1.609 0
39.772999 8.9530001 -1.61 0
39.737999 9.0760002 -1.609 0
39.714001 9.2019997 -1.61 0
39.698002 9.3299999 -1.61 0
39.683998 9.4580002 -1.6109999 0
39.514 9.5489998 -1.604 0
39.672001 9.6529999 -1.612 0
39.715 9.7959995 -1.6160001 0
17.031 4.3870001 -0.579 0.28999999
16.993999 4.434 -0.57800001 0.57999998
17.233999 4.5250001 -0.58899999 0
39.676998 10.517 -1.622 0
39.629002 10.637 -1.6210001 0
39.577999 10.757 -1.6210001 0
39.508999 10.872 -1.619 0
39.445999 10.988 -1.618 0
39.465 11.06 -1.619 0
39.445 11.188 -1.62 0
39.419998 11.315 -1.62 0
39.428001 11.452 -1.623 0
39.423 11.584 -1.624 0
39.455002 11.729 -1.627 0
39.438999 11.859 -1.628 0
39.451 11.93 -1.63 0
39.397999 12.049 -1.6289999 0
39.341 12.167 -1.628 0
39.27 12.28 -1.626 0
39.243 12.407 -1.627 0
39.213001 12.534 -1.627 0
39.229 12.674 -1.63 0
39.269001 12.756 -1.633 0
39.326 12.911 -1.637 0
39.208 13.009 -1.6339999 0
39.112 13.113 -1.631 0
39.129002 13.256 -1.6339999 0
39.138 13.396 -1.636 0
39.157001 13.471 -1.638 0
39.189999 13.62 -1.642 0
39.189999 13.759 -1.6440001 0
39.115002 13.87 -1.642 0
39.064999 13.991 -1.642 0
39.014999 14.112 -1.642 0
38.959999 14.23 -1.641 0
38.946999 14.295 -1.642 0
38.922001 14.425 -1.643 0
38.91 14.56 -1.6440001 0
38.879002 14.687 -1.645 0
38.816002 14.803 -1.6440001 0
38.799 14.936 -1.646 0
38.875999 15.036 -1.65 0
38.887001 15.181 -1.653 0
38.852001 15.308 -1.654 0
38.834999 15.442 -1.655 0
38.800999 15.57 -1.656 0
38.782001 15.704 -1.6569999 0
38.734001 15.827 -1.6569999 0
38.73 15.896 -1.658 0
38.675999 16.016001 -1.658 0
38.676998 16.159 -1.661 0
38.615002 16.275999 -1.66 0
38.432999 16.341 -1.654 0
38.172001 16.372 -1.6440001 0
37.977001 16.360001 -1.636 0
37.790001 16.42 -1.6289999 0
37.643002 16.497 -1.624 0
37.535 16.59 -1.622 0
37.422001 16.681 -1.619 0
37.32 16.777 -1.6160001 0
37.236 16.879999 -1.615 0
37.195 16.931999 -1.614 0
37.040001 17.002001 -1.609 0
36.896 17.076 -1.605 0
36.808998 17.177 -1.603 0
36.726002 17.278999 -1.602 0
36.612 17.365999 -1.599 0
36.487 17.447001 -1.595 0
36.361 17.457001 -1.59 0
34.838001 16.862 -1.518 0
34.557999 16.861 -1.507 0
34.417 16.926001 -1.502 0
34.424999 17.065001 -1.505 0
35.841999 17.907 -1.5779999 0
35.731998 17.992001 -1.576 0
35.66 18.025999 -1.574 0
35.553001 18.112 -1.571 0
35.438999 18.195 -1.568 0
35.353001 18.291 -1.567 0
35.269001 18.388 -1.5650001 0
35.179001 18.482 -1.564 0
35.187 18.556999 -1.566 0
35.07 18.636999 -1.563 0
34.988998 18.735001 -1.562 0
34.889 18.823 -1.5599999 0
34.776001 18.903 -1.557 0
34.576 18.934999 -1.55 0
34.5 18.964001 -1.5470001 0
34.512001 19.112 -1.551 0
34.452 19.221001 -1.551 0
34.256001 19.253 -1.544 0.07
34.026001 19.264999 -1.536 0.079999998
33.799 19.277 -1.527 0.090000004
33.563 19.282 -1.518 0.090000004
33.361 19.236 -1.5089999 0.090000004
33.130001 19.242001 -1.5 0.090000004
32.897999 19.246 -1.492 0.090000004
32.675999 19.254 -1.483 0.090000004
32.459 19.264 -1.475 0.090000004
32.233002 19.267 -1.467 0.13
32.007 19.268999 -1.4579999 0.090000004
31.833 19.232 -1.451 0.15000001
31.606001 19.232 -1.442 0.1
31.423 19.256001 -1.436 0.14
31.231001 19.274 -1.429 0.1
31.042 19.292 -1.4220001 0
30.944 19.365999 -1.42 0
30.898001 19.405001 -1.419 0
30.827 19.495001 -1.419 0.07
30.701 19.551001 -1.415 0.090000004
30.639999 19.648001 -1.415 0
30.511 19.701 -1.4119999 0
30.393 19.76 -1.409 0
30.288 19.827 -1.406 0
30.195999 19.834999 -1.403 0
30.056999 19.879999 -1.399 0
29.903 19.913 -1.3940001 0
29.771 19.959999 -1.391 0.13
29.658001 20.02 -1.388 0.090000004
29.565001 20.093 -1.386 0.14
29.483999 20.173 -1.385 0.20999999
5.6329999 3.8929999 -0.101 0.079999998
5.6139998 3.9059999 -0.101 0.11
5.5819998 3.9100001 -0.1 0.94999999
5.5630002 3.9230001 -0.098999999 0.99000001
5.5539999 3.9430001 -0.098999999 0.99000001
5.5419998 3.96 -0.098999999 0.99000001
5.539 3.971 -0.1 0.99000001
5.5300002 3.9909999 -0.1 0.99000001
5.5170002 4.0079999 -0.1 0.99000001
5.5050001 4.0250001 -0.1 0.99000001
5.4920001 4.0430002 -0.1 0.99000001
5.4949999 4.072 -0.101 0.99000001
5.5100002 4.0960002 -0.102 0.99000001
5.5050001 4.119 -0.102 0.99000001
5.5079999 4.1479998 -0.103 0.99000001
5.5120001 4.1789999 -0.104 0.99000001
5.507 4.2020001 -0.105 0.99000001
5.4970002 4.2220001 -0.105 0.99000001
5.4850001 4.2399998 -0.105 0.99000001
5.5739999 4.322 -0.11 0.80000001
5.6079998 4.3759999 -0.113 0.19
27.469 21.447001 -1.346 0.14
27.385 21.521 -1.346 0.1
27.239 21.545 -1.341 0.090000004
27.070999 21.551001 -1.335 0.090000004
26.929001 21.576 -1.331 0.14
26.832001 21.568001 -1.3279999 0.090000004
26.735001 21.628 -1.326 0.14
26.632999 21.684 -1.324 0.1
26.555 21.76 -1.323 0.15000001
26.459 21.820999 -1.322 0.1
26.389 21.903 -1.322 0.14
26.291 21.961 -1.3200001 0.090000004
26.232 21.982 -1.319 0.14
26.122999 22.031 -1.316 0.1
26.018 22.083 -1.314 0.14
25.931 22.149 -1.313 0.090000004
25.862 22.232 -1.313 0
22.440001 19.479 -1.118 0.13
25.603001 22.361 -1.308 0
25.52 22.43 -1.308 0
25.417999 22.483 -1.306 0
25.332001 22.549 -1.3049999 0
25.259001 22.625999 -1.3049999 0
25.15 22.672001 -1.302 0
25.091999 22.691 -1.301 0
25.033001 22.781 -1.302 0
24.924 22.825001 -1.3 0
24.863001 22.913 -1.3 0
24.791 22.990999 -1.3 0
24.733999 23.084 -1.301 0
24.688999 23.114 -1.301 0
24.618999 23.195 -1.301 0.07
24.443001 23.174 -1.295 0.079999998
24.323 23.205999 -1.2920001 0.090000004
24.224001 23.257 -1.29 0.14
24.132999 23.316 -1.289 0.090000004
24.042999 23.375 -1.288 0
23.997 23.405001 -1.2869999 0.13
23.919001 23.476 -1.2869999 0
23.829 23.534 -1.286 0
23.739 23.593 -1.285 0
23.656 23.659 -1.284 0
23.559 23.711 -1.283 0
23.455 23.754999 -1.281 0
23.426001 23.799999 -1.2819999 0
22.048 22.542999 -1.199 0
23.261 23.931 -1.281 0
23.184999 24.004 -1.281 0
21.738001 22.649 -1.193 0.1
17.333 18.181 -0.91399997 0.12
17.285 18.188 -0.912 0.25999999
17.208 18.222 -0.91100001 0.17
21.34 22.73 -1.183 0.079999998
21.285999 22.816 -1.184 0.090000004
21.055 22.711 -1.174 0.2
21.125999 22.931 -1.183 0.19
21.113001 23.062 -1.187 0.17
21.004 23.016001 -1.182 0.2
20.917999 23.066999 -1.181 0.20999999
20.827999 23.113001 -1.1799999 0.37
20.792999 23.219999 -1.183 0.19
20.705999 23.271 -1.182 0.1
20.607 23.306 -1.1799999 0.17
20.663 23.517 -1.189 0.12
20.486 23.389999 -1.179 0.14
20.48 23.532 -1.184 0.16
20.302999 23.478001 -1.177 0.33000001
20.358999 23.691999 -1.186 0.11
20.309999 23.785999 -1.188 0.18000001
20.107 23.698999 -1.179 0.30000001
20.077999 23.815001 -1.182 0.12
19.957001 23.747 -1.176 0.38999999
19.917 23.851 -1.178 0.27000001
19.872999 23.952 -1.181 0.27000001
19.916 24.158001 -1.189 0.25999999
19.809 24.181999 -1.187 0.19
19.701 24.205 -1.184 0.16
19.716999 24.302999 -1.188 0
19.583 24.292999 -1.184 0
19.518999 24.370001 -1.1849999 0.07
19.349001 24.313999 -1.178 0
20.330999 25.711 -1.2539999 0
19.266001 24.524 -1.184 0.07
20.148001 25.811001 -1.253 0
20.115 25.851999 -1.253 0
20 25.872999 -1.251 0
19.917999 25.934 -1.251 0
19.82 25.975 -1.25 0.12
19.752001 26.055 -1.251 0.16
19.66 26.104 -1.25 0.090000004
19.57 26.07 -1.2460001 0.079999998
18.607 24.951 -1.181 0
18.481001 24.945 -1.177 0
19.34 26.275 -1.248 0
19.264999 26.346001 -1.248 0
18.337 25.245001 -1.184 0
19.046 26.393 -1.244 0
18.108 25.177999 -1.176 0
18.934 26.500999 -1.245 0
18.832001 26.534 -1.244 0
18.785999 26.645 -1.2460001 0
18.694 26.693001 -1.2460001 0.079999998
18.618999 26.764 -1.247 0.090000004
18.528999 26.815001 -1.2460001 0.090000004
18.489 26.847 -1.2460001 0.090000004
18.403 26.902 -1.2460001 0.090000004
18.318001 26.959 -1.2460001 0.079999998
18.222 27 -1.245 0.079999998
18.136999 27.056999 -1.245 0.079999998
18.042 27.099001 -1.244 0.14
17.954 27.150999 -1.244 0.090000004
17.912001 27.181 -1.244 0.16
17.827 27.237 -1.244 0.23
17.739 27.289 -1.244 0.23999999
17.650999 27.341 -1.244 0.11
17.570999 27.407 -1.244 0.14
17.493999 27.475 -1.245 0.1
17.452 27.504999 -1.245 0.16
17.363001 27.556 -1.245 0.090000004
17.292 27.636 -1.2460001 0.15000001
17.209999 27.697001 -1.247 0.23
17.132 27.766001 -1.248 0.25
17.045 27.82 -1.248 0.11
16.968 27.889999 -1.248 0.2
16.926001 27.92 -1.249 0.25
16.844999 27.985001 -1.249 0.25999999
16.771 28.059999 -1.25 0.25999999
16.684 28.115999 -1.251 0.25999999
16.607 28.187 -1.252 0.27000001
16.524 28.247999 -1.252 0.27000001
16.443001 28.313999 -1.253 0.25999999
16.405001 28.351 -1.253 0.25999999
16.323 28.415001 -1.2539999 0.25999999
16.243999 28.483 -1.255 0.25999999
16.162001 28.548 -1.256 0.25999999
16.083 28.618 -1.256 0.27000001
15.995 28.672001 -1.257 0.25
15.924 28.757 -1.258 0.25999999
15.886 28.794001 -1.2589999 0.25
15.807 28.865 -1.26 0.25999999
15.731 28.943001 -1.262 0.11
15.655 29.02 -1.263 0.14
13.351 24.944 -1.0549999 0.28999999
13.232 24.908001 -1.051 0.2
13.121 24.888 -1.048 0.18000001
13.043 24.836 -1.044 0.34
12.929 24.806999 -1.041 0.18000001
12.816 24.780001 -1.0369999 0.34999999
12.698 24.742001 -1.033 0.19
12.59 24.723 -1.03 0.37
12.476 24.690001 -1.027 0.22
12.403 24.643 -1.023 0.17
12.298 24.627001 -1.021 0.38999999
12.233 24.690001 -1.022 0.2
12.195 24.809 -1.026 0.38
12.155 24.924999 -1.03 0.18000001
12.024 24.855 -1.024 0.25999999
11.912 24.820999 -1.021 0.31999999
11.842 24.774 -1.018 0.31999999
11.731 24.743 -1.0140001 0.31999999
11.623 24.716 -1.011 0.33000001
11.518 24.693001 -1.008 0.34
11.416 24.677 -1.006 0.33000001
11.317 24.665001 -1.003 0.31999999
11.323 24.781 -1.008 0.34999999
11.288 24.910999 -1.013 0.34
13.543 30.127001 -1.266 0.34
13.436 30.142 -1.2640001 0.30000001
13.349 30.201 -1.265 0.31
13.11 29.915001 -1.249 0.27000001
12.96 29.827999 -1.243 0.33000001
12.892 29.799 -1.24 0.27000001
12.748 29.722 -1.235 0.28999999
12.614 29.666 -1.23 0.28999999
12.519 29.702 -1.23 0.34
12.414 29.712999 -1.229 0.31
12.306 29.716999 -1.227 0.31
12.21 29.75 -1.227 0.31999999
12.133 29.695 -1.223 0.28
12.024 29.694 -1.221 0.33000001
11.988 29.875 -1.228 0.27000001
11.894 29.912001 -1.228 0.27000001
11.885 30.165001 -1.238 0.20999999
10.461 26.805 -1.076 0.25999999
10.384 26.856001 -1.077 0.13
11.506 29.888 -1.221 0.38
11.42 29.947001 -1.222 0.22
11.418 30.225 -1.233 0.25
11.335 30.292999 -1.235 0.34
11.265 30.398001 -1.238 0.31999999
11.231 30.598 -1.2460001 0.28999999
11.111 30.569 -1.243 0.28999999
11.072 30.611 -1.244 0.28999999
11.092 30.969 -1.26 0.23
10.948 30.874001 -1.253 0.20999999
10.808 30.785999 -1.248 0.27000001
10.71 30.813999 -1.247 0.28999999
11.039 32.083 -1.3049999 0.19
11.152 32.576 -1.3279999 0.090000004
11.004 32.477001 -1.322 0.17
11.036 32.910999 -1.34 0.14
10.994 33.131001 -1.349 0
10.044 30.596001 -1.229 0.090000004
9.9329996 30.580999 -1.227 0
10.619 33.217999 -1.347 0.14
10.447 33.400002 -1.353 0
9.8660002 32.257999 -1.2970001 0.15000001
9.8290005 32.499001 -1.307 0.19
10.03 33.542 -1.354 0.20999999
10.115 34.019001 -1.375 0.30000001
9.9949999 34.007 -1.373 0.27000001
9.9020004 34.084 -1.375 0.28
9.7849998 34.082001 -1.374 0.27000001
9.6949997 34.172001 -1.376 0.28999999
9.625 34.337002 -1.382 0.31
9.3889999 33.903 -1.3609999 0
9.4700003 34.404999 -1.3839999 0
9.3459997 34.376999 -1.381 0
9.2329998 34.389 -1.38 0
9.1359997 34.459999 -1.382 0
9.0310001 34.498001 -1.382 0
8.9399996 34.596001 -1.386 0
8.8859997 34.610001 -1.386 0
8.7869997 34.676998 -1.387 0
8.6940002 34.768002 -1.39 0
8.5909996 34.821999 -1.392 0
8.4919996 34.889999 -1.3940001 0
8.3920002 34.955002 -1.395 0
8.2910004 35.02 -1.397 0
8.1960001 35.109001 -1.4 0
8.151 35.166 -1.402 0
8.0450001 35.210999 -1.403 0
7.9359999 35.245998 -1.403 0
7.8249998 35.266998 -1.403 0
7.723 35.334 -1.405 0
7.6220002 35.403 -1.4069999 0
7.5830002 35.493 -1.411 0
7.48 35.557999 -1.413 0
7.3860002 35.665001 -1.416 0
7.2810001 35.726002 -1.418 0
7.1789999 35.794998 -1.42 0
7.0700002 35.834999 -1.421 0
6.9660001 35.903999 -1.423 0
6.9130001 35.932999 -1.424 0
6.8200002 36.057999 -1.429 0.07
6.7259998 36.183998 -1.433 0.079999998
6.6370001 36.338001 -1.439 0.090000004
6.5549998 36.540001 -1.448 0.14
6.4749999 36.757 -1.456 0.090000004
6.4580002 36.995998 -1.467 0.14
6.375 37.210999 -1.476 0.090000004
6.296 37.455002 -1.4859999 0.090000004
6.2160001 37.705002 -1.4960001 0.090000004
6.1360002 37.959 -1.507 0.090000004
6.0539999 38.210999 -1.517 0.090000004
5.9759998 38.500999 -1.529 0
5.9380002 38.66 -1.536 0
5.8260002 38.740002 -1.539 0
5.7529998 39.088001 -1.554 0
5.6939998 39.547001 -1.573 0
5.5939999 39.735001 -1.581 0
5.487 39.879002 -1.587 0
5.2470002 39.046001 -1.549 0
5.2150002 39.273998 -1.559 0
5.1230001 39.534 -1.569 0
5.0349998 39.834999 -1.582 0
4.9499998 40.174 -1.597 0
2.878 24.718 -0.903 0.33000001
2.799 24.714001 -0.903 0
4.6209998 41.233002 -1.642 0
4.4910002 41.241001 -1.642 0
4.3569999 41.215 -1.64 0
4.223 41.185001 -1.638 0
4.0890002 41.148998 -1.636 0
3.96 41.162998 -1.636 0
3.6600001 39.353001 -1.554 0
3.6210001 39.605999 -1.5650001 0
3.5239999 39.929001 -1.579 0
3.425 40.247002 -1.5930001 0
3.3199999 40.523998 -1.605 0
3.21 40.747002 -1.614 0
3.0929999 40.903 -1.6210001 0.050000001
1.36 20.27 -0.69999999 0.61000001
1.308 20.459999 -0.708 0.19
1.544 26.650999 -0.98400003 0
1.447 26.424 -0.97299999 0.059999999
1.5 28.167999 -1.051 0.11
1.409 28.135 -1.049 0.28999999
1.321 28.139 -1.049 0
1.2359999 28.211 -1.052 0
1.659 40.532001 -1.601 0
1.543 40.828999 -1.614 0
1.426 41.139 -1.627 0
1.3660001 41.292999 -1.6339999 0
1.2410001 41.452 -1.641 0
0.77999997 29.385 -1.104 0
0.68699998 29.381001 -1.104 0
0.59899998 29.573 -1.112 0
0.72399998 41.695 -1.651 0
0.59299999 41.671001 -1.65 0
0.46900001 37.248001 -1.4529999 0
0.193 31.235001 -1.186 0.14
0.055 21.097 -0.73500001 0.28
-0.011 21.273001 -0.74299997 0.57999998
-0.077 21.097 -0.73500001 0
-0.23199999 36.973 -1.441 0
-0.289 36.900002 -1.438 0
-0.40400001 36.786999 -1.433 0.059999999
-0.287 13.256 -0.38600001 0.44999999
-0.31799999 12.761 -0.36399999 0.73000002
-0.36300001 12.946 -0.37200001 0.23999999
-0.38299999 12.944 -0.37200001 0.40000001
-0.421 12.87 -0.36899999 0.55000001
-1.114 32.120998 -1.226 0.18000001
-1.216 32.162998 -1.228 0
-1.319 32.193001 -1.229 0.059999999
-1.548 35.151001 -1.3609999 0.11
-1.598 35.027 -1.3559999 0.13
-1.553 31.801001 -1.212 0.079999998
-1.819 35.046001 -1.357 0.12
-1.925 34.955002 -1.353 0.13
-2.0280001 34.839001 -1.349 0.18000001
-2.142 34.91 -1.352 0.11
-2.25 34.868999 -1.35 0.16
-2.3069999 34.895 -1.352 0.12
-2.4159999 34.883999 -1.352 0
-2.5380001 35.057999 -1.36 0.059999999
-2.6429999 34.976002 -1.3559999 0
-2.747 34.888 -1.353 0
-2.8740001 35.091999 -1.362 0.15000001
-3.073 36.146 -1.41 0.11
-3.1340001 36.187 -1.4119999 0.14
-3.2579999 36.296001 -1.4170001 0.11
-3.365 36.203999 -1.414 0.14
-3.454 35.932999 -1.402 0.14
-3.523 35.478001 -1.382 0.31999999
-3.622 35.346001 -1.377 0.16
-3.7290001 35.297001 -1.375 0.37
-3.7850001 35.299 -1.375 0.23
-3.914 35.449001 -1.383 0.25999999
-4.0289998 35.471001 -1.3839999 0.18000001
-4.1620002 35.644001 -1.393 0.40000001
-4.2930002 35.784 -1.399 0.25
-4.4029999 35.756001 -1.399 0.2
-4.4569998 35.726002 -1.398 0.41
-4.5739999 35.749001 -1.399 0.23999999
-4.6929998 35.792 -1.402 0.19
-4.8189998 35.880001 -1.4069999 0.41
-4.9489999 35.985001 -1.4119999 0.23
-5.0739999 36.055 -1.416 0.18000001
-5.1999998 36.127998 -1.42 0.38999999
-5.2779999 36.271999 -1.427 0.20999999
-5.408 36.360001 -1.431 0.23
-5.5139999 36.286999 -1.429 0.18000001
-5.631 36.292999 -1.4299999 0.31999999
-5.7810001 36.505001 -1.4400001 0.13
-3.73 23.025 -0.83399999 0.19
-3.8329999 23.200001 -0.84200001 0.19
-6.0929999 36.612 -1.447 0.13
-6.2309999 36.726002 -1.4529999 0.33000001
-6.3280001 36.602001 -1.449 0.18000001
-6.4629998 36.695999 -1.454 0.37
-6.5890002 36.733002 -1.456 0.2
-6.717 36.780998 -1.459 0.25
-6.8509998 36.863998 -1.464 0.18000001
-6.9299998 36.960999 -1.469 0.25
-7.0609999 37.019001 -1.473 0.18000001
-7.1919999 37.076 -1.476 0.23999999
