# .PCD v0.7 - Point Cloud Data file format
VERSION 0.7
FIELDS x y z intensity
SIZE 4 4 4 4
TYPE F F F F
COUNT 1 1 1 1
WIDTH 1420
HEIGHT 1
VIEWPOINT 0 0 0 1 0 0 0
POINTS 1420
DATA ascii
0.935 5.5749998 -1.964 0.30000001
0.917 5.572 -1.962 0.23999999
0.90899998 5.579 -1.964 0.16
0.89200002 5.5840001 -1.964 0.28999999
0.875 5.5939999 -1.967 0.23
0.86000001 5.6100001 -1.972 0.23999999
0.84299999 5.6160002 -1.973 0.23
0.81900001 5.5739999 -1.957 0.059999999
0.79799998 5.5580001 -1.95 0
0.78399998 5.5190001 -1.9349999 0
0.76499999 5.506 -1.929 0
0.74599999 5.4949999 -1.924 0
0.727 5.4829998 -1.919 0
0.708 5.4780002 -1.916 0
0.69300002 5.4910002 -1.92 0
0.67500001 5.4910002 -1.92 0
0.66299999 5.4660001 -1.91 0
0.64600003 5.4699998 -1.911 0
0.63 5.48 -1.913 0
0.61199999 5.4759998 -1.911 0
0.59500003 5.4759998 -1.911 0
0.579 5.4910002 -1.915 0
0.56 5.4720001 -1.908 0
0.55199999 5.4860001 -1.913 0
0.53500003 5.4879999 -1.913 0
0.51800001 5.4949999 -1.915 0
0.50199997 5.5100002 -1.92 0.02
0.493 5.6100001 -1.956 0.029999999
0.477 5.6269999 -1.962 0.15000001
0.46000001 5.6430001 -1.967 0.23999999
0.45300001 5.6669998 -1.976 0.27000001
0.435 5.6589999 -1.972 0.27000001
0.417 5.6620002 -1.973 0.27000001
0.40000001 5.6760001 -1.978 0.19
0.38100001 5.651 -1.9680001 0.28999999
0.36199999 5.6389999 -1.9630001 0.23
0.34599999 5.6630001 -1.971 0.19
0.336 5.6479998 -1.966 0.28
0.31799999 5.6550002 -1.9680001 0.25
0.301 5.664 -1.971 0.17
0.28200001 5.6479998 -1.964 0.30000001
0.26499999 5.6500001 -1.965 0.25
0.24699999 5.6620002 -1.969 0.17
0.229 5.652 -1.965 0.28999999
0.22 5.652 -1.965 0.25
0.20299999 5.6620002 -1.969 0.25999999
0.185 5.6570001 -1.967 0.25999999
0.167 5.658 -1.967 0.2
0.149 5.6560001 -1.966 0.25999999
0.132 5.6570001 -1.966 0.23
0.114 5.6799998 -1.974 0.19
0.105 5.652 -1.964 0.28
0.086999997 5.678 -1.973 0.23
0.068999998 5.6599998 -1.967 0.19
0.052000001 5.651 -1.9630001 0.28999999
0.034000002 5.6469998 -1.962 0.23999999
0.016000001 5.6680002 -1.969 0.2
-0.0020000001 5.6550002 -1.964 0.28
-0.011 5.6529999 -1.964 0.25
-0.028000001 5.6680002 -1.969 0.16
-0.046 5.658 -1.966 0.30000001
-0.064000003 5.658 -1.966 0.25
-0.082000002 5.6620002 -1.967 0.19
-0.098999999 5.652 -1.964 0.28
-0.117 5.6479998 -1.962 0.23999999
-0.13500001 5.6680002 -1.97 0.23
-0.14399999 5.6750002 -1.973 0.18000001
-0.161 5.645 -1.962 0.28999999
-0.18000001 5.6570001 -1.967 0.23
-0.198 5.664 -1.969 0.16
-0.215 5.6560001 -1.967 0.28999999
-0.233 5.6539998 -1.966 0.23
-0.25099999 5.6700001 -1.972 0.23
-0.25999999 5.664 -1.97 0.2
-0.27700001 5.6459999 -1.964 0.30000001
-0.29499999 5.6539998 -1.967 0.23999999
-0.31400001 5.6669998 -1.972 0.16
-0.33000001 5.645 -1.964 0.28999999
-0.34900001 5.6589999 -1.97 0.23999999
-0.368 5.677 -1.977 0.16
-0.37599999 5.6609998 -1.971 0.30000001
-0.39300001 5.6560001 -1.97 0.23
-0.41100001 5.6529999 -1.969 0.18000001
-0.428 5.6420002 -1.966 0.27000001
-0.44600001 5.645 -1.967 0.23999999
-0.465 5.6599998 -1.973 0.16
-0.48199999 5.651 -1.971 0.28
-0.491 5.6539998 -1.972 0.25
-0.50999999 5.6620002 -1.976 0.2
-0.52499998 5.6339998 -1.966 0.27000001
-0.54299998 5.6360002 -1.967 0.20999999
-0.56300002 5.651 -1.973 0.17
-0.579 5.638 -1.969 0.27000001
-0.59799999 5.6469998 -1.973 0.25
-0.60799998 5.652 -1.976 0.19
-0.62400001 5.6370001 -1.971 0.27000001
-0.64200002 5.6350002 -1.971 0.23
-0.66100001 5.6440001 -1.975 0.18000001
-0.67699999 5.6290002 -1.97 0.27000001
-0.69599998 5.638 -1.974 0.25
-0.71499997 5.6430001 -1.977 0.23
-0.72299999 5.6350002 -1.974 0.12
-0.74000001 5.6269999 -1.972 0.2
-0.75800002 5.6279998 -1.973 0.17
-0.77499998 5.6259999 -1.973 0.25999999
-0.796 5.6420002 -1.98 0.22
-0.81300002 5.6339998 -1.978 0.25999999
-0.83099997 5.6350002 -1.98 0.18000001
-0.83700001 5.6149998 -1.973 0.27000001
-0.85600001 5.6220002 -1.976 0.23999999
-0.875 5.625 -1.978 0.27000001
-0.89600003 5.6440001 -1.987 0.27000001
-0.91100001 5.6230001 -1.98 0.18000001
-0.926 5.605 -1.974 0.28999999
-0.94300002 5.6020002 -1.974 0.25
-0.95300001 5.6040001 -1.976 0.25999999
-0.97000003 5.599 -1.975 0.19
-0.98900002 5.6020002 -1.977 0.27000001
-1.007 5.6040001 -1.979 0.25
-1.027 5.612 -1.983 0.27000001
-1.044 5.605 -1.982 0.27000001
-1.059 5.5910001 -1.978 0.30000001
-1.075 5.5760002 -1.973 0.27000001
-1.086 5.586 -1.978 0.25999999
-1.107 5.6030002 -1.985 0.25
-1.123 5.5879998 -1.9809999 0.19
-1.1390001 5.579 -1.979 0.28999999
-1.156 5.572 -1.978 0.23999999
-1.173 5.5679998 -1.978 0.16
-1.193 5.5749998 -1.982 0.28999999
-1.202 5.573 -1.982 0.25
-1.222 5.5819998 -1.987 0.23999999
-1.2359999 5.5619998 -1.98 0.25
-1.253 5.5549998 -1.979 0.25
-1.271 5.552 -1.98 0.22
-1.291 5.5609999 -1.985 0.18000001
-1.294 5.5349998 -1.976 0.25999999
-1.313 5.539 -1.978 0.22
-1.3380001 5.5640001 -1.989 0.25
-1.351 5.5430002 -1.983 0.19
-1.368 5.5370002 -1.982 0.28999999
-1.383 5.5219998 -1.978 0.25
-1.402 5.5250001 -1.9809999 0.27000001
-1.418 5.5149999 -1.979 0.27000001
-1.433 5.5359998 -1.988 0.25
-1.4450001 5.5120001 -1.98 0.17
-1.465 5.5159998 -1.984 0.30000001
-1.482 5.5110002 -1.984 0.23999999
-1.498 5.5009999 -1.982 0.19
-1.5140001 5.493 -1.98 0.28
-1.5319999 5.4920001 -1.982 0.23999999
-1.543 5.4970002 -1.985 0.25
-1.5599999 5.4920001 -1.985 0.27000001
-1.58 5.494 -1.987 0.27000001
-1.591 5.4710002 -1.98 0.27000001
-1.6109999 5.473 -1.983 0.27000001
-1.631 5.4770002 -1.987 0.28
-1.646 5.4650002 -1.984 0.25999999
-1.6569999 5.4710002 -1.987 0.17
-1.673 5.4619999 -1.9859999 0.28999999
-1.6900001 5.4549999 -1.985 0.23999999
-1.711 5.4640002 -1.9910001 0.18000001
-1.725 5.448 -1.987 0.27000001
-1.744 5.448 -1.989 0.25
-1.76 5.441 -1.988 0.25999999
-1.771 5.4450002 -1.9910001 0.27000001
-1.786 5.4320002 -1.988 0.2
-1.801 5.4200001 -1.985 0.27000001
-1.824 5.4330001 -1.993 0.23999999
-1.841 5.4260001 -1.992 0.19
-1.853 5.4060001 -1.987 0.27000001
-1.873 5.4089999 -1.99 0.23
-1.885 5.415 -1.994 0.25999999
-1.903 5.4120002 -1.995 0.2
-1.919 5.4029999 -1.994 0.28
-1.934 5.3920002 -1.9910001 0.25
-1.955 5.3979998 -1.9960001 0.16
-1.973 5.395 -1.998 0.28999999
-1.984 5.3730001 -1.9910001 0.25
-1.997 5.382 -1.9960001 0.25999999
-2.017 5.3829999 -1.999 0.27000001
-2.0309999 5.368 -1.9960001 0.25
-2.049 5.3649998 -1.997 0.25999999
-2.073 5.3779998 -2.0050001 0.25
-2.085 5.3590002 -2 0.30000001
-2.102 5.3520002 -2 0.25999999
-2.1140001 5.3579998 -2.003 0.18000001
-2.1259999 5.3390002 -1.998 0.28
-2.1440001 5.336 -2 0.23999999
-2.1589999 5.3249998 -1.998 0.25
-2.1819999 5.3330002 -2.0039999 0.23999999
-2.1960001 5.3200002 -2.0020001 0.18000001
-2.2149999 5.3189998 -2.0039999 0.28999999
-2.2190001 5.303 -1.999 0.25
-2.2379999 5.303 -2.0020001 0.16
-2.253 5.2930002 -2 0.28999999
-2.2679999 5.2820001 -1.999 0.25
-2.2869999 5.2800002 -2.0009999 0.25
-2.306 5.2779999 -2.003 0.25999999
-2.322 5.2690001 -2.0020001 0.27000001
-2.3380001 5.2600002 -2.0020001 0.27000001
-2.3510001 5.2670002 -2.006 0.28
-2.365 5.2540002 -2.0039999 0.27000001
-2.381 5.2470002 -2.0039999 0.25999999
-2.3989999 5.2420001 -2.0050001 0.25999999
-2.418 5.2399998 -2.007 0.27000001
-2.438 5.2389998 -2.01 0.28999999
-2.461 5.2449999 -2.016 0.30000001
-2.4619999 5.2259998 -2.0090001 0.28
-2.483 5.2280002 -2.0139999 0.28999999
-2.5050001 5.2319999 -2.0179999 0.28999999
-2.5120001 5.204 -2.01 0.30000001
-2.529 5.198 -2.0109999 0.28999999
-2.5550001 5.21 -2.0190001 0.28999999
-2.5710001 5.2020001 -2.0190001 0.27000001
-2.586 5.21 -2.0239999 0.27000001
-2.6099999 5.2179999 -2.0309999 0.28999999
-2.6199999 5.197 -2.0250001 0.28999999
-2.6470001 5.2090001 -2.0339999 0.27000001
-2.6589999 5.1939998 -2.0309999 0.22
-2.674 5.1820002 -2.029 0.28
-2.6949999 5.1820002 -2.033 0.23
-2.7079999 5.1869998 -2.0369999 0.11
-2.724 5.1789999 -2.0369999 0.18000001
-2.7420001 5.1739998 -2.0380001 0.050000001
-2.7679999 5.1830001 -2.046 0.16
-2.7739999 5.1550002 -2.0380001 0.050000001
-2.7980001 5.1609998 -2.0439999 0.16
-2.812 5.1469998 -2.0420001 0.19
-2.8150001 5.1339998 -2.0380001 0.090000004
-2.8340001 5.1300001 -2.0409999 0.19
-2.8599999 5.1389999 -2.0480001 0.25
-2.872 5.1220002 -2.0450001 0.27000001
-2.878 5.0949998 -2.0369999 0.23
-2.9059999 5.1069999 -2.046 0.25
-2.9130001 5.0840001 -2.04 0.27000001
-2.9189999 5.0760002 -2.0380001 0.27000001
-2.947 5.086 -2.0469999 0.25
-2.9489999 5.0539999 -2.0369999 0.22
-2.9590001 5.0349998 -2.033 0.28
-2.9809999 5.0349998 -2.0369999 0.23
-3 5.0310001 -2.039 0.18000001
-3.003 5.0009999 -2.03 0.25999999
-3.016 4.9860001 -2.0280001 0.23999999
-3.0220001 4.9780002 -2.027 0.25
-3.0409999 4.9749999 -2.029 0.25
-3.053 4.9590001 -2.027 0.30000001
-3.059 4.9349999 -2.02 0.27000001
-3.0699999 4.9180002 -2.017 0.27000001
-3.0929999 4.921 -2.023 0.25
-3.099 4.9130001 -2.0209999 0.25999999
-3.118 4.9089999 -2.0239999 0.25
-3.1340001 4.8990002 -2.0239999 0.17
-3.141 4.8769999 -2.0179999 0.28999999
-3.1559999 4.8670001 -2.0179999 0.25
-3.1849999 4.8779998 -2.027 0.25
-3.1819999 4.8390002 -2.0150001 0.25999999
-3.2060001 4.8429999 -2.0209999 0.17
-3.2079999 4.829 -2.017 0.28999999
-3.2149999 4.8080001 -2.0120001 0.23999999
-3.2390001 4.8099999 -2.0179999 0.16
-3.243 4.7849998 -2.0109999 0.28999999
-3.256 4.7709999 -2.0090001 0.25
-3.2780001 4.77 -2.0139999 0.27000001
-3.296 4.7649999 -2.016 0.19
-3.286 4.7350001 -2.0050001 0.28
-3.3050001 4.7309999 -2.007 0.25
-3.329 4.7319999 -2.013 0.25
-3.3380001 4.7140002 -2.0090001 0.25999999
-3.3499999 4.6989999 -2.007 0.25999999
-3.3699999 4.6960001 -2.0109999 0.25999999
-3.3770001 4.6750002 -2.006 0.27000001
-3.3829999 4.6680002 -2.0050001 0.25
-3.401 4.6620002 -2.007 0.27000001
-3.4070001 4.6389999 -2.0020001 0.27000001
-3.4349999 4.6469998 -2.01 0.25999999
-3.4549999 4.6430001 -2.0139999 0.18000001
-3.4519999 4.6090002 -2.0020001 0.28999999
-3.4619999 4.592 -2 0.25
-3.477 4.5970001 -2.0050001 0.16
-3.4809999 4.572 -1.998 0.28999999
-3.4979999 4.5640001 -2 0.25
-3.5309999 4.579 -2.0109999 0.16
-3.5250001 4.5409999 -1.999 0.30000001
-3.533 4.5219998 -1.9960001 0.23999999
-3.5639999 4.5320001 -2.0050001 0.18000001
-3.5510001 4.5009999 -1.994 0.25999999
-3.575 4.5019999 -1.999 0.23
-3.5940001 4.4959998 -2.0020001 0.2
-3.595 4.4689999 -1.994 0.23999999
-3.6059999 4.4549999 -1.993 0.1
-3.6229999 4.4460001 -1.994 0.18000001
-3.6340001 4.4320002 -1.993 0.1
-3.645 4.4159999 -1.9910001 0.19
-3.6619999 4.4239998 -1.997 0.2
-3.668 4.402 -1.992 0.18000001
-3.6719999 4.3790002 -1.987 0.039999999
-3.7160001 4.4029999 -2.0039999 0
-3.7 4.3569999 -1.987 0
-3.714 4.3460002 -1.987 0
-3.7309999 4.3379998 -1.989 0
-3.7309999 4.3239999 -1.985 0
-3.7460001 4.3130002 -1.9859999 0
-3.7679999 4.3119998 -1.9910001 0
-3.7809999 4.3000002 -1.9910001 0
-3.779 4.27 -1.982 0
-3.7969999 4.263 -1.985 0
-3.813 4.2540002 -1.9859999 0
-3.8080001 4.2360001 -1.98 0
-3.829 4.2319999 -1.984 0
-3.848 4.2249999 -1.987 0
-3.8570001 4.2090001 -1.985 0
-3.8629999 4.1890001 -1.98 0
-3.881 4.1820002 -1.983 0
-3.8889999 4.164 -1.98 0
-3.9000001 4.164 -1.983 0
-3.9200001 4.158 -1.987 0
-3.9119999 4.1240001 -1.976 0
-3.951 4.1389999 -1.989 0
-3.9430001 4.105 -1.978 0
-3.95 4.086 -1.975 0.059999999
-3.961 4.072 -1.974 0.15000001
-3.9619999 4.0609999 -1.971 0.090000004
-3.984 4.0570002 -1.976 0.17
-3.977 4.0250001 -1.966 0.050000001
-3.9909999 4.0139999 -1.967 0.18000001
-4.0040002 4.0009999 -1.967 0.050000001
-4.026 3.9979999 -1.971 0.16
-4.0289998 3.9760001 -1.967 0.050000001
-4.0549998 3.9760001 -1.973 0.14
-4.0450001 3.954 -1.965 0.20999999
-4.0570002 3.9419999 -1.965 0.090000004
-4.0780001 3.937 -1.969 0.18000001
-4.0739999 3.908 -1.961 0.12
-4.0910001 3.901 -1.964 0.20999999
-4.0949998 3.8800001 -1.96 0.17
-4.0949998 3.8670001 -1.956 0.27000001
-4.125 3.8710001 -1.965 0.18000001
-4.1230001 3.845 -1.9579999 0.25
-4.138 3.835 -1.96 0.23
-4.151 3.823 -1.96 0.18000001
-4.145 3.7939999 -1.951 0.27000001
-4.1789999 3.8010001 -1.962 0.20999999
-4.1690001 3.779 -1.954 0.12
-4.1719999 3.7579999 -1.95 0.20999999
-4.2020001 3.7609999 -1.959 0.18000001
-4.2030001 3.7379999 -1.9529999 0.25999999
-4.2280002 3.737 -1.96 0.2
-4.223 3.7090001 -1.952 0.13
-4.23 3.6919999 -1.95 0.20999999
-4.2449999 3.6930001 -1.954 0.17
-4.2459998 3.671 -1.949 0.27000001
-4.2690001 3.668 -1.955 0.2
-4.2620001 3.638 -1.946 0.25
-4.2540002 3.608 -1.936 0
-4.2789998 3.6070001 -1.943 0
-4.289 3.592 -1.942 0
-4.3179998 3.5929999 -1.951 0
-4.3200002 3.5840001 -1.949 0
-4.316 3.5569999 -1.942 0.02
-4.3309999 3.5469999 -1.944 0.12
-4.3410001 3.5320001 -1.943 0.1
-4.348 3.5150001 -1.941 0.19
-4.3590002 3.5009999 -1.941 0.11
-4.3639998 3.483 -1.938 0
-4.362 3.47 -1.9349999 0
-4.4050002 3.4820001 -1.95 0
-4.3759999 3.437 -1.931 0.02
-4.4050002 3.437 -1.9400001 0.14
-4.3990002 3.411 -1.932 0.050000001
-4.3930001 3.3840001 -1.924 0.07
-4.4219999 3.3840001 -1.933 0.15000001
-4.4000001 3.3570001 -1.92 0.25
-4.408 3.3410001 -1.919 0.22
-4.4330001 3.3380001 -1.926 0.17
-4.4320002 3.3150001 -1.92 0.27000001
-4.4439998 3.302 -1.921 0.22
-4.4679999 3.2980001 -1.927 0.16
-4.4429998 3.2590001 -1.911 0.27000001
-4.4499998 3.253 -1.9119999 0.23
-4.4720001 3.2479999 -1.9170001 0.18000001
-4.4689999 3.224 -1.911 0.27000001
-4.474 3.207 -1.909 0.23999999
-4.493 3.1989999 -1.913 0.2
-4.493 3.177 -1.908 0.27000001
-4.506 3.165 -1.91 0.22
-4.5110002 3.158 -1.91 0.17
-4.5100002 3.1370001 -1.905 0.28
-4.5149999 3.119 -1.903 0.23999999
-4.5419998 3.1170001 -1.911 0.19
-4.5419998 3.096 -1.906 0.25999999
-4.5599999 3.0869999 -1.91 0.19
-4.552 3.0610001 -1.902 0.25
-4.5739999 3.066 -1.91 0.20999999
-4.579 3.0480001 -1.908 0.22
-4.5780001 3.026 -1.903 0.039999999
-4.5900002 3.0139999 -1.904 0
-4.6009998 3.0009999 -1.905 0
-4.6040001 2.9820001 -1.902 0.059999999
-4.6040001 2.9619999 -1.898 0
-4.6230001 2.9630001 -1.904 0.059999999
-4.6100001 2.9349999 -1.895 0.039999999
-4.638 2.9319999 -1.903 0.12
-4.6360002 2.911 -1.898 0.039999999
-4.6339998 2.8889999 -1.893 0.029999999
-4.6420002 2.8740001 -1.893 0.039999999
-4.6599998 2.865 -1.897 0.029999999
-4.6550002 2.842 -1.89 0
-4.6589999 2.8340001 -1.89 0
-4.6960001 2.836 -1.902 0
-4.6739998 2.803 -1.8890001 0
-4.6919999 2.7939999 -1.893 0.029999999
-4.6830001 2.7690001 -1.886 0.14
-4.6890001 2.7520001 -1.8839999 0.2
-4.6960001 2.737 -1.8839999 0.16
-4.698 2.7279999 -1.883 0.25999999
-4.7049999 2.7130001 -1.882 0.23
-4.7119999 2.697 -1.882 0.16
-4.711 2.677 -1.877 0.28
-4.724 2.665 -1.8789999 0.23
-4.7340002 2.651 -1.88 0.18000001
-4.7379999 2.6329999 -1.878 0.27000001
-4.724 2.6159999 -1.87 0.23999999
-4.7420001 2.6059999 -1.875 0.17
-4.7350001 2.5829999 -1.868 0.25999999
-4.743 2.5680001 -1.868 0.20999999
-4.7589998 2.5580001 -1.872 0.18000001
-4.7639999 2.5409999 -1.87 0.27000001
-4.7750001 2.5280001 -1.872 0.19
-4.756 2.5079999 -1.862 0.25
-4.7589998 2.4909999 -1.86 0.22
-4.7729998 2.4790001 -1.863 0.18000001
-4.7779999 2.4619999 -1.8609999 0.25999999
-4.796 2.4530001 -1.8660001 0.16
-4.7859998 2.4289999 -1.859 0.27000001
-4.7859998 2.4100001 -1.855 0.23
-4.7930002 2.404 -1.857 0.17
-4.79 2.3840001 -1.852 0.25999999
-4.8080001 2.3740001 -1.857 0.23
-4.803 2.3529999 -1.852 0.16
-4.802 2.3340001 -1.848 0.27000001
-4.8109999 2.319 -1.849 0.20999999
-4.8299999 2.3099999 -1.854 0.17
-4.8239999 2.2980001 -1.85 0.27000001
-4.8449998 2.289 -1.855 0.19
-4.8299999 2.263 -1.846 0.23999999
-4.8540001 2.256 -1.853 0.19
-4.8439999 2.233 -1.846 0.25
-4.8629999 2.223 -1.851 0.19
-4.8610001 2.204 -1.848 0.25
-4.8660002 2.197 -1.848 0.16
-4.8600001 2.1760001 -1.8430001 0.25999999
-4.8870001 2.1689999 -1.851 0.19
-4.8730001 2.145 -1.8430001 0.25
-4.9060001 2.141 -1.853 0.2
-4.895 2.118 -1.846 0.23
-4.9089999 2.1059999 -1.849 0.18000001
-4.9070001 2.096 -1.847 0.050000001
-4.915 2.0810001 -1.848 0
-4.9559999 2.0799999 -1.8609999 0
-4.9330001 2.052 -1.85 0.02
-4.9169998 2.0280001 -1.841 0.029999999
-4.9180002 2.01 -1.839 0
-4.9400001 2.0009999 -1.845 0.059999999
-4.9289999 1.988 -1.839 0.14
-4.927 1.969 -1.836 0.090000004
-4.954 1.961 -1.844 0.18000001
-4.9460001 1.9400001 -1.839 0.20999999
-4.9349999 1.918 -1.832 0.1
-4.948 1.905 -1.834 0
-4.948 1.888 -1.832 0
-4.96 1.883 -1.836 0
-4.9640002 1.867 -1.835 0
-4.9910002 1.859 -1.8430001 0
-4.6360002 -2.119 -1.7589999 0
-4.6259999 -2.1229999 -1.756 0
-4.585 -2.1210001 -1.743 0
-4.533 -2.1140001 -1.724 0.11
-4.5300002 -2.1300001 -1.725 0.20999999
-4.5190001 -2.142 -1.724 0.23999999
-4.5110002 -2.1559999 -1.723 0.28999999
-4.4990001 -2.1670001 -1.721 0.36000001
-4.4920001 -2.1730001 -1.72 0.30000001
-4.4749999 -2.1819999 -1.716 0.41999999
-4.467 -2.1949999 -1.715 0.36000001
-4.4549999 -2.207 -1.7130001 0.25
-4.4580002 -2.2260001 -1.717 0.44
-4.4190001 -2.224 -1.704 0.27000001
-4.3839998 -2.223 -1.692 0.31
-4.3520002 -2.2149999 -1.6799999 0.25
-4.3249998 -2.2179999 -1.6720001 0.25
-4.3000002 -2.2219999 -1.664 0.28
-4.2659998 -2.2219999 -1.653 0.28
-4.2410002 -2.2260001 -1.646 0.17
-4.198 -2.2190001 -1.631 0.28999999
-4.1890001 -2.2320001 -1.63 0.23
-4.184 -2.237 -1.6289999 0.15000001
-4.1729999 -2.2490001 -1.628 0.28999999
-4.1789999 -2.2690001 -1.633 0.23
-4.1690001 -2.28 -1.632 0.18000001
-4.1539998 -2.289 -1.628 0.25999999
-4.145 -2.3010001 -1.628 0.22
-4.1739998 -2.3340001 -1.643 0.23
-4.1760001 -2.345 -1.646 0.27000001
-4.158 -2.3510001 -1.641 0.31
-4.1599998 -2.3699999 -1.645 0.34
-4.1589999 -2.3870001 -1.648 0.28
-4.1659999 -2.408 -1.654 0.33000001
-4.1360002 -2.408 -1.6440001 0.25
-4.0679998 -2.3859999 -1.619 0.34999999
-4.0560002 -2.395 -1.617 0.34
-4.105 -2.434 -1.64 0.34
-4.0910001 -2.4430001 -1.637 0.27000001
-4.085 -2.4560001 -1.637 0.34
-4.073 -2.4660001 -1.635 0.31
-4.052 -2.471 -1.63 0.28
-4.0250001 -2.4719999 -1.622 0.34
-4.0250001 -2.48 -1.623 0.28999999
-4.0640001 -2.523 -1.6440001 0.37
-4.0139999 -2.5090001 -1.625 0.20999999
-3.8210001 -2.4030001 -1.544 0.31999999
-3.6389999 -2.3039999 -1.4680001 0.25
-3.793 -2.4189999 -1.539 0.18000001
-3.957 -2.5420001 -1.614 0.27000001
-3.928 -2.5320001 -1.603 0.38
-3.802 -2.467 -1.551 0.31
-3.586 -2.342 -1.459 0.27000001
-3.536 -2.325 -1.4400001 0.28
-3.5320001 -2.3380001 -1.442 0.43000001
-3.687 -2.4579999 -1.5140001 0.34
-3.6400001 -2.4430001 -1.4960001 0.30000001
-3.47 -2.336 -1.4220001 0.28
-3.444 -2.3340001 -1.414 0.27000001
-3.53 -2.4089999 -1.456 0.27000001
-3.5510001 -2.4400001 -1.469 0.33000001
-3.5380001 -2.447 -1.466 0.27000001
-3.516 -2.4489999 -1.46 0.37
-3.5309999 -2.4760001 -1.47 0.30000001
-3.5799999 -2.527 -1.4960001 0.38
-3.5780001 -2.5339999 -1.4960001 0.38
-3.5969999 -2.5650001 -1.5089999 0.28999999
-3.483 -2.4990001 -1.46 0.25999999
-3.398 -2.454 -1.425 0.34
-3.3640001 -2.4449999 -1.413 0.28999999
-3.3729999 -2.4679999 -1.421 0.34
-3.392 -2.4990001 -1.434 0.28999999
-3.408 -2.5190001 -1.443 0.34
-3.398 -2.5280001 -1.442 0.30000001
-3.4070001 -2.552 -1.449 0.34
-3.336 -2.5139999 -1.42 0.31
-3.322 -2.52 -1.418 0.28
-3.323 -2.5380001 -1.4220001 0.25999999
-3.378 -2.596 -1.451 0.17
-3.3659999 -2.596 -1.447 0.27000001
-3.3369999 -2.5899999 -1.438 0.23999999
-3.279 -2.5610001 -1.414 0.25999999
-3.29 -2.5869999 -1.423 0.22
-3.6040001 -2.855 -1.575 0.27000001
-3.5880001 -2.8610001 -1.572 0.40000001
-3.391 -2.7190001 -1.483 0.25
-3.2409999 -2.6059999 -1.413 0.28
-3.5 -2.835 -1.541 0.23
-3.51 -2.862 -1.55 0.20999999
-3.4430001 -2.825 -1.522 0.15000001
-3.2709999 -2.7 -1.444 0.20999999
-3.454 -2.8710001 -1.536 0.19
-3.4860001 -2.9170001 -1.556 0.37
-3.4679999 -2.9100001 -1.549 0.25
-3.4630001 -2.924 -1.551 0.33000001
-3.4519999 -2.934 -1.55 0.30000001
-3.402 -2.9089999 -1.53 0.30000001
-3.336 -2.8710001 -1.503 0.27000001
-3.279 -2.839 -1.479 0.22
-3.273 -2.852 -1.4809999 0.14
-3.3010001 -2.8859999 -1.4960001 0.33000001
-3.2690001 -2.8759999 -1.485 0.25
-3.256 -2.882 -1.483 0.23
-3.2130001 -2.862 -1.467 0.31999999
-3.1530001 -2.826 -1.441 0.30000001
-3.1730001 -2.862 -1.456 0.28
-3.233 -2.9360001 -1.49 0.28999999
-3.2119999 -2.9260001 -1.482 0.28999999
-3.1259999 -2.8640001 -1.443 0.2
-3.1730001 -2.927 -1.472 0.28999999
-3.2390001 -3.007 -1.51 0.23
-3.257 -3.043 -1.523 0.23999999
-3.2360001 -3.043 -1.518 0.25
-3.188 -3.0150001 -1.498 0.31
-3.1989999 -3.036 -1.506 0.28
-3.194 -3.05 -1.508 0.31
-3.1849999 -3.0610001 -1.5089999 0.25
-3.2060001 -3.102 -1.525 0.27000001
-3.211 -3.1259999 -1.5319999 0.31999999
-3.223 -3.1570001 -1.543 0.28
-3.2219999 -3.177 -1.548 0.34999999
-3.1700001 -3.1340001 -1.523 0.28999999
-3.1389999 -3.1229999 -1.512 0.23
-3.152 -3.1559999 -1.525 0.30000001
-3.1900001 -3.2149999 -1.55 0.25999999
-3.198 -3.243 -1.559 0.28
-3.197 -3.263 -1.564 0.31
-3.1830001 -3.2690001 -1.562 0.27000001
-3.1849999 -3.2820001 -1.566 0.40000001
-3.171 -3.2880001 -1.564 0.30000001
-3.1700001 -3.3069999 -1.569 0.34
-3.1470001 -3.3039999 -1.562 0.31999999
-3.1140001 -3.29 -1.55 0.33000001
-3.105 -3.3010001 -1.551 0.30000001
-3.096 -3.312 -1.552 0.28999999
-3.086 -3.312 -1.549 0.28999999
-3.0409999 -3.2839999 -1.53 0.30000001
-3.056 -3.3210001 -1.544 0.31
-3.033 -3.3169999 -1.5369999 0.30000001
-2.892 -3.181 -1.465 0.28999999
-2.8740001 -3.181 -1.46 0.36000001
-2.961 -3.299 -1.5140001 0.31999999
-3.0190001 -3.3759999 -1.55 0.28
-3.0190001 -3.398 -1.556 0.31999999
-2.948 -3.3380001 -1.522 0.18000001
-2.8889999 -3.29 -1.494 0.31999999
-2.9319999 -3.362 -1.525 0.25
-2.9660001 -3.4230001 -1.55 0.27000001
-2.9430001 -3.418 -1.543 0.28999999
-2.938 -3.424 -1.543 0.25
-2.9170001 -3.4200001 -1.5369999 0.27000001
-2.924 -3.451 -1.548 0.28999999
-2.9590001 -3.5150001 -1.574 0.28999999
-2.9649999 -3.5439999 -1.584 0.30000001
-2.957 -3.5580001 -1.586 0.31
-2.961 -3.586 -1.595 0.33000001
-2.931 -3.5599999 -1.58 0.31
-2.898 -3.543 -1.568 0.31
-2.9189999 -3.592 -1.586 0.34
-2.881 -3.5669999 -1.5700001 0.31999999
-2.8469999 -3.5480001 -1.557 0.25999999
-2.8340001 -3.5539999 -1.556 0.30000001
-2.8399999 -3.585 -1.566 0.28999999
-2.868 -3.632 -1.586 0.28999999
-2.8629999 -3.6500001 -1.59 0.28999999
-2.8469999 -3.6530001 -1.5880001 0.28999999
-2.8280001 -3.652 -1.5829999 0.33000001
-2.802 -3.641 -1.574 0.34
-2.7909999 -3.652 -1.575 0.17
-2.779 -3.6589999 -1.574 0.28999999
-2.793 -3.6900001 -1.586 0.20999999
-2.7609999 -3.6719999 -1.574 0.23
-2.7509999 -3.6819999 -1.575 0.1
-2.743 -3.6949999 -1.577 0.18000001
-2.7130001 -3.6800001 -1.566 0.050000001
-2.7160001 -3.7079999 -1.575 0.16
-2.707 -3.7190001 -1.576 0.050000001
-2.687 -3.704 -1.567 0.17
-2.675 -3.7119999 -1.567 0.2
-2.691 -3.76 -1.585 0.16
-2.664 -3.747 -1.575 0.23
-2.658 -3.763 -1.579 0.19
-2.6329999 -3.753 -1.5700001 0.050000001
-2.6229999 -3.763 -1.571 0.17
-2.6140001 -3.763 -1.569 0.2
-2.6159999 -3.7920001 -1.579 0.2
-2.5780001 -3.7620001 -1.561 0.23
-2.5699999 -3.7750001 -1.563 0.23999999
-2.5680001 -3.7980001 -1.5700001 0.22
-2.543 -3.786 -1.561 0.25
-2.5339999 -3.799 -1.563 0.23
-2.513 -3.7809999 -1.554 0.17
-2.4960001 -3.7809999 -1.55 0.30000001
-2.474 -3.773 -1.543 0.23
-2.474 -3.7980001 -1.551 0.17
-2.4519999 -3.79 -1.544 0.28999999
-2.437 -3.793 -1.5420001 0.22
-2.4230001 -3.7969999 -1.541 0.14
-2.411 -3.7909999 -1.5369999 0.28999999
-2.4030001 -3.8050001 -1.539 0.25
-2.395 -3.819 -1.5420001 0.28
-2.3870001 -3.8329999 -1.545 0.28999999
-2.3699999 -3.8329999 -1.541 0.16
-2.352 -3.8299999 -1.5369999 0.28
-2.3469999 -3.849 -1.5420001 0.18000001
-2.3340001 -3.8410001 -1.5369999 0.25
-2.335 -3.8710001 -1.5470001 0.18000001
-2.3069999 -3.8510001 -1.535 0.25
-2.3039999 -3.875 -1.5420001 0.16
-2.2839999 -3.869 -1.5369999 0.23
-2.2820001 -3.892 -1.543 0.17
-2.256 -3.8770001 -1.534 0.23999999
-2.2609999 -3.9000001 -1.5420001 0.17
-2.233 -3.8789999 -1.53 0.23
-2.23 -3.901 -1.5369999 0.16
-2.2130001 -3.9000001 -1.533 0.27000001
-2.204 -3.9130001 -1.536 0.23
-2.1930001 -3.9219999 -1.5369999 0.23
-2.1830001 -3.9330001 -1.539 0.28999999
-2.171 -3.927 -1.534 0.28999999
-2.1589999 -3.934 -1.534 0.34999999
-2.148 -3.9419999 -1.535 0.37
-2.1329999 -3.9460001 -1.534 0.23999999
-2.1159999 -3.9419999 -1.53 0.16
-2.1059999 -3.954 -1.5319999 0.20999999
-2.095 -3.964 -1.533 0.16
-2.085 -3.9590001 -1.53 0.27000001
-2.073 -3.967 -1.53 0.23
-2.062 -3.977 -1.5319999 0.15000001
-2.0409999 -3.967 -1.525 0.28
-2.0420001 -4 -1.536 0.19
-2.017 -3.9809999 -1.525 0.13
-2.0139999 -3.9909999 -1.528 0.20999999
-2.0009999 -3.9949999 -1.528 0.17
-1.985 -3.9949999 -1.525 0.25999999
-1.973 -4.0009999 -1.525 0.23
-1.965 -4.0180001 -1.529 0.18000001
-1.946 -4.0100002 -1.523 0.27000001
-1.9349999 -4.02 -1.525 0.22
-1.926 -4.0180001 -1.523 0.17
-1.909 -4.0149999 -1.5190001 0.28
-1.899 -4.026 -1.521 0.22
-1.892 -4.0440001 -1.526 0.17
-1.8710001 -4.0310001 -1.5190001 0.27000001
-1.868 -4.059 -1.528 0.19
-1.845 -4.0430002 -1.5190001 0.25
-1.831 -4.0450001 -1.517 0.22
-1.825 -4.0479999 -1.517 0.17
-1.812 -4.0539999 -1.517 0.27000001
-1.799 -4.0580001 -1.516 0.23
-1.784 -4.0599999 -1.515 0.18000001
-1.774 -4.0710001 -1.517 0.28
-1.758 -4.0689998 -1.5140001 0.23
-1.757 -4.0840001 -1.5190001 0.17
-1.732 -4.0599999 -1.507 0.25999999
-1.73 -4.092 -1.518 0.18000001
-1.711 -4.0830002 -1.512 0.25
-1.697 -4.085 -1.511 0.22
-1.687 -4.0970001 -1.5140001 0.17
-1.671 -4.0960002 -1.511 0.27000001
-1.665 -4.0999999 -1.512 0.23
-1.655 -4.1110001 -1.5140001 0.17
-1.6339999 -4.0960002 -1.506 0.27000001
-1.628 -4.119 -1.513 0.23
-1.6109999 -4.1139998 -1.5089999 0.16
-1.597 -4.1149998 -1.507 0.27000001
-1.5880001 -4.1329999 -1.512 0.19
-1.572 -4.1090002 -1.502 0.25
-1.564 -4.1279998 -1.507 0.16
-1.556 -4.145 -1.512 0.25999999
-1.54 -4.1430001 -1.51 0.23
-1.525 -4.1420002 -1.507 0.16
-1.51 -4.1420002 -1.505 0.27000001
-1.497 -4.145 -1.505 0.23999999
-1.483 -4.1479998 -1.5039999 0.16
-1.479 -4.1570001 -1.507 0.28999999
-1.462 -4.1490002 -1.502 0.25
-1.4529999 -4.1659999 -1.507 0.14
-1.437 -4.1620002 -1.503 0.28999999
-1.423 -4.165 -1.503 0.22
-1.4170001 -4.1900001 -1.511 0.2
-1.399 -4.1810002 -1.505 0.13
-1.392 -4.1810002 -1.505 0.20999999
-1.3789999 -4.1830001 -1.5039999 0.17
-1.36 -4.1719999 -1.498 0.27000001
-1.349 -4.1830001 -1.501 0.18000001
-1.335 -4.1820002 -1.499 0.13
-1.325 -4.1989999 -1.503 0.2
-1.316 -4.1919999 -1.5 0.16
-1.302 -4.1919999 -1.499 0.28
-1.29 -4.1999998 -1.5 0.20999999
-1.281 -4.2199998 -1.506 0.18000001
-1.266 -4.217 -1.503 0.27000001
-1.255 -4.2280002 -1.506 0.19
-1.234 -4.2049999 -1.4960001 0.13
-1.226 -4.2049999 -1.495 0.2
-1.217 -4.223 -1.501 0.18000001
-1.2 -4.2129998 -1.495 0.25999999
-1.191 -4.2329998 -1.501 0.16
-1.175 -4.2270002 -1.498 0.25
-1.159 -4.2199998 -1.494 0.16
-1.146 -4.2259998 -1.494 0.25999999
-1.136 -4.2399998 -1.499 0.16
-1.123 -4.217 -1.489 0.25999999
-1.1160001 -4.2449999 -1.499 0.16
-1.097 -4.2270002 -1.49 0.27000001
-1.0880001 -4.2470002 -1.4960001 0.16
-1.071 -4.2340002 -1.49 0.28
-1.059 -4.243 -1.492 0.19
-1.051 -4.2410002 -1.4910001 0.25
-1.039 -4.2480001 -1.492 0.22
-1.026 -4.2550001 -1.494 0.17
-1.0089999 -4.2399998 -1.487 0.27000001
-1 -4.2649999 -1.495 0.18000001
-0.986 -4.2639999 -1.494 0.25
-0.972 -4.2649999 -1.493 0.16
-0.96100003 -4.2490001 -1.4859999 0.27000001
-0.954 -4.277 -1.4960001 0.19
-0.93400002 -4.2509999 -1.485 0.25
-0.926 -4.2779999 -1.494 0.15000001
-0.90600002 -4.2509999 -1.483 0.25999999
-0.89700001 -4.2740002 -1.49 0.18000001
-0.87900001 -4.2550001 -1.482 0.13
-0.87400001 -4.2649999 -1.485 0.20999999
-0.86400002 -4.2849998 -1.492 0.16
-0.84399998 -4.256 -1.48 0.27000001
-0.833 -4.2680001 -1.483 0.22
-0.81900001 -4.2670002 -1.482 0.17
-0.80500001 -4.2659998 -1.4809999 0.25999999
-0.79299998 -4.277 -1.484 0.16
-0.78399998 -4.2639999 -1.478 0.27000001
-0.77399999 -4.2870002 -1.4859999 0.2
-0.75599998 -4.2670002 -1.478 0.12
-0.74599999 -4.2859998 -1.484 0.2
-0.73199999 -4.2880001 -1.484 0.16
-0.71399999 -4.257 -1.472 0.25999999
-0.70300001 -4.2800002 -1.479 0.16
-0.69499999 -4.2729998 -1.476 0.25999999
-0.68699998 -4.3109999 -1.49 0.18000001
-0.66900003 -4.2779999 -1.476 0.25
-0.65600002 -4.2849998 -1.478 0.17
-0.64300001 -4.2870002 -1.478 0.25
-0.62800002 -4.2839999 -1.476 0.18000001
-0.61400002 -4.2800002 -1.474 0.25
-0.60900003 -4.2940001 -1.479 0.16
-0.59299999 -4.276 -1.472 0.25999999
-0.57999998 -4.2810001 -1.473 0.16
-0.56699997 -4.29 -1.476 0.27000001
-0.55599999 -4.3049998 -1.4809999 0.23
-0.54000002 -4.29 -1.474 0.17
-0.52700001 -4.2940001 -1.475 0.27000001
-0.51999998 -4.296 -1.476 0.16
-0.50599998 -4.2919998 -1.474 0.28
-0.495 -4.3179998 -1.483 0.19
-0.479 -4.2969999 -1.474 0.25
-0.46799999 -4.3189998 -1.482 0.18000001
-0.45100001 -4.2870002 -1.469 0.13
-0.43799999 -4.2940001 -1.472 0.20999999
-0.43200001 -4.3060002 -1.476 0.17
-0.417 -4.2930002 -1.47 0.27000001
-0.40400001 -4.2979999 -1.472 0.18000001
-0.389 -4.2820001 -1.465 0.25
-0.37799999 -4.3080001 -1.474 0.16
-0.36300001 -4.2919998 -1.4680001 0.25999999
-0.35100001 -4.3060002 -1.473 0.18000001
-0.34299999 -4.2969999 -1.469 0.23999999
-0.331 -4.323 -1.478 0.19
-0.31600001 -4.2940001 -1.467 0.12
-0.30199999 -4.2969999 -1.4680001 0.20999999
-0.289 -4.3070002 -1.472 0.2
-0.27500001 -4.2930002 -1.466 0.25999999
-0.26300001 -4.3140001 -1.474 0.19
-0.255 -4.296 -1.467 0.12
-0.241 -4.2849998 -1.4630001 0.2
-0.229 -4.329 -1.478 0.16
-0.215 -4.3070002 -1.47 0.25999999
-0.20200001 -4.3210001 -1.475 0.19
-0.18700001 -4.2919998 -1.464 0.25
-0.175 -4.3340001 -1.479 0.18000001
-0.167 -4.3000002 -1.467 0.13
-0.153 -4.2909999 -1.4630001 0.20999999
-0.141 -4.3239999 -1.475 0.16
-0.127 -4.3000002 -1.466 0.25999999
-0.114 -4.3319998 -1.478 0.18000001
-0.098999999 -4.2849998 -1.46 0.25
-0.086000003 -4.3210001 -1.474 0.18000001
-0.079000004 -4.3060002 -1.4680001 0.25
-0.066 -4.3140001 -1.471 0.17
-0.052000001 -4.296 -1.464 0.23999999
-0.039000001 -4.335 -1.478 0.18000001
-0.025 -4.2979999 -1.465 0.23999999
-0.012 -4.3260002 -1.475 0.18000001
0.0020000001 -4.303 -1.467 0.25
0.0089999996 -4.3260002 -1.475 0.18000001
0.022 -4.309 -1.469 0.13
0.035999998 -4.3239999 -1.474 0.20999999
0.048999999 -4.303 -1.467 0.16
0.063000001 -4.2969999 -1.465 0.25999999
0.077 -4.3270001 -1.476 0.18000001
0.090000004 -4.3060002 -1.4680001 0.25
0.097000003 -4.3080001 -1.469 0.16
0.11 -4.3099999 -1.469 0.27000001
0.124 -4.3039999 -1.467 0.22
0.138 -4.3179998 -1.473 0.18000001
0.15099999 -4.303 -1.467 0.25999999
0.16500001 -4.3150001 -1.472 0.15000001
0.178 -4.309 -1.47 0.25999999
0.185 -4.3200002 -1.474 0.18000001
0.198 -4.3010001 -1.467 0.23999999
0.212 -4.3189998 -1.474 0.16
0.22499999 -4.3049998 -1.469 0.25999999
0.23899999 -4.3140001 -1.473 0.2
0.252 -4.296 -1.467 0.12
0.26699999 -4.3249998 -1.478 0.18000001
0.273 -4.3080001 -1.472 0.12
0.287 -4.3150001 -1.474 0.20999999
0.30000001 -4.3099999 -1.473 0.17
0.31299999 -4.2979999 -1.469 0.25999999
0.32699999 -4.3080001 -1.473 0.20999999
0.34200001 -4.3140001 -1.476 0.16
0.35499999 -4.3130002 -1.476 0.27000001
0.36199999 -4.3109999 -1.475 0.19
0.373 -4.2870002 -1.467 0.25
0.38800001 -4.303 -1.473 0.16
0.39899999 -4.2750001 -1.4630001 0.25999999
0.41600001 -4.3099999 -1.476 0.18000001
0.42899999 -4.2989998 -1.473 0.25
0.442 -4.296 -1.472 0.18000001
0.44600001 -4.2729998 -1.464 0.23999999
0.46200001 -4.2919998 -1.472 0.16
0.47499999 -4.2870002 -1.47 0.25999999
0.49000001 -4.3000002 -1.476 0.18000001
0.50199997 -4.2800002 -1.469 0.25
0.51700002 -4.2930002 -1.474 0.2
0.52200001 -4.283 -1.471 0.12
0.537 -4.2909999 -1.474 0.18000001
0.54900002 -4.2779999 -1.47 0.12
0.565 -4.2909999 -1.476 0.18000001
0.57700002 -4.283 -1.474 0.12
0.59200001 -4.2930002 -1.478 0.18000001
0.60100001 -4.256 -1.465 0.11
0.61299998 -4.29 -1.478 0.17
0.62300003 -4.2659998 -1.469 0.12
0.63800001 -4.2750001 -1.474 0.18000001
0.64899999 -4.2620001 -1.469 0.050000001
0.66299999 -4.2620001 -1.47 0.16
0.67400002 -4.2449999 -1.465 0.039999999
0.69099998 -4.2610002 -1.472 0.079999998
0.69499999 -4.2470002 -1.467 0.039999999
0.71200001 -4.2670002 -1.475 0
0.722 -4.2459998 -1.4680001 0
0.73000002 -4.2119999 -1.456 0
0.75 -4.2449999 -1.469 0
0.75999999 -4.2280002 -1.464 0
0.77499998 -4.2329998 -1.467 0
0.78100002 -4.23 -1.466 0
0.80000001 -4.2550001 -1.476 0
0.81300002 -4.2490001 -1.475 0
0.82099998 -4.224 -1.467 0
0.84100002 -4.2550001 -1.479 0
0.85000002 -4.2259998 -1.469 0
0.86199999 -4.2220001 -1.469 0
0.86699998 -4.2090001 -1.465 0
0.87800002 -4.1989999 -1.462 0
0.89200002 -4.197 -1.462 0
2.5769999 -3.625 -1.52 0
2.5799999 -3.605 -1.5140001 0
2.592 -3.598 -1.515 0
2.6040001 -3.6029999 -1.5190001 0
2.5899999 -3.5610001 -1.503 0.050000001
2.6099999 -3.5639999 -1.5089999 0.20999999
2.619 -3.553 -1.507 0.25999999
2.6429999 -3.5610001 -1.515 0.15000001
2.6500001 -3.549 -1.513 0.28999999
2.661 -3.54 -1.513 0.25
2.6730001 -3.5439999 -1.516 0.27000001
2.6789999 -3.529 -1.5140001 0.25999999
2.698 -3.5309999 -1.5190001 0.25
2.7079999 -3.5209999 -1.518 0.17
2.714 -3.5050001 -1.5140001 0.30000001
2.7260001 -3.4979999 -1.515 0.25
2.73 -3.4809999 -1.511 0.25
2.743 -3.4749999 -1.512 0.16
2.7509999 -3.474 -1.5140001 0.28999999
2.773 -3.48 -1.521 0.23
2.7809999 -3.467 -1.5190001 0.15000001
2.786 -3.451 -1.515 0.28999999
2.8039999 -3.451 -1.5190001 0.23999999
2.812 -3.4389999 -1.518 0.16
2.803 -3.4170001 -1.51 0.28999999
2.836 -3.434 -1.522 0.25
2.855 -3.4349999 -1.527 0.16
2.8440001 -3.401 -1.5140001 0.28999999
2.8640001 -3.4030001 -1.52 0.23
2.8759999 -3.395 -1.521 0.15000001
2.881 -3.3789999 -1.517 0.28999999
2.9030001 -3.395 -1.527 0.25
2.8959999 -3.3659999 -1.517 0.25999999
2.9170001 -3.368 -1.523 0.25999999
2.9300001 -3.3610001 -1.524 0.25
2.9360001 -3.3469999 -1.521 0.15000001
2.944 -3.335 -1.52 0.28999999
2.957 -3.3280001 -1.521 0.25
2.977 -3.3399999 -1.53 0.18000001
2.973 -3.316 -1.522 0.28
2.99 -3.313 -1.525 0.25
3.0079999 -3.312 -1.53 0.27000001
3.007 -3.29 -1.523 0.25999999
3.0280001 -3.2920001 -1.529 0.16
3.03 -3.2739999 -1.525 0.30000001
3.0380001 -3.2720001 -1.526 0.25
3.0610001 -3.276 -1.533 0.16
3.0610001 -3.2550001 -1.528 0.28999999
3.0739999 -3.2490001 -1.529 0.25
3.102 -3.2579999 -1.539 0.25999999
3.102 -3.237 -1.533 0.15000001
3.1029999 -3.2179999 -1.528 0.28999999
3.1159999 -3.221 -1.5319999 0.25
3.1229999 -3.2090001 -1.531 0.15000001
3.132 -3.198 -1.53 0.28999999
3.148 -3.1930001 -1.533 0.23999999
3.1659999 -3.191 -1.5369999 0.15000001
3.1659999 -3.1719999 -1.5319999 0.28999999
3.175 -3.161 -1.5319999 0.23999999
3.1919999 -3.1670001 -1.538 0.16
3.1960001 -3.152 -1.535 0.30000001
3.198 -3.1340001 -1.531 0.23
3.22 -3.1359999 -1.5369999 0.17
3.23 -3.1259999 -1.5369999 0.28
3.2360001 -3.112 -1.535 0.23
3.25 -3.1159999 -1.54 0.16
3.253 -3.099 -1.5369999 0.28999999
3.266 -3.0910001 -1.538 0.25
3.279 -3.085 -1.54 0.16
3.2780001 -3.0639999 -1.534 0.28999999
3.3 -3.066 -1.541 0.25
3.3099999 -3.0550001 -1.541 0.25999999
3.316 -3.0510001 -1.541 0.16
3.3310001 -3.046 -1.544 0.28999999
3.3340001 -3.029 -1.541 0.25
3.3540001 -3.029 -1.546 0.27000001
3.3610001 -3.016 -1.545 0.25999999
3.3900001 -3.0220001 -1.5549999 0.18000001
3.378 -2.993 -1.544 0.27000001
3.405 -2.997 -1.552 0.23999999
3.401 -2.9849999 -1.548 0.27000001
3.405 -2.9690001 -1.546 0.16
3.415 -2.9590001 -1.546 0.30000001
3.4289999 -2.9519999 -1.548 0.25
3.444 -2.9460001 -1.551 0.19
3.4530001 -2.9360001 -1.551 0.28
3.473 -2.9330001 -1.556 0.23999999
3.4679999 -2.9200001 -1.552 0.16
3.47 -2.904 -1.548 0.28999999
3.49 -2.901 -1.553 0.25
3.506 -2.8959999 -1.557 0.16
3.503 -2.875 -1.551 0.28999999
3.5150001 -2.8670001 -1.552 0.25
3.513 -2.855 -1.549 0.16
3.5320001 -2.8529999 -1.554 0.30000001
3.539 -2.8399999 -1.553 0.25
3.5599999 -2.8380001 -1.559 0.19
3.5699999 -2.8280001 -1.559 0.27000001
3.572 -2.8110001 -1.556 0.23999999
3.5940001 -2.8110001 -1.562 0.25
3.6029999 -2.8080001 -1.564 0.17
3.6010001 -2.789 -1.559 0.28999999
3.608 -2.777 -1.559 0.23999999
3.638 -2.7809999 -1.568 0.17
3.6359999 -2.7620001 -1.563 0.27000001
3.642 -2.7479999 -1.562 0.25
3.655 -2.74 -1.564 0.27000001
3.6619999 -2.7360001 -1.566 0.16
3.665 -2.72 -1.563 0.28999999
3.675 -2.71 -1.563 0.25
3.6900001 -2.7030001 -1.566 0.15000001
3.697 -2.6900001 -1.566 0.28999999
3.71 -2.6819999 -1.568 0.25
3.7190001 -2.671 -1.568 0.27000001
3.727 -2.668 -1.5700001 0.27000001
3.7260001 -2.6489999 -1.566 0.27000001
3.7509999 -2.6489999 -1.573 0.25999999
3.7579999 -2.6370001 -1.572 0.25999999
3.7750001 -2.631 -1.577 0.16
3.767 -2.608 -1.569 0.28999999
3.779 -2.599 -1.571 0.25
3.8050001 -2.608 -1.581 0.16
3.8099999 -2.5940001 -1.579 0.30000001
3.803 -2.5710001 -1.572 0.25
3.825 -2.569 -1.579 0.17
3.8269999 -2.552 -1.576 0.28999999
3.835 -2.54 -1.576 0.23
3.855 -2.5369999 -1.581 0.15000001
3.858 -2.529 -1.581 0.30000001
3.8629999 -2.5150001 -1.579 0.25
3.888 -2.5139999 -1.587 0.25
3.8940001 -2.5009999 -1.586 0.16
3.8829999 -2.477 -1.5779999 0.30000001
3.908 -2.4760001 -1.586 0.25
3.9389999 -2.4860001 -1.597 0.23
3.9330001 -2.4649999 -1.591 0.15000001
3.9189999 -2.4400001 -1.582 0.30000001
3.9400001 -2.4349999 -1.5880001 0.25
3.9619999 -2.4319999 -1.594 0.16
3.9489999 -2.4070001 -1.585 0.28999999
3.964 -2.3989999 -1.5880001 0.23999999
3.973 -2.3959999 -1.59 0.16
3.9849999 -2.3859999 -1.5930001 0.28999999
3.9909999 -2.3729999 -1.592 0.25
4.0100002 -2.3670001 -1.597 0.16
4.0190001 -2.355 -1.597 0.30000001
4.0229998 -2.3399999 -1.596 0.23
4.04 -2.3329999 -1.6 0.16
4.0419998 -2.326 -1.599 0.30000001
4.0510001 -2.3139999 -1.6 0.23999999
4.0650001 -2.3050001 -1.603 0.16
4.066 -2.289 -1.6 0.28999999
4.073 -2.276 -1.6 0.25
4.0819998 -2.2639999 -1.601 0.25999999
4.0999999 -2.2579999 -1.6059999 0.27000001
4.1020002 -2.2420001 -1.604 0.27000001
4.1069999 -2.2360001 -1.604 0.25999999
4.1129999 -2.223 -1.604 0.16
4.1399999 -2.22 -1.612 0.28999999
4.145 -2.2060001 -1.6109999 0.23999999
4.145 -2.1900001 -1.608 0.27000001
4.1620002 -2.1819999 -1.613 0.27000001
4.1589999 -2.1719999 -1.61 0.28
4.1669998 -2.1600001 -1.6109999 0.25999999
4.1820002 -2.151 -1.614 0.27000001
4.1859999 -2.1359999 -1.613 0.27000001
4.2129998 -2.1329999 -1.6210001 0.16
4.2090001 -2.115 -1.617 0.30000001
4.2129998 -2.0999999 -1.615 0.25
4.223 -2.0969999 -1.618 0.17
4.2329998 -2.085 -1.619 0.28999999
4.2360001 -2.0699999 -1.618 0.25
4.2470002 -2.059 -1.62 0.25999999
4.2600002 -2.049 -1.623 0.16
4.2550001 -2.03 -1.618 0.28999999
4.2649999 -2.0179999 -1.619 0.23999999
4.2870002 -2.02 -1.627 0.25999999
4.2950001 -2.0079999 -1.628 0.16
4.296 -1.992 -1.626 0.30000001
4.302 -1.978 -1.626 0.23999999
4.3119998 -1.966 -1.627 0.27000001
4.3140001 -1.951 -1.626 0.27000001
4.3140001 -1.9349999 -1.623 0.28
4.3270001 -1.932 -1.627 0.27000001
4.3330002 -1.919 -1.627 0.27000001
4.355 -1.9119999 -1.633 0.25999999
4.3590002 -1.897 -1.633 0.17
4.3470001 -1.876 -1.626 0.28999999
4.362 -1.8660001 -1.6289999 0.25
4.3829999 -1.859 -1.635 0.27000001
4.3759999 -1.848 -1.631 0.27000001
4.3990002 -1.841 -1.638 0.23999999
4.4000001 -1.825 -1.636 0.18000001
4.3969998 -1.808 -1.633 0.30000001
4.4130001 -1.798 -1.637 0.25
4.4289999 -1.789 -1.641 0.25
4.4239998 -1.771 -1.637 0.18000001
4.4369998 -1.768 -1.641 0.28999999
4.46 -1.761 -1.648 0.23999999
4.4689999 -1.748 -1.649 0.25999999
4.4759998 -1.734 -1.65 0.25999999
4.4920001 -1.724 -1.654 0.25
4.487 -1.706 -1.65 0.17
4.4819999 -1.688 -1.646 0.30000001
4.5009999 -1.687 -1.652 0.25
4.5079999 -1.674 -1.653 0.25
4.5089998 -1.658 -1.651 0.25
4.5289998 -1.649 -1.6569999 0.2
4.5279999 -1.633 -1.655 0.28
4.5370002 -1.62 -1.656 0.23999999
4.5560002 -1.618 -1.6619999 0.25999999
4.585 -1.613 -1.6720001 0.19
4.598 -1.601 -1.675 0.25999999
4.631 -1.596 -1.686 0.23999999
4.6430001 -1.584 -1.689 0.25
4.6659999 -1.575 -1.696 0.15000001
4.658 -1.556 -1.691 0.28
4.6789999 -1.5549999 -1.698 0.23
4.678 -1.538 -1.696 0.18000001
4.665 -1.518 -1.689 0.28
4.6719999 -1.5039999 -1.689 0.22
4.6869998 -1.492 -1.693 0.17
4.6849999 -1.475 -1.691 0.28
4.6999998 -1.464 -1.6950001 0.23
4.7119999 -1.451 -1.698 0.17
4.6890001 -1.436 -1.688 0.28
4.6929998 -1.4220001 -1.688 0.23999999
4.7049999 -1.409 -1.691 0.16
4.7059999 -1.393 -1.689 0.28999999
4.7030001 -1.376 -1.687 0.23999999
4.711 -1.363 -1.688 0.16
4.6989999 -1.351 -1.682 0.28999999
4.71 -1.3380001 -1.6849999 0.25
4.7270002 -1.327 -1.6900001 0.16
4.7179999 -1.309 -1.6849999 0.28
4.717 -1.293 -1.683 0.23
4.7340002 -1.281 -1.688 0.18000001
4.7199998 -1.261 -1.681 0.27000001
4.7340002 -1.257 -1.686 0.23999999
4.7639999 -1.249 -1.696 0.25
4.7490001 -1.229 -1.689 0.17
4.7420001 -1.212 -1.684 0.28999999
4.7420001 -1.196 -1.683 0.25
4.7529998 -1.183 -1.686 0.18000001
4.7519999 -1.1670001 -1.684 0.27000001
4.7519999 -1.159 -1.683 0.22
4.7719998 -1.148 -1.689 0.15000001
4.77 -1.131 -1.687 0.28999999
4.7589998 -1.113 -1.682 0.25
4.7859998 -1.103 -1.691 0.23
4.7709999 -1.084 -1.684 0.13
4.776 -1.0700001 -1.684 0.20999999
4.7909999 -1.0650001 -1.689 0.2
4.7740002 -1.046 -1.682 0.13
4.7680001 -1.029 -1.678 0.20999999
4.7909999 -1.018 -1.686 0.17
4.7820001 -1 -1.681 0.27000001
4.8049998 -0.98900002 -1.689 0.16
4.7919998 -0.97100002 -1.682 0.27000001
4.8189998 -0.96799999 -1.692 0.18000001
4.796 -0.94800001 -1.682 0.25
4.8270001 -0.93800002 -1.693 0.18000001
4.8109999 -0.92000002 -1.686 0.25
4.823 -0.90600002 -1.689 0.19
4.8000002 -0.88700002 -1.6799999 0.12
4.8400002 -0.87800002 -1.693 0.18000001
4.8169999 -0.866 -1.684 0.22
4.8439999 -0.85500002 -1.693 0.18000001
4.8189998 -0.83499998 -1.683 0.25
4.823 -0.81999999 -1.684 0.16
4.822 -0.80500001 -1.682 0.25999999
4.862 -0.79500002 -1.696 0.18000001
4.8270001 -0.77399999 -1.682 0.25
4.8509998 -0.76999998 -1.691 0.17
4.8270001 -0.75099999 -1.681 0.059999999
4.8309999 -0.736 -1.682 0.18000001
4.8410001 -0.722 -1.684 0.11
4.8559999 -0.70899999 -1.689 0.18000001
4.8439999 -0.69099998 -1.684 0.23
4.8439999 -0.676 -1.683 0.1
4.875 -0.67199999 -1.694 0.15000001
4.8470001 -0.653 -1.683 0.20999999
4.8769999 -0.64099997 -1.693 0.17
4.8400002 -0.62099999 -1.679 0.059999999
4.862 -0.60900003 -1.687 0.17
4.8569999 -0.59200001 -1.684 0.11
4.8600001 -0.57700002 -1.684 0.18000001
4.8520002 -0.56900001 -1.681 0.11
4.8870001 -0.55699998 -1.693 0.17
4.8699999 -0.54000002 -1.687 0.22
4.8660002 -0.52399999 -1.684 0.1
4.8699999 -0.509 -1.6849999 0.18000001
4.8579998 -0.49200001 -1.6799999 0.11
4.8860002 -0.479 -1.6900001 0.17
4.8610001 -0.46900001 -1.6799999 0.050000001
4.8899999 -0.456 -1.691 0.17
4.8839998 -0.44 -1.688 0.11
4.8759999 -0.42399999 -1.684 0.17
4.8759999 -0.40900001 -1.684 0.20999999
4.8920002 -0.39500001 -1.689 0.16
4.8889999 -0.38699999 -1.688 0.23999999
4.888 -0.37099999 -1.687 0.17
4.8779998 -0.35499999 -1.683 0.059999999
4.8920002 -0.34099999 -1.688 0.17
4.8800001 -0.324 -1.683 0.11
4.9130001 -0.31099999 -1.6950001 0.18000001
4.8909998 -0.294 -1.687 0.12
4.8899999 -0.27900001 -1.686 0.18000001
4.8979998 -0.27200001 -1.689 0.11
4.9050002 -0.25600001 -1.691 0.18000001
4.8829999 -0.23999999 -1.682 0.050000001
4.8889999 -0.22499999 -1.684 0.17
4.8959999 -0.20999999 -1.687 0.20999999
4.8930001 -0.19400001 -1.6849999 0.1
4.9289999 -0.18000001 -1.698 0.17
4.888 -0.171 -1.683 0.20999999
4.9219999 -0.15700001 -1.696 0.16
4.8909998 -0.14 -1.684 0.059999999
4.8930001 -0.125 -1.684 0.17
4.9099998 -0.11 -1.691 0.2
4.9120002 -0.094999999 -1.691 0.16
4.8860002 -0.086000003 -1.682 0.059999999
4.9000001 -0.071000002 -1.687 0.17
4.902 -0.056000002 -1.687 0.11
4.9089999 -0.041000001 -1.6900001 0.18000001
4.8979998 -0.025 -1.686 0.12
4.9099998 -0.0099999998 -1.6900001 0.18000001
4.7800002 0.0049999999 -1.696 0.23
4.7709999 0.02 -1.693 0.18000001
4.7709999 0.035 -1.693 0.28999999
4.7800002 0.050000001 -1.696 0.23999999
4.7870002 0.064999998 -1.699 0.27000001
4.7610002 0.071999997 -1.689 0.28999999
4.7680001 0.086999997 -1.692 0.28
4.7639999 0.102 -1.691 0.27000001
4.7750001 0.117 -1.6950001 0.27000001
4.776 0.132 -1.696 0.27000001
4.77 0.147 -1.694 0.28
4.77 0.162 -1.694 0.28
4.783 0.17 -1.699 0.25999999
4.7729998 0.185 -1.6950001 0.18000001
4.7610002 0.199 -1.691 0.28999999
4.77 0.215 -1.694 0.2
4.7709999 0.23 -1.6950001 0.23
4.7719998 0.245 -1.696 0.23
4.7789998 0.25999999 -1.699 0.27000001
4.7750001 0.26800001 -1.697 0.28999999
4.77 0.28200001 -1.696 0.28
4.7690001 0.29699999 -1.696 0.28
4.7659998 0.31200001 -1.6950001 0.28
4.7709999 0.32800001 -1.697 0.28999999
4.7659998 0.34200001 -1.696 0.28999999
4.7690001 0.34999999 -1.697 0.28
4.777 0.366 -1.701 0.25999999
4.7719998 0.38 -1.699 0.27000001
4.7750001 0.396 -1.701 0.30000001
4.7659998 0.41 -1.698 0.30000001
4.7670002 0.42500001 -1.699 0.28999999
4.756 0.43900001 -1.6950001 0.28999999
4.757 0.447 -1.696 0.28
4.7579999 0.46200001 -1.696 0.28999999
4.7529998 0.477 -1.6950001 0.28
4.7600002 0.493 -1.699 0.27000001
4.7550001 0.50700003 -1.697 0.28
4.7529998 0.52200001 -1.697 0.25999999
4.744 0.53600001 -1.694 0.27000001
4.743 0.54400003 -1.694 0.25999999
4.7490001 0.55900002 -1.697 0.28
4.7399998 0.57300001 -1.694 0.25999999
4.7459998 0.58899999 -1.697 0.27000001
4.757 0.60600001 -1.702 0.27000001
4.7420001 0.61900002 -1.697 0.20999999
4.7399998 0.634 -1.697 0.28999999
4.7360001 0.64899999 -1.696 0.25
4.75 0.65799999 -1.702 0.28999999
4.7529998 0.67400002 -1.704 0.25999999
4.7360001 0.68699998 -1.699 0.31999999
4.7319999 0.70099998 -1.698 0.27000001
4.7410002 0.71799999 -1.702 0.27000001
4.73 0.73100001 -1.699 0.27000001
4.7270002 0.73799998 -1.698 0.25999999
4.7389998 0.755 -1.7029999 0.25
4.737 0.76999998 -1.7029999 0.27000001
4.723 0.78299999 -1.699 0.19
4.7189999 0.79799998 -1.699 0.28999999
4.711 0.81199998 -1.696 0.25
4.7189999 0.829 -1.701 0.25999999
4.7090001 0.83399999 -1.697 0.25999999
4.723 0.852 -1.7029999 0.23
4.6939998 0.86199999 -1.694 0.059999999
4.7129998 0.88099998 -1.702 0.07
4.7270002 0.89899999 -1.7079999 0.16
4.7020001 0.91000003 -1.7 0.18000001
4.698 0.92400002 -1.699 0.28999999
4.6999998 0.93199998 -1.701 0.25
4.7080002 0.949 -1.705 0.27000001
4.6989999 0.963 -1.7029999 0.27000001
4.6929998 0.977 -1.701 0.27000001
4.6880002 0.991 -1.701 0.28999999
4.6859999 1.006 -1.701 0.27000001
4.6869998 1.022 -1.7029999 0.25999999
4.6869998 1.029 -1.7029999 0.25999999
4.6890001 1.045 -1.706 0.20999999
4.671 1.057 -1.7 0.27000001
4.6789999 1.074 -1.704 0.25
4.6869998 1.091 -1.7079999 0.25
4.6739998 1.104 -1.705 0.18000001
4.6599998 1.1160001 -1.701 0.30000001
4.665 1.125 -1.7029999 0.25
4.6599998 1.1390001 -1.7029999 0.25
4.6669998 1.156 -1.707 0.25
4.6539998 1.169 -1.7029999 0.22
4.6469998 1.183 -1.702 0.25999999
4.6399999 1.196 -1.701 0.25
4.6589999 1.217 -1.71 0.23
4.6389999 1.219 -1.7029999 0.18000001
4.6339998 1.234 -1.702 0.28
4.632 1.249 -1.7029999 0.25
4.6259999 1.263 -1.702 0.25
4.6329999 1.28 -1.706 0.25
4.6389999 1.298 -1.711 0.23999999
4.6209998 1.308 -1.705 0.19
4.6100001 1.313 -1.701 0.28999999
4.6129999 1.329 -1.704 0.25
4.605 1.3430001 -1.7029999 0.27000001
4.6079998 1.359 -1.706 0.27000001
4.6069999 1.375 -1.707 0.25
4.5939999 1.387 -1.7029999 0.18000001
4.5879998 1.401 -1.7029999 0.28999999
4.5960002 1.411 -1.707 0.25
4.599 1.428 -1.71 0.25
4.5890002 1.441 -1.7079999 0.2
4.572 1.451 -1.7029999 0.28999999
4.5819998 1.47 -1.7079999 0.25
4.5760002 1.484 -1.7079999 0.27000001
4.5710001 1.498 -1.7079999 0.27000001
4.5609999 1.503 -1.705 0.25999999
4.5619998 1.5190001 -1.707 0.27000001
4.5640001 1.536 -1.71 0.28
4.5580001 1.549 -1.709 0.27000001
4.553 1.564 -1.709 0.28
4.5440001 1.577 -1.7079999 0.27000001
4.5359998 1.59 -1.706 0.28999999
4.539 1.599 -1.7079999 0.28
4.5409999 1.6160001 -1.711 0.25999999
4.5339999 1.6289999 -1.711 0.30000001
4.5359998 1.646 -1.7130001 0.25999999
4.5219998 1.6569999 -1.71 0.30000001
4.5250001 1.674 -1.7130001 0.23999999
4.527 1.691 -1.716 0.27000001
4.5240002 1.698 -1.716 0.28
4.5139999 1.711 -1.714 0.27000001
4.5100002 1.725 -1.715 0.25999999
4.5029998 1.739 -1.714 0.31
4.4990001 1.7539999 -1.715 0.28999999
4.4970002 1.7690001 -1.716 0.28999999
4.4879999 1.7819999 -1.715 0.28
4.4990001 1.794 -1.721 0.31
4.4879999 1.806 -1.7180001 0.28
4.4759998 1.818 -1.716 0.27000001
4.4650002 1.83 -1.7130001 0.30000001
4.4619999 1.845 -1.715 0.27000001
4.4549999 1.858 -1.714 0.25999999
4.4619999 1.87 -1.7180001 0.27000001
4.4650002 1.887 -1.722 0.30000001
4.4419999 1.8940001 -1.715 0.30000001
4.4499998 1.914 -1.721 0.25
4.447 1.929 -1.722 0.28
4.4200001 1.934 -1.7130001 0.30000001
4.421 1.951 -1.716 0.28999999
4.4219999 1.9680001 -1.719 0.28999999
4.415 1.974 -1.7180001 0.28
4.4190001 1.992 -1.722 0.28
4.4250002 2.0109999 -1.727 0.25999999
4.4029999 2.0179999 -1.721 0.30000001
4.4099998 2.0380001 -1.726 0.27000001
4.4089999 2.0539999 -1.728 0.27000001
4.408 2.0710001 -1.73 0.28999999
4.3909998 2.0710001 -1.725 0.28999999
4.395 2.0899999 -1.729 0.28999999
4.3829999 2.1010001 -1.727 0.28
