# .PCD v0.7 - Point Cloud Data file format
VERSION 0.7
FIELDS x y z intensity
SIZE 4 4 4 4
TYPE F F F F
COUNT 1 1 1 1
WIDTH 1410
HEIGHT 1
VIEWPOINT 0 0 0 1 0 0 0
POINTS 1410
DATA ascii
1.025 3.043 -0.87300003 0
1.017 3.05 -0.87400001 0
1.012 3.0510001 -0.87400001 0
1.005 3.063 -0.87699997 0
0.99699998 3.072 -0.87900001 0
0.98699999 3.075 -0.87900001 0
0.97399998 3.0650001 -0.875 0
0.96799999 3.0810001 -0.87900001 0
0.96200001 3.095 -0.88200003 0
0.95599997 3.0929999 -0.88099998 0
0.94700003 3.0999999 -0.88200003 0
0.935 3.095 -0.88 0
0.93000001 3.115 -0.88499999 0
0.92000002 3.1140001 -0.884 0
0.91299999 3.1300001 -0.88800001 0
0.90200001 3.1270001 -0.88599998 0
0.90100002 3.141 -0.88999999 0
0.88800001 3.135 -0.88800001 0
0.88099998 3.1489999 -0.89099997 0
0.87099999 3.1500001 -0.88999999 0
0.86400002 3.164 -0.89399999 0
0.85600001 3.1719999 -0.89600003 0
0.847 3.1800001 -0.898 0
0.838 3.165 -0.89200002 0
0.83099997 3.1800001 -0.89600003 0
0.82200003 3.1889999 -0.898 0
0.81400001 3.197 -0.89999998 0
0.80299997 3.197 -0.89899999 0
0.79400003 3.204 -0.90100002 0
0.79000002 3.23 -0.90799999 0
0.78200001 3.2179999 -0.90399998 0
0.77399999 3.2320001 -0.90799999 0
0.76499999 3.24 -0.90899998 0
0.75199997 3.227 -0.90499997 0
0.745 3.247 -0.91000003 0
0.74000001 3.2690001 -0.917 0
0.727 3.2609999 -0.91299999 0
0.727 3.2839999 -0.92000002 0
0.71799999 3.296 -0.92299998 0
0.70499998 3.2850001 -0.91900003 0
0.69499999 3.289 -0.91900003 0
0.69 3.316 -0.92699999 0
0.68000001 3.3199999 -0.92799997 0
0.66900003 3.322 -0.92799997 0
0.66500002 3.326 -0.92900002 0
0.653 3.319 -0.926 0
0.64899999 3.359 -0.93800002 0
0.648 3.4119999 -0.954 0
0.63999999 3.4289999 -0.958 0
0.62599999 3.414 -0.95300001 0
0.61799997 3.4289999 -0.95700002 0
0.611 3.4219999 -0.95499998 0
0.60100001 3.428 -0.95599997 0
0.59600002 3.4660001 -0.96700001 0
0.58600003 3.477 -0.97000003 0
0.574 3.467 -0.96700001 0
0.56999999 3.5179999 -0.98199999 0
0.55900002 3.52 -0.98199999 0
0.56300002 3.5810001 -1.001 0
0.77600002 5.809 -1.692 0.02
0.75300002 5.7779999 -1.682 0.18000001
0.73100001 5.75 -1.6720001 0.30000001
0.71600002 5.7729998 -1.679 0.30000001
0.69499999 5.7519999 -1.6720001 0.28
0.67699999 5.7519999 -1.671 0.28999999
0.65899998 5.7620001 -1.674 0.30000001
0.64899999 5.7459998 -1.668 0.28999999
0.63200003 5.7670002 -1.674 0.31
0.61500001 5.7779999 -1.677 0.30000001
0.59500003 5.7610002 -1.671 0.28999999
0.57800001 5.7670002 -1.6720001 0.31999999
0.56099999 5.7820001 -1.676 0.30000001
0.542 5.7839999 -1.676 0.31
0.53299999 5.7849998 -1.676 0.30000001
0.51599997 5.79 -1.678 0.31
0.49599999 5.7729998 -1.6720001 0.28999999
0.47799999 5.7839999 -1.675 0.28999999
0.461 5.7950001 -1.678 0.31
0.44299999 5.7940001 -1.677 0.30000001
0.426 5.8130002 -1.682 0.31
0.40700001 5.8119998 -1.682 0.31
0.39700001 5.7989998 -1.678 0.28999999
0.38 5.8140001 -1.682 0.28999999
0.36199999 5.8150001 -1.682 0.28999999
0.34400001 5.822 -1.684 0.28999999
0.32499999 5.8140001 -1.681 0.28999999
0.30700001 5.816 -1.681 0.28
0.29800001 5.823 -1.683 0.30000001
0.27900001 5.816 -1.681 0.28999999
0.26100001 5.809 -1.678 0.30000001
0.243 5.8189998 -1.681 0.28999999
0.22400001 5.816 -1.6799999 0.28999999
0.206 5.8249998 -1.682 0.28
0.18799999 5.8179998 -1.6799999 0.28999999
0.178 5.816 -1.679 0.28999999
0.161 5.8319998 -1.684 0.31999999
0.142 5.8249998 -1.682 0.30000001
0.124 5.8189998 -1.6799999 0.30000001
0.105 5.8200002 -1.6799999 0.30000001
0.086999997 5.822 -1.681 0.27000001
0.068999998 5.8070002 -1.676 0.28999999
0.059999999 5.809 -1.676 0.31
0.041000001 5.8280001 -1.682 0.28999999
0.023 5.8189998 -1.679 0.30000001
0.0049999999 5.8260002 -1.682 0.25
-0.014 5.8319998 -1.684 0.28
-0.032000002 5.8130002 -1.678 0.30000001
-0.050000001 5.8299999 -1.683 0.27000001
-0.068000004 5.8280001 -1.682 0.28
-0.078000002 5.8299999 -1.683 0.27000001
-0.096000001 5.8200002 -1.6799999 0.28999999
-0.114 5.8330002 -1.684 0.28999999
-0.133 5.829 -1.683 0.28
-0.15099999 5.823 -1.681 0.28
-0.169 5.8200002 -1.681 0.28
-0.178 5.8309999 -1.684 0.28999999
-0.197 5.8400002 -1.687 0.28
-0.215 5.836 -1.686 0.28999999
-0.233 5.822 -1.682 0.28999999
-0.252 5.8319998 -1.6849999 0.27000001
-0.27000001 5.8299999 -1.6849999 0.30000001
-0.289 5.8330002 -1.686 0.28999999
-0.29699999 5.823 -1.683 0.30000001
-0.315 5.8119998 -1.6799999 0.28
-0.33399999 5.8189998 -1.682 0.28999999
-0.352 5.822 -1.684 0.28999999
-0.37099999 5.8260002 -1.6849999 0.31999999
-0.389 5.8189998 -1.684 0.31
-0.40799999 5.8260002 -1.686 0.30000001
-0.41600001 5.8169999 -1.684 0.28999999
-0.43399999 5.8119998 -1.682 0.28999999
-0.45300001 5.8150001 -1.684 0.28
-0.47099999 5.8169999 -1.6849999 0.34999999
-0.49000001 5.8210001 -1.687 0.31999999
-0.50800002 5.8099999 -1.684 0.28
-0.52700001 5.8200002 -1.687 0.31999999
-0.546 5.8239999 -1.689 0.28999999
-0.55400002 5.8119998 -1.6849999 0.30000001
-0.57200003 5.8060002 -1.684 0.27000001
-0.58999997 5.8060002 -1.6849999 0.31
-0.60799998 5.8039999 -1.6849999 0.28999999
-0.62699997 5.8099999 -1.687 0.31
-0.64700001 5.8150001 -1.689 0.28999999
-0.65499997 5.8109999 -1.688 0.27000001
-0.67500001 5.8179998 -1.691 0.28
-0.69 5.7950001 -1.6849999 0.28999999
-0.708 5.7909999 -1.684 0.28999999
-0.727 5.7940001 -1.686 0.28
-0.74599999 5.7979999 -1.688 0.28
-0.76300001 5.7859998 -1.6849999 0.28
-0.77399999 5.8000002 -1.689 0.27000001
-0.79400003 5.8049998 -1.692 0.25999999
-0.81099999 5.7989998 -1.691 0.27000001
-0.82999998 5.7979999 -1.691 0.27000001
-0.84899998 5.8049998 -1.694 0.28999999
-0.86500001 5.7870002 -1.689 0.28
-0.884 5.7880001 -1.691 0.28999999
-0.90200001 5.7810001 -1.689 0.30000001
-0.91100001 5.7839999 -1.691 0.31
-0.93099999 5.7919998 -1.694 0.31
-0.94700003 5.776 -1.6900001 0.31999999
-0.96499997 5.7690001 -1.689 0.28999999
-0.98500001 5.777 -1.692 0.27000001
-1.003 5.776 -1.693 0.27000001
-1.022 5.7729998 -1.693 0.23999999
-1.034 5.79 -1.699 0.31999999
-1.051 5.7810001 -1.697 0.30000001
-1.069 5.776 -1.697 0.28999999
-1.086 5.7690001 -1.6950001 0.28
-1.1059999 5.7709999 -1.697 0.28999999
-1.123 5.7639999 -1.696 0.28999999
-1.13 5.7509999 -1.692 0.31999999
-1.147 5.744 -1.691 0.27000001
-1.165 5.7399998 -1.691 0.27000001
-1.1849999 5.7470002 -1.6950001 0.28999999
-1.202 5.7379999 -1.693 0.28
-1.222 5.7420001 -1.6950001 0.23
-1.242 5.7449999 -1.698 0.31999999
-1.25 5.7399998 -1.697 0.27000001
-1.267 5.73 -1.6950001 0.28
-1.286 5.7319999 -1.697 0.28999999
-1.3049999 5.7329998 -1.698 0.28
-1.323 5.7290001 -1.698 0.30000001
-1.34 5.7210002 -1.697 0.30000001
-1.359 5.7189999 -1.698 0.28
-1.377 5.7150002 -1.698 0.28
-1.387 5.7160001 -1.699 0.28999999
-1.403 5.7059999 -1.697 0.28999999
-1.423 5.711 -1.7 0.31
-1.442 5.7080002 -1.701 0.28
-1.457 5.6950002 -1.698 0.28999999
-1.477 5.697 -1.7 0.34
-0.99299997 3.79 -1.091 0
-1.489 5.6700001 -1.693 0
-0.98000002 3.698 -1.063 0.050000001
-0.96700001 3.6029999 -1.034 0.039999999
-0.96899998 3.569 -1.023 0.039999999
-0.98199999 3.5710001 -1.025 0
-0.96899998 3.483 -0.99800003 0
-0.94199997 3.3699999 -0.96200001 0
-0.94199997 3.3299999 -0.94999999 0
-0.94099998 3.2869999 -0.93699998 0
-0.93400002 3.2249999 -0.91799998 0
-0.92799997 3.1689999 -0.90100002 0
-0.926 3.128 -0.889 0
-0.92199999 3.0810001 -0.875 0
-0.92500001 3.0569999 -0.86699998 0
-0.92400002 3.0369999 -0.86199999 0.059999999
-0.92199999 2.9960001 -0.84899998 0.039999999
-0.92400002 2.971 -0.84200001 0.07
-0.921 2.928 -0.829 0.039999999
-0.92299998 2.9030001 -0.82200003 0
-0.93099999 2.8970001 -0.82099998 0
-0.93400002 2.878 -0.815 0
-0.917 2.813 -0.79500002 0
-0.92500001 2.806 -0.79400003 0
-0.93099999 2.796 -0.79100001 0
-0.92500001 2.75 -0.77700001 0
-0.92500001 2.7219999 -0.76899999 0
-0.92199999 2.6860001 -0.75800002 0
-0.926 2.671 -0.75400001 0.07
-0.92699999 2.6600001 -0.75099999 0.15000001
-0.926 2.632 -0.74299997 0.16
-0.93000001 2.6170001 -0.73900002 0.16
-0.93599999 2.608 -0.73699999 0.16
-0.92799997 2.5610001 -0.722 0.039999999
-0.93199998 2.549 -0.71899998 0.14
-0.93800002 2.5409999 -0.71700001 0.050000001
-0.93300003 2.5139999 -0.70899999 0.15000001
-0.935 2.497 -0.704 0.050000001
-0.93699998 2.48 -0.69999999 0.16
-0.935 2.4519999 -0.69099998 0.19
-0.93900001 2.4400001 -0.68800002 0.1
-0.95099998 2.4460001 -0.69099998 0.17
-0.94499999 2.4089999 -0.68000001 0.22
-0.94199997 2.392 -0.67500001 0.18000001
-0.954 2.3989999 -0.67799997 0.23999999
-0.95200002 2.3729999 -0.671 0.23999999
-0.95899999 2.369 -0.67000002 0.27000001
-0.97399998 2.385 -0.67699999 0.28999999
-0.96600002 2.345 -0.66399997 0.28999999
-0.97600001 2.349 -0.667 0.28999999
-0.98299998 2.3540001 -0.66900003 0.28999999
-0.98799998 2.346 -0.667 0.27000001
-0.99400002 2.3399999 -0.66600001 0.23999999
-1 2.3329999 -0.66500002 0.18000001
-1.008 2.3310001 -0.66500002 0.30000001
-1.015 2.3280001 -0.66500002 0.25
-1.029 2.339 -0.67000002 0.28999999
-1.028 2.3269999 -0.667 0.28999999
-1.035 2.3239999 -0.667 0.28999999
-1.051 2.3399999 -0.67299998 0.27000001
-1.054 2.326 -0.66900003 0.28999999
-1.059 2.319 -0.66799998 0.28
-1.071 2.3239999 -0.671 0.28999999
-1.079 2.323 -0.67199999 0.28999999
-1.0829999 2.3210001 -0.67199999 0.28
-1.092 2.3210001 -0.67299998 0.28
-1.097 2.3139999 -0.67199999 0.28
-1.108 2.3180001 -0.67400002 0.28
-1.122 2.3280001 -0.67900002 0.28
-1.123 2.312 -0.67500001 0.28
-1.13 2.3069999 -0.67400002 0.28
-1.143 2.3239999 -0.68099999 0.28
-1.146 2.312 -0.67799997 0.28
-1.153 2.3080001 -0.67799997 0.27000001
-1.165 2.313 -0.68099999 0.27000001
-1.1720001 2.309 -0.68099999 0.28
-1.1799999 2.3069999 -0.68099999 0.27000001
-1.191 2.3099999 -0.68400002 0.28
-1.196 2.312 -0.685 0.27000001
-1.2 2.3010001 -0.68199998 0.28
-1.2180001 2.3180001 -0.69 0.28
-1.22 2.3039999 -0.68599999 0.27000001
-1.232 2.3099999 -0.69 0.27000001
-1.242 2.3110001 -0.69099998 0.27000001
-1.252 2.3110001 -0.69300002 0.27000001
-1.253 2.3050001 -0.69099998 0.27000001
-1.263 2.3069999 -0.69300002 0.25999999
-1.273 2.3080001 -0.69499999 0.27000001
-1.283 2.3069999 -0.69599998 0.27000001
-1.2920001 2.306 -0.69700003 0.25999999
-1.296 2.2969999 -0.69499999 0.27000001
-1.307 2.3 -0.69800001 0.25999999
-1.318 2.3110001 -0.70300001 0.25999999
-1.323 2.302 -0.70099998 0.25999999
-1.332 2.3010001 -0.70200002 0.27000001
-1.344 2.3050001 -0.70499998 0.27000001
-1.35 2.299 -0.704 0.27000001
-1.3609999 2.3 -0.70599997 0.27000001
-1.37 2.299 -0.70700002 0.27000001
-1.374 2.289 -0.70599997 0.27000001
-1.38 2.29 -0.70700002 0.27000001
-1.392 2.2939999 -0.70999998 0.27000001
-1.404 2.2980001 -0.713 0.27000001
-1.411 2.293 -0.713 0.27000001
-1.428 2.3039999 -0.71799999 0.27000001
-1.431 2.293 -0.71600002 0.27000001
-1.437 2.2869999 -0.71499997 0.27000001
-1.446 2.2920001 -0.71799999 0.27000001
-1.456 2.293 -0.72000003 0.27000001
-1.4630001 2.2880001 -0.72000003 0.27000001
-1.471 2.2850001 -0.72000003 0.27000001
-1.483 2.2869999 -0.72299999 0.27000001
-1.492 2.2850001 -0.72399998 0.27000001
-1.505 2.2880001 -0.727 0.27000001
-1.506 2.283 -0.72600001 0.27000001
-1.521 2.289 -0.73000002 0.27000001
-1.533 2.2920001 -0.73299998 0.27000001
-1.536 2.2809999 -0.73000002 0.27000001
-1.548 2.283 -0.73299998 0.27000001
-1.561 2.2869999 -0.736 0.27000001
-1.564 2.276 -0.73400003 0.27000001
-1.575 2.2839999 -0.73799998 0.27000001
-1.584 2.2809999 -0.73900002 0.27000001
-1.594 2.2809999 -0.74000001 0.27000001
-1.601 2.276 -0.74000001 0.27000001
-1.612 2.2750001 -0.74199998 0.25999999
-1.62 2.2720001 -0.74299997 0.27000001
-1.631 2.2709999 -0.745 0.25999999
-1.642 2.28 -0.74900001 0.25999999
-1.647 2.2709999 -0.74699998 0.27000001
-1.659 2.2720001 -0.75 0.27000001
-1.669 2.2720001 -0.75199997 0.25999999
-1.676 2.266 -0.75199997 0.25999999
-1.686 2.2639999 -0.75300002 0.27000001
-1.707 2.277 -0.75999999 0.25999999
-1.7079999 2.2709999 -0.759 0.25
-1.719 2.2709999 -0.75999999 0.27000001
-1.734 2.276 -0.76499999 0.25999999
-1.729 2.2550001 -0.759 0.25999999
-1.7460001 2.2620001 -0.76300001 0.27000001
-1.767 2.2739999 -0.77100003 0.25999999
-1.771 2.2639999 -0.76899999 0.25999999
-1.776 2.263 -0.76899999 0.25999999
-1.79 2.266 -0.773 0.27000001
-1.796 2.2590001 -0.77200001 0.25999999
-1.8049999 2.256 -0.773 0.25999999
-1.825 2.2650001 -0.77899998 0.25999999
-1.821 2.2460001 -0.77399999 0.25999999
-1.839 2.2539999 -0.77899998 0.25999999
-1.848 2.2579999 -0.78200001 0.25999999
-1.853 2.25 -0.78100002 0.25999999
-1.869 2.2539999 -0.78500003 0.25999999
-1.886 2.26 -0.79000002 0.27000001
-1.887 2.247 -0.787 0.25
-1.902 2.2509999 -0.79100001 0.25999999
-1.9170001 2.2539999 -0.79500002 0.25999999
-1.919 2.2490001 -0.79400003 0.25999999
-1.9299999 2.247 -0.796 0.25999999
-1.947 2.253 -0.801 0.25999999
-1.954 2.247 -0.801 0.25999999
-1.975 2.256 -0.80699998 0.23999999
-1.975 2.2409999 -0.80400002 0.16
-1.9910001 2.2449999 -0.80800003 0.30000001
-1.994 2.2420001 -0.80800003 0.25
-2.017 2.253 -0.815 0.25999999
-2.0209999 2.244 -0.81400001 0.25
-2.0320001 2.2409999 -0.815 0.25999999
-2.059 2.256 -0.824 0.27000001
-2.0539999 2.237 -0.81900001 0.25999999
-2.0610001 2.23 -0.81900001 0.25999999
-2.082 2.2390001 -0.82499999 0.25999999
-2.089 2.2390001 -0.82700002 0.25999999
-2.098 2.2349999 -0.82800001 0.25
-2.109 2.2320001 -0.82999998 0.19
-2.132 2.2420001 -0.83700001 0.28
-2.1440001 2.2409999 -0.83899999 0.22
-2.1689999 2.2520001 -0.847 0.23
-2.1470001 2.223 -0.83600003 0.16
-2.174 2.2360001 -0.84399998 0.31
-2.191 2.2390001 -0.84899998 0.23
-2.177 2.2119999 -0.83999997 0.15000001
-2.21 2.2309999 -0.85100001 0.30000001
-2.224 2.23 -0.85399997 0.23999999
-2.2249999 2.2179999 -0.85100001 0.15000001
-2.2449999 2.2309999 -0.85900003 0.30000001
-2.2590001 2.23 -0.86199999 0.23999999
-2.2520001 2.21 -0.85600001 0.16
-2.2839999 2.2260001 -0.866 0.30000001
-2.2980001 2.2260001 -0.86900002 0.23999999
-2.2909999 2.2060001 -0.86299998 0.15000001
-2.326 2.224 -0.875 0.30000001
-2.3310001 2.2219999 -0.87599999 0.25
-2.3399999 2.217 -0.87699997 0.25999999
-2.352 2.214 -0.87900001 0.25999999
-2.3740001 2.221 -0.88499999 0.23999999
-2.365 2.1989999 -0.87900001 0.14
-2.3989999 2.2160001 -0.88999999 0.31
-2.4159999 2.2179999 -0.89399999 0.25
-2.418 2.2119999 -0.89300001 0.27000001
-2.4349999 2.214 -0.898 0.25999999
-2.448 2.211 -0.89999998 0.27000001
-2.46 2.2090001 -0.90200001 0.27000001
-2.477 2.21 -0.90600002 0.27000001
-2.494 2.211 -0.91100001 0.27000001
-2.507 2.2079999 -0.91299999 0.27000001
-2.5150001 2.2079999 -0.91500002 0.27000001
-2.5320001 2.2079999 -0.91900003 0.27000001
-2.5480001 2.2079999 -0.92199999 0.27000001
-2.559 2.204 -0.92400002 0.25999999
-2.579 2.207 -0.93000001 0.27000001
-2.5810001 2.1949999 -0.92799997 0.27000001
-2.6029999 2.1989999 -0.93400002 0.28
-2.625 2.2030001 -0.94 0.27000001
-2.638 2.207 -0.94400001 0.27000001
-2.648 2.201 -0.94499999 0.28
-2.6830001 2.2160001 -0.95599997 0.25
-2.6800001 2.1989999 -0.95200002 0.30000001
-2.688 2.1919999 -0.95300001 0.27000001
-2.7160001 2.2 -0.96100003 0.28999999
-2.7379999 2.2030001 -0.96700001 0.27000001
-2.7409999 2.1989999 -0.96700001 0.28999999
-2.7679999 2.2060001 -0.97399998 0.28999999
-2.779 2.201 -0.97600001 0.28999999
-2.7920001 2.197 -0.97899997 0.28
-2.8169999 2.2019999 -0.986 0.28999999
-2.829 2.1960001 -0.98699999 0.28
-2.852 2.2 -0.99400002 0.23999999
-2.8699999 2.2060001 -0.99900001 0.27000001
-2.892 2.2090001 -1.005 0.27000001
-2.905 2.204 -1.008 0.27000001
-2.9100001 2.194 -1.007 0.30000001
-2.9360001 2.198 -1.0140001 0.25999999
-2.961 2.2030001 -1.021 0.28
-2.9760001 2.1989999 -1.024 0.27000001
-2.9849999 2.1989999 -1.026 0.28
-3.0009999 2.1960001 -1.03 0.28999999
-3.0209999 2.1949999 -1.035 0.31
-3.0320001 2.1889999 -1.036 0.27000001
-3.0610001 2.1949999 -1.045 0.28
-3.0899999 2.201 -1.053 0.28
-3.098 2.1919999 -1.054 0.28999999
-3.1129999 2.1949999 -1.058 0.28999999
-3.138 2.198 -1.0650001 0.28999999
-3.1400001 2.1849999 -1.063 0.31
-3.171 2.191 -1.072 0.25999999
-3.187 2.188 -1.075 0.28
-3.22 2.1949999 -1.085 0.28999999
-3.233 2.1889999 -1.087 0.28999999
-3.2539999 2.1960001 -1.094 0.28
-3.267 2.1900001 -1.096 0.28999999
-3.28 2.184 -1.099 0.25999999
-3.3099999 2.188 -1.107 0.31999999
-3.3199999 2.1789999 -1.108 0.28999999
-3.3329999 2.1730001 -1.11 0.31
-3.3570001 2.174 -1.117 0.16
-3.372 2.1760001 -1.1210001 0.28999999
-3.4100001 2.1849999 -1.132 0.25
-3.434 2.1849999 -1.1390001 0.20999999
-3.448 2.178 -1.141 0.28999999
-3.4660001 2.175 -1.145 0.37
-3.4990001 2.1800001 -1.155 0.27000001
-3.53 2.184 -1.164 0.25
-3.5220001 2.171 -1.159 0.31
-3.5580001 2.178 -1.17 0.28999999
-3.5569999 2.1619999 -1.1670001 0.23
-3.582 2.161 -1.174 0.27000001
-3.5999999 2.1570001 -1.178 0.27000001
-3.6229999 2.155 -1.184 0.34999999
-3.625 2.141 -1.182 0.28
-3.6700001 2.1589999 -1.197 0.34999999
-3.668 2.1429999 -1.194 0.27000001
-3.6900001 2.1400001 -1.199 0.19
-3.7309999 2.148 -1.211 0.34
-3.77 2.154 -1.223 0
-3.9630001 2.247 -1.289 0
-4.296 2.415 -1.404 0.029999999
-4.3649998 2.4449999 -1.427 0.07
-4.3860002 2.438 -1.432 0.039999999
-4.4239998 2.441 -1.442 0.07
-4.4159999 2.4189999 -1.437 0.039999999
-4.4039998 2.3940001 -1.4299999 0
-4.3200002 2.332 -1.398 0.029999999
-4.223 2.263 -1.362 0.029999999
-4.1989999 2.2420001 -1.352 0
-4.2080002 2.2290001 -1.353 0
-4.1789999 2.198 -1.34 0
-4.1589999 2.171 -1.331 0
-4.118 2.1329999 -1.314 0.12
-4.118 2.1170001 -1.312 0.2
-4.1350002 2.109 -1.3150001 0.31999999
-4.1589999 2.1129999 -1.323 0.33000001
-4.1810002 2.1070001 -1.3279999 0.33000001
-4.211 2.1059999 -1.336 0.34
-4.2470002 2.1070001 -1.346 0.31999999
-4.2709999 2.102 -1.352 0.33000001
-4.3119998 2.105 -1.364 0.31999999
-4.348 2.1059999 -1.374 0.31999999
-4.3579998 2.102 -1.376 0.31999999
-4.401 2.1059999 -1.3890001 0.31999999
-4.447 2.1099999 -1.402 0.36000001
-4.48 2.108 -1.411 0.33000001
-4.5019999 2.1010001 -1.416 0.18000001
-4.566 2.1140001 -1.436 0.30000001
-4.585 2.105 -1.4400001 0.44
-4.632 2.1170001 -1.455 0.22
-4.7199998 2.1389999 -1.483 0.19
-4.7389998 2.1300001 -1.487 0.19
-4.7090001 2.099 -1.474 0.07
-6.0630002 2.671 -1.929 0.16
-6.0780001 2.655 -1.931 0.28999999
-6.085 2.635 -1.931 0.27000001
-6.073 2.619 -1.925 0.16
-6.0669999 2.5940001 -1.921 0.28
-6.0809999 2.5769999 -1.9220001 0.19
-6.066 2.5480001 -1.915 0.23999999
-6.0809999 2.5320001 -1.9170001 0.19
-6.0710001 2.506 -1.911 0.22
-6.079 2.487 -1.911 0.18000001
-6.0879998 2.4790001 -1.913 0.23
-6.0890002 2.457 -1.911 0.20999999
-6.098 2.4389999 -1.911 0.20999999
-6.092 2.414 -1.906 0.13
-6.0970001 2.3940001 -1.906 0.2
-6.0890002 2.369 -1.9 0.2
-6.085 2.346 -1.897 0.039999999
-6.0799999 2.3329999 -1.8940001 0
-6.0960002 2.3169999 -1.897 0
-6.0999999 2.2969999 -1.896 0
-6.098 2.2739999 -1.893 0
-6.2280002 1.5599999 -1.8660001 0
-6.1810002 1.538 -1.85 0.050000001
-6.1999998 1.522 -1.854 0.20999999
-6.2069998 1.503 -1.855 0.23
-6.1929998 1.479 -1.849 0.17
-6.2030001 1.461 -1.851 0.28
-6.2020001 1.4400001 -1.849 0.25
-6.1950002 1.429 -1.846 0.25999999
-6.2129998 1.4119999 -1.85 0.27000001
-6.204 1.39 -1.846 0.25
-6.2080002 1.37 -1.846 0.27000001
-6.2160001 1.351 -1.847 0.19
-6.198 1.327 -1.84 0.28
-6.2150002 1.3099999 -1.844 0.25
-6.2340002 1.304 -1.85 0.25999999
-6.21 1.279 -1.841 0.25999999
-6.2119999 1.2589999 -1.84 0.25
-6.2329998 1.243 -1.846 0.23
-6.197 1.216 -1.8329999 0.050000001
-6.2010002 1.196 -1.8329999 0.079999998
-6.2309999 1.182 -1.841 0.19
-6.2389998 1.173 -1.8430001 0.25
-6.244 1.154 -1.844 0.18000001
-6.2389998 1.132 -1.841 0.28999999
-6.223 1.109 -1.835 0.23999999
-6.2189999 1.089 -1.8329999 0.17
-6.2189999 1.068 -1.831 0.27000001
-6.2090001 1.0470001 -1.827 0.23
-6.223 1.029 -1.831 0.2
-6.2179999 1.018 -1.8279999 0.25
-6.2189999 0.99800003 -1.8279999 0.19
-6.2090001 0.977 -1.824 0.25
-6.2309999 0.95999998 -1.83 0.19
-6.211 0.93699998 -1.822 0.25
-6.223 0.91900003 -1.825 0.22
-6.223 0.90899998 -1.825 0.16
-6.2049999 0.88599998 -1.818 0.25999999
-6.217 0.86799997 -1.821 0.18000001
-6.2270002 0.85000002 -1.824 0.25
-6.2189999 0.829 -1.8200001 0.18000001
-6.198 0.80599999 -1.813 0.23
-6.2350001 0.79100001 -1.824 0.18000001
-6.1960001 0.77600002 -1.811 0.25
-6.2059999 0.75800002 -1.814 0.18000001
-6.2160001 0.73900002 -1.816 0.25
-6.2129998 0.71899998 -1.814 0.19
-6.2020001 0.69800001 -1.8099999 0.25
-6.217 0.68000001 -1.814 0.19
-6.2059999 0.65899998 -1.8099999 0.23999999
-6.2150002 0.64999998 -1.812 0.18000001
-6.2129998 0.63 -1.811 0.25
-6.211 0.61000001 -1.8099999 0.19
-6.2020001 0.58999997 -1.807 0.25
-6.2360001 0.57300001 -1.817 0.19
-6.2069998 0.551 -1.807 0.23999999
-6.2030001 0.53100002 -1.8049999 0.1
-6.2069998 0.51099998 -1.806 0.090000004
-6.204 0.50099999 -1.8049999 0.14
-6.198 0.48100001 -1.802 0.090000004
-6.21 0.463 -1.806 0.2
-6.1849999 0.44100001 -1.798 0.1
-6.2059999 0.42300001 -1.804 0.15000001
-6.2150002 0.40400001 -1.806 0.23999999
-6.2080002 0.39399999 -1.804 0.25
-6.2049999 0.37400001 -1.802 0.19
-6.2179999 0.35499999 -1.806 0.28
-6.2049999 0.33500001 -1.802 0.23999999
-6.197 0.315 -1.799 0.18000001
-6.2020001 0.296 -1.8 0.27000001
-6.1989999 0.27599999 -1.799 0.23
-6.1989999 0.257 -1.799 0.17
-6.1960001 0.24699999 -1.798 0.27000001
-6.1869998 0.227 -1.795 0.22
-6.1939998 0.208 -1.796 0.18000001
-6.198 0.18799999 -1.798 0.27000001
-6.1849999 0.169 -1.794 0.23999999
-6.178 0.149 -1.791 0.18000001
-6.1919999 0.14 -1.795 0.28
-6.177 0.12 -1.791 0.19
-6.1729999 0.101 -1.789 0.25
-6.2080002 0.081 -1.8 0.18000001
-6.1739998 0.061999999 -1.789 0.23999999
-6.1719999 0.041999999 -1.789 0.23
-6.1880002 0.023 -1.794 0.25999999
-6.1680002 0.013 -1.788 0.18000001
-6.1589999 -0.0060000001 -1.785 0.28
-6.165 -0.025 -1.786 0.22
-6.1570001 -0.045000002 -1.784 0.18000001
-6.138 -0.064000003 -1.778 0.27000001
-6.1599998 -0.082999997 -1.785 0.23
-6.1389999 -0.102 -1.779 0.18000001
-6.1290002 -0.112 -1.776 0.25999999
-6.152 -0.132 -1.783 0.18000001
-6.119 -0.15000001 -1.773 0.25
-6.1240001 -0.169 -1.775 0.19
-6.125 -0.189 -1.775 0.23999999
-6.1269999 -0.208 -1.776 0.22
-6.1220002 -0.227 -1.775 0.17
-6.1269999 -0.24699999 -1.776 0.28
-6.1209998 -0.25600001 -1.775 0.23999999
-6.1129999 -0.27500001 -1.772 0.17
-6.1139998 -0.294 -1.773 0.25999999
-6.118 -0.31400001 -1.775 0.22
-6.1149998 -0.333 -1.774 0.17
-6.1220002 -0.352 -1.776 0.25999999
-6.1129999 -0.37099999 -1.774 0.22
-6.1279998 -0.382 -1.779 0.2
-6.1100001 -0.40000001 -1.773 0.25
-6.118 -0.41999999 -1.776 0.22
-6.1129999 -0.43900001 -1.775 0.18000001
-6.1149998 -0.458 -1.776 0.25999999
-6.1230001 -0.47799999 -1.779 0.19
-6.1100001 -0.49599999 -1.776 0.25
-6.119 -0.50700003 -1.779 0.19
-6.1079998 -0.52499998 -1.776 0.23999999
-6.1209998 -0.546 -1.781 0.23
-6.1139998 -0.565 -1.779 0.18000001
-6.1020002 -0.583 -1.776 0.25999999
-6.1269999 -0.60500002 -1.784 0.23
-6.1090002 -0.61299998 -1.779 0.17
-6.1090002 -0.63200003 -1.779 0.25999999
-6.118 -0.65200001 -1.783 0.23
-6.1160002 -0.67199999 -1.783 0.2
-6.1030002 -0.68900001 -1.779 0.25
-6.1100001 -0.70999998 -1.7819999 0.18000001
-6.098 -0.72799999 -1.779 0.23999999
-6.112 -0.73900002 -1.784 0.18000001
-6.0949998 -0.75700003 -1.779 0.23
-6.1020002 -0.77700001 -1.7819999 0.16
-6.105 -0.79699999 -1.784 0.25999999
-6.0219998 -0.815 -1.7589999 0.22
-6.04 -0.83600003 -1.766 0.19
-6.02 -0.85299999 -1.76 0.25
-6.0310001 -0.87400001 -1.765 0.18000001
-6.007 -0.88 -1.757 0.25
-6.0310001 -0.903 -1.766 0.16
-6.0050001 -0.91799998 -1.7589999 0.25999999
-6.0209999 -0.94 -1.765 0.18000001
-6.0089998 -0.95700002 -1.762 0.23
-6.0279999 -0.98000002 -1.7690001 0.18000001
-6.0139999 -0.99699998 -1.765 0.23999999
-6.0120001 -1.016 -1.766 0.18000001
-5.9959998 -1.023 -1.761 0.25
-6.0149999 -1.046 -1.768 0.19
-5.993 -1.061 -1.762 0.25
-6.0079999 -1.084 -1.768 0.22
-5.9920001 -1.1 -1.7640001 0.18000001
-5.9879999 -1.119 -1.7640001 0.25999999
-6.0040002 -1.141 -1.77 0.23
-5.9889998 -1.148 -1.766 0.17
-5.9790001 -1.166 -1.7640001 0.25999999
-6.0040002 -1.1900001 -1.773 0.22
-5.9809999 -1.205 -1.767 0.20999999
-5.9790001 -1.225 -1.768 0.27000001
-5.9850001 -1.245 -1.77 0.23999999
-5.9809999 -1.2539999 -1.77 0.20999999
-5.9660001 -1.271 -1.766 0.25
-5.9530001 -1.2869999 -1.763 0.23
-5.948 -1.306 -1.763 0.18000001
-5.9349999 -1.323 -1.76 0.25999999
-5.948 -1.345 -1.766 0.2
-5.9250002 -1.359 -1.76 0.25
-5.934 -1.3710001 -1.763 0.23
-5.9310002 -1.39 -1.7640001 0.18000001
-5.921 -1.408 -1.762 0.28
-5.9109998 -1.425 -1.76 0.23
-5.9120002 -1.4450001 -1.762 0.18000001
-5.9039998 -1.4630001 -1.761 0.27000001
-5.9050002 -1.483 -1.763 0.22
-5.9120002 -1.494 -1.766 0.18000001
-5.8979998 -1.51 -1.763 0.25999999
-5.8990002 -1.53 -1.765 0.23
-5.8990002 -1.55 -1.766 0.18000001
-5.8909998 -1.568 -1.765 0.28
-5.8909998 -1.5880001 -1.767 0.23
-5.8730001 -1.603 -1.763 0.18000001
-5.868 -1.6210001 -1.763 0.27000001
-5.8899999 -1.637 -1.77 0.23
-5.8769999 -1.654 -1.768 0.16
-5.8610001 -1.669 -1.765 0.28999999
-5.8779998 -1.694 -1.772 0.23
-5.8720002 -1.712 -1.772 0.23
-5.8540001 -1.727 -1.768 0.22
-5.8590002 -1.738 -1.77 0.25999999
-5.8610001 -1.7589999 -1.772 0.2
-5.8330002 -1.77 -1.765 0.12
-5.855 -1.7970001 -1.774 0.20999999
-5.8379998 -1.812 -1.77 0.11
-5.8509998 -1.836 -1.776 0.19
-5.8579998 -1.859 -1.781 0
-5.802 -1.851 -1.763 0
-5.796 -1.869 -1.763 0
-5.7979999 -1.89 -1.766 0
-5.7839999 -1.906 -1.763 0
-5.7750001 -1.923 -1.762 0
-5.756 -1.936 -1.758 0
-5.5799999 -2.5150001 -1.773 0.029999999
-5.5890002 -2.5409999 -1.779 0.16
-5.599 -2.566 -1.785 0.18000001
-5.5949998 -2.575 -1.785 0.22
-5.5760002 -2.5880001 -1.781 0.30000001
-5.5780001 -2.6099999 -1.785 0.25
-5.5770001 -2.631 -1.7869999 0.25999999
-5.5830002 -2.655 -1.7920001 0.27000001
-5.5780001 -2.674 -1.793 0.25999999
-5.5619998 -2.6889999 -1.791 0.25999999
-5.5599999 -2.698 -1.791 0.28
-5.5479999 -2.714 -1.79 0.25999999
-5.5430002 -2.733 -1.791 0.25999999
-5.5440001 -2.756 -1.795 0.25999999
-5.5409999 -2.776 -1.796 0.30000001
-5.5339999 -2.7939999 -1.7970001 0.23
-5.5279999 -2.813 -1.798 0.31999999
-5.5149999 -2.8169999 -1.795 0.31999999
-5.507 -2.835 -1.795 0.23999999
-5.5110002 -2.859 -1.8 0.31999999
-5.5209999 -2.8859999 -1.807 0.28999999
-5.4860001 -2.8900001 -1.798 0.31
-5.4860001 -2.9119999 -1.801 0.27000001
-5.4759998 -2.9289999 -1.801 0.25999999
-5.4530001 -2.927 -1.794 0.17
-5.448 -2.9460001 -1.795 0.28999999
-5.4580002 -2.9749999 -1.802 0.25
-5.4369998 -2.9849999 -1.798 0.25999999
-5.4299998 -3.003 -1.799 0.27000001
-5.4250002 -3.023 -1.801 0.19
-5.414 -3.039 -1.8 0.28
-5.4289999 -3.059 -1.807 0.25
-5.4130001 -3.072 -1.8049999 0.19
-5.3959999 -3.085 -1.802 0.27000001
-5.3969998 -3.108 -1.806 0.25
-5.3889999 -3.1259999 -1.807 0.27000001
-5.3969998 -3.154 -1.813 0.23999999
-5.375 -3.164 -1.809 0.22
-5.3670001 -3.1700001 -1.808 0.34
-5.375 -3.198 -1.814 0.34999999
-5.3629999 -3.214 -1.814 0.34
-5.342 -3.224 -1.809 0.2
-5.3280001 -3.2379999 -1.808 0.14
-5.2940001 -3.24 -1.799 0
-5.0240002 -3.095 -1.705 0
-4.6160002 -2.872 -1.561 0
-4.5650001 -2.8599999 -1.546 0
-4.5 -2.8380001 -1.525 0
-4.4569998 -2.8299999 -1.513 0
-4.4029999 -2.8150001 -1.4960001 0
-4.3530002 -2.802 -1.4809999 0
-4.3179998 -2.789 -1.47 0
-4.257 -2.7679999 -1.45 0
-4.237 -2.7739999 -1.446 0
-4.2220001 -2.783 -1.444 0
-4.2030001 -2.79 -1.4400001 0
-4.165 -2.783 -1.429 0
-4.0739999 -2.75 -1.4 0
-4.1110001 -2.7939999 -1.4170001 0.059999999
-4.0879998 -2.7969999 -1.4119999 0
-4.0669999 -2.8010001 -1.4069999 0
-4.0300002 -2.7939999 -1.396 0
-3.902 -2.723 -1.351 0
-3.891 -2.733 -1.35 0
-3.869 -2.727 -1.344 0
-3.8510001 -2.7320001 -1.34 0
-3.826 -2.7320001 -1.334 0
-3.7950001 -2.7279999 -1.325 0
-3.7850001 -2.7750001 -1.331 0.47999999
-3.7809999 -2.7809999 -1.331 0
-3.701 -2.74 -1.304 0
-3.652 -2.721 -1.288 0
-3.6199999 -2.7149999 -1.279 0
-3.6059999 -2.7219999 -1.277 0
-3.585 -2.724 -1.272 0
-3.566 -2.727 -1.268 0
-3.5580001 -2.73 -1.267 0
-3.55 -2.7409999 -1.267 0
-3.529 -2.743 -1.262 0
-3.5150001 -2.7490001 -1.26 0
-3.5090001 -2.763 -1.261 0
-3.365 -2.7620001 -1.226 0
-3.355 -2.7709999 -1.226 0
-3.3139999 -2.7550001 -1.2130001 0
-3.3210001 -2.77 -1.217 0
-2.961 -2.845 -1.15 0
-2.928 -2.8310001 -1.1390001 0
-2.888 -2.809 -1.126 0
-2.901 -2.8310001 -1.133 0
-2.925 -2.872 -1.148 0
-2.9170001 -2.8829999 -1.148 0
-2.711 -3.198 -1.177 0
-2.701 -3.207 -1.177 0
-2.697 -3.223 -1.179 0
-2.6900001 -3.224 -1.178 0
-2.701 -3.2590001 -1.189 0
-2.714 -3.296 -1.2 0
-2.6570001 -3.4649999 -1.23 0
-2.645 -3.4719999 -1.23 0
-2.602 -3.8 -1.304 0
-2.6010001 -3.8239999 -1.3099999 0
-2.599 -3.846 -1.3150001 0
-2.612 -3.8789999 -1.326 0
-3.214 -4.8509998 -1.679 0.14
-3.1849999 -4.8400002 -1.6720001 0.30000001
-3.1689999 -4.848 -1.671 0.27000001
-3.1570001 -4.8629999 -1.673 0.25999999
-3.1389999 -4.8699999 -1.6720001 0.27000001
-3.1340001 -4.8779998 -1.673 0.27000001
-3.118 -4.888 -1.673 0.25
-3.1010001 -4.8940001 -1.6720001 0.25999999
-3.0840001 -4.901 -1.671 0.27000001
-3.0639999 -4.9039998 -1.668 0.16
-3.0510001 -4.9169998 -1.669 0.28
-3.033 -4.9229999 -1.668 0.25
-3.0250001 -4.9260001 -1.668 0.25999999
-3.0109999 -4.9390001 -1.669 0.27000001
-2.9990001 -4.9549999 -1.671 0.27000001
-2.9790001 -4.9559999 -1.668 0.28
-2.9619999 -4.9640002 -1.668 0.27000001
-2.9449999 -4.9699998 -1.666 0.25999999
-2.928 -4.9770002 -1.666 0.19
-2.918 -4.9770002 -1.664 0.28
-2.9119999 -5.0040002 -1.671 0.23
-2.8989999 -5.0170002 -1.6720001 0.28999999
-2.872 -5.006 -1.665 0.18000001
-2.8529999 -5.0100002 -1.663 0.28999999
-2.8380001 -5.0209999 -1.663 0.25
-2.8210001 -5.026 -1.6619999 0.28
-2.812 -5.0289998 -1.6619999 0.27000001
-2.7980001 -5.0409999 -1.663 0.27000001
-2.777 -5.0409999 -1.66 0.27000001
-2.7609999 -5.0479999 -1.659 0.25999999
-2.7460001 -5.059 -1.66 0.16
-2.7260001 -5.0609999 -1.658 0.28999999
-2.72 -5.0679998 -1.659 0.25
-2.704 -5.0770001 -1.659 0.25999999
-2.6860001 -5.0819998 -1.658 0.28
-2.6800001 -5.1090002 -1.664 0.25999999
-2.6600001 -5.1090002 -1.661 0.28
-2.6359999 -5.1040001 -1.656 0.30000001
-2.6199999 -5.112 -1.656 0.28999999
-2.6110001 -5.112 -1.655 0.27000001
-2.5969999 -5.1259999 -1.6569999 0.25999999
-2.575 -5.1220002 -1.653 0.19
-2.556 -5.1230001 -1.65 0.28999999
-2.5469999 -5.1469998 -1.656 0.23999999
-2.52 -5.132 -1.648 0.16
-2.506 -5.1440001 -1.649 0.28999999
-2.503 -5.1599998 -1.653 0.23999999
-2.4849999 -5.1620002 -1.652 0.27000001
-2.4660001 -5.165 -1.65 0.19
-2.4460001 -5.164 -1.647 0.28
-2.428 -5.1680002 -1.646 0.25
-2.4170001 -5.1880002 -1.65 0.25999999
-2.402 -5.197 -1.65 0.27000001
-2.391 -5.1960001 -1.649 0.27000001
-2.3789999 -5.2119999 -1.652 0.25999999
-2.358 -5.2090001 -1.648 0.19
-2.3380001 -5.2090001 -1.646 0.28
-2.323 -5.2179999 -1.646 0.25
-2.309 -5.2329998 -1.649 0.25
-2.293 -5.2399998 -1.649 0.25999999
-2.2839999 -5.2420001 -1.648 0.28
-2.2690001 -5.2519999 -1.649 0.28
-2.247 -5.2470002 -1.645 0.16
-2.233 -5.2589998 -1.647 0.28999999
-2.221 -5.2789998 -1.651 0.25
-2.2 -5.2750001 -1.648 0.27000001
-2.184 -5.2820001 -1.648 0.25999999
-2.1849999 -5.3080001 -1.655 0.25
-2.1600001 -5.2940001 -1.648 0.27000001
-2.1459999 -5.3080001 -1.65 0.25
-2.128 -5.3109999 -1.649 0
-2.1070001 -5.3070002 -1.646 0
-1.1109999 -2.8180001 -0.81699997 0
-1.096 -2.7909999 -0.80699998 0
-1.09 -2.802 -0.81 0
-0.65200001 -2.7620001 -0.75800002 0
-0.63700002 -2.7379999 -0.74900001 0
-0.63 -2.7479999 -0.75199997 0
-0.257 -2.4560001 -0.64300001 0
-0.248 -2.4419999 -0.639 0
-0.23999999 -2.4349999 -0.63599998 0
-0.237 -2.448 -0.64099997 0
-0.229 -2.447 -0.63999999 0
-0.221 -2.444 -0.639 0
-0.215 -2.46 -0.64300001 0
-0.206 -2.444 -0.63800001 0
-0.197 -2.4349999 -0.63499999 0
-0.189 -2.4330001 -0.63499999 0
-0.185 -2.428 -0.63300002 0
-0.18000001 -2.4719999 -0.64600003 0
-0.171 -2.4389999 -0.63599998 0
-0.162 -2.4219999 -0.63 0.029999999
-0.155 -2.434 -0.634 0.029999999
-0.147 -2.425 -0.63099998 0.029999999
-0.14 -2.4389999 -0.63499999 0.07
-0.13600001 -2.4349999 -0.634 0.039999999
-0.12800001 -2.4260001 -0.63099998 0.15000001
-0.12 -2.4189999 -0.62900001 0.039999999
-0.113 -2.4460001 -0.63700002 0.17
-0.105 -2.4330001 -0.63300002 0.2
-0.097000003 -2.4200001 -0.62900001 0.17
-0.090000004 -2.4489999 -0.63800001 0.23
-0.086000003 -2.4300001 -0.63200003 0.22
-0.078000002 -2.4319999 -0.63200003 0.23
-0.071000002 -2.434 -0.63300002 0.20999999
-0.063000001 -2.4189999 -0.62800002 0.28
-0.055 -2.411 -0.62599999 0.22
-0.048 -2.448 -0.63700002 0.25
-0.044 -2.4349999 -0.63300002 0.28
-0.035999998 -2.427 -0.63 0.31
-0.028999999 -2.437 -0.63300002 0.31999999
-0.021 -2.4230001 -0.62900001 0.31999999
-0.013 -2.427 -0.63 0.30000001
-0.0060000001 -2.4349999 -0.63300002 0.30000001
0.0020000001 -2.4349999 -0.63300002 0.31
0.0060000001 -2.4330001 -0.63200003 0.34999999
0.013 -2.431 -0.63200003 0.33000001
0.021 -2.4100001 -0.625 0
0.028000001 -2.414 -0.62599999 0
0.035999998 -2.4159999 -0.62699997 0
1.704 -2.402 -0.79100001 0
1.7029999 -2.3859999 -0.78600001 0
1.7 -2.3740001 -0.78299999 0
1.7029999 -2.3629999 -0.78100002 0
1.733 -2.388 -0.792 0
1.744 -2.3870001 -0.79400003 0
1.755 -2.3859999 -0.796 0
1.772 -2.3929999 -0.801 0
1.7819999 -2.3900001 -0.80199999 0
1.789 -2.392 -0.80400002 0
1.806 -2.3989999 -0.80800003 0
2.0179999 -2.5020001 -0.87400001 0
2.0250001 -2.494 -0.87300003 0
2.0309999 -2.494 -0.875 0
2.0339999 -2.4820001 -0.87199998 0
2.027 -2.4579999 -0.86500001 0
2.0599999 -2.48 -0.87699997 0
2.102 -2.5150001 -0.89300001 0
2.1040001 -2.5009999 -0.88999999 0
2.0680001 -2.4430001 -0.87 0
2.062 -2.414 -0.86199999 0
2.0799999 -2.4189999 -0.866 0
2.0829999 -2.408 -0.86400002 0
2.0910001 -2.401 -0.86400002 0
2.105 -2.402 -0.86699998 0
2.1099999 -2.392 -0.866 0
2.1289999 -2.4059999 -0.87300003 0
2.1329999 -2.395 -0.87199998 0
2.1440001 -2.3929999 -0.87300003 0
2.1570001 -2.391 -0.87599999 0
2.158 -2.378 -0.87300003 0
2.1700001 -2.3759999 -0.875 0
2.188 -2.381 -0.88 0
2.184 -2.369 -0.87599999 0
2.1989999 -2.3699999 -0.88 0
2.2 -2.3570001 -0.87699997 0
2.2090001 -2.3510001 -0.87699997 0
2.2349999 -2.3629999 -0.88599998 0
2.253 -2.3670001 -0.88999999 0
2.2449999 -2.3510001 -0.88499999 0
2.24 -2.332 -0.88 0
2.266 -2.3440001 -0.88800001 0
2.2720001 -2.336 -0.88800001 0
2.2880001 -2.3369999 -0.89099997 0
2.3150001 -2.3280001 -0.89499998 0
2.3340001 -2.3310001 -0.89999998 0
2.3570001 -2.3399999 -0.90700001 0
2.375 -2.3280001 -0.90799999 0
2.378 -2.316 -0.90600002 0
2.421 -2.335 -0.92000002 0
2.5999999 -2.296 -0.95300001 0
2.652 -2.326 -0.97100002 0
2.6670001 -2.3239999 -0.97399998 0
2.6919999 -2.3310001 -0.98100001 0
2.6930001 -2.3169999 -0.97899997 0
2.6960001 -2.3050001 -0.977 0
2.701 -2.302 -0.977 0
2.743 -2.323 -0.99199998 0
2.7390001 -2.3050001 -0.98699999 0
2.7579999 -2.306 -0.99199998 0
4.6630001 -3.5880001 -1.7 0.090000004
4.6669998 -3.5669999 -1.697 0.25
4.6810002 -3.5550001 -1.698 0.27000001
4.6890001 -3.5380001 -1.697 0.28
4.6900001 -3.527 -1.6950001 0.28999999
4.7090001 -3.5179999 -1.698 0.28999999
4.7199998 -3.503 -1.698 0.20999999
4.723 -3.483 -1.6950001 0.25
4.75 -3.4790001 -1.701 0.23999999
4.7529998 -3.4590001 -1.698 0.27000001
4.7639999 -3.444 -1.698 0.27000001
4.7779999 -3.4430001 -1.701 0.27000001
4.7779999 -3.4200001 -1.697 0.27000001
4.7979999 -3.4119999 -1.701 0.27000001
4.8140001 -3.4000001 -1.7029999 0.27000001
4.816 -3.3789999 -1.7 0.28
4.8249998 -3.3629999 -1.699 0.28
4.8520002 -3.359 -1.705 0.28999999
4.8590002 -3.352 -1.705 0.28
4.868 -3.336 -1.705 0.27000001
4.8800001 -3.322 -1.705 0.28999999
4.8870001 -3.3039999 -1.704 0.27000001
4.9000001 -3.2909999 -1.705 0.27000001
4.9109998 -3.276 -1.705 0.27000001
4.9190001 -3.27 -1.707 0.27000001
4.9369998 -3.26 -1.71 0.27000001
4.9439998 -3.2420001 -1.7079999 0.28
4.9580002 -3.2290001 -1.71 0.27000001
4.9679999 -3.2130001 -1.71 0.28999999
4.9920001 -3.207 -1.715 0.27000001
4.9780002 -3.1760001 -1.706 0.27000001
4.993 -3.174 -1.71 0.27000001
5.0139999 -3.165 -1.714 0.27000001
5.0009999 -3.135 -1.705 0.27000001
5.013 -3.1210001 -1.706 0.25999999
5.04 -3.1159999 -1.7130001 0.27000001
5.0370002 -3.092 -1.7079999 0.25999999
5.0549998 -3.0810001 -1.711 0.23999999
5.0650001 -3.076 -1.7130001 0.30000001
5.0289998 -3.033 -1.696 0.23
4.77 -2.858 -1.6 0
4.7080002 -2.802 -1.574 0
4.6440001 -2.744 -1.548 0
4.6100001 -2.7049999 -1.533 0
4.6139998 -2.687 -1.531 0
4.585 -2.661 -1.5190001 0
4.5599999 -2.628 -1.507 0
4.5710001 -2.615 -1.5089999 0
4.5650001 -2.5929999 -1.503 0
4.5580001 -2.5699999 -1.498 0
4.566 -2.5550001 -1.498 0
4.5669999 -2.5369999 -1.4960001 0
4.5489998 -2.5179999 -1.488 0
4.5539999 -2.5020001 -1.487 0
4.546 -2.48 -1.4809999 0
4.5560002 -2.4660001 -1.482 0
4.572 -2.457 -1.485 0
4.5650001 -2.434 -1.48 0
4.586 -2.427 -1.484 0
4.598 -2.424 -1.487 0
4.5970001 -2.405 -1.484 0
4.6350002 -2.4059999 -1.495 0
4.6529999 -2.3970001 -1.499 0
4.678 -2.391 -1.505 0
4.6560001 -2.362 -1.494 0
4.677 -2.3629999 -1.5 0
4.7319999 -2.372 -1.517 0.090000004
4.7480001 -2.3610001 -1.52 0.039999999
4.836 -2.3859999 -1.548 0
4.8559999 -2.3759999 -1.552 0
4.868 -2.3640001 -1.554 0
4.9050002 -2.362 -1.564 0.029999999
4.914 -2.3570001 -1.5650001 0
5.0100002 -2.3829999 -1.596 0.090000004
5.1110001 -2.392 -1.625 0.19
5.1259999 -2.3789999 -1.627 0.5
5.1090002 -2.352 -1.619 0.61000001
5.1350002 -2.3440001 -1.626 0
5.2379999 -2.381 -1.659 0.050000001
5.7309999 -2.5799999 -1.824 0.2
5.757 -2.5699999 -1.83 0.23999999
5.7420001 -2.5420001 -1.822 0.17
5.7639999 -2.53 -1.827 0.30000001
5.7589998 -2.507 -1.822 0.23999999
5.7639999 -2.487 -1.821 0.16
5.7680001 -2.4779999 -1.821 0.28999999
5.7670002 -2.4560001 -1.818 0.25
5.7729998 -2.437 -1.818 0.16
5.7680001 -2.414 -1.814 0.28999999
5.7789998 -2.3970001 -1.8150001 0.23999999
5.8010001 -2.385 -1.8200001 0.23999999
5.789 -2.359 -1.813 0.17
5.796 -2.3510001 -1.814 0.28
5.7940001 -2.329 -1.811 0.25
5.803 -2.312 -1.812 0.25999999
5.8140001 -2.2950001 -1.813 0.27000001
5.809 -2.2720001 -1.809 0.28
5.8210001 -2.256 -1.811 0.27000001
5.8189998 -2.244 -1.809 0.28
5.8260002 -2.2260001 -1.809 0.27000001
5.8299999 -2.2060001 -1.808 0.25999999
5.8189998 -2.1819999 -1.802 0.25999999
5.8309999 -2.165 -1.804 0.27000001
5.8400002 -2.148 -1.804 0.27000001
5.8449998 -2.1289999 -1.804 0.27000001
5.8330002 -2.1140001 -1.799 0.27000001
5.8509998 -2.0999999 -1.802 0.28
5.8449998 -2.0769999 -1.798 0.17
5.8439999 -2.056 -1.796 0.28999999
5.8449998 -2.036 -1.794 0.25
5.8610001 -2.02 -1.7970001 0.25
5.8400002 -1.993 -1.788 0.18000001
5.8410001 -1.983 -1.788 0.28999999
5.8639998 -1.97 -1.793 0.25
5.8639998 -1.95 -1.791 0.27000001
5.8590002 -1.928 -1.788 0.25999999
5.8579998 -1.9069999 -1.785 0.25
5.862 -1.888 -1.785 0.27000001
5.8610001 -1.868 -1.7819999 0.25999999
5.8600001 -1.857 -1.781 0.28999999
5.8639998 -1.8380001 -1.781 0.28
5.868 -1.819 -1.78 0.25999999
5.8649998 -1.798 -1.777 0.28999999
5.8610001 -1.777 -1.774 0.27000001
5.8759999 -1.761 -1.777 0.25
5.8610001 -1.737 -1.77 0.31999999
5.8730001 -1.73 -1.773 0.25
5.8860002 -1.714 -1.776 0.28
5.875 -1.691 -1.77 0.28999999
5.8670001 -1.669 -1.766 0.30000001
5.8829999 -1.653 -1.77 0.25999999
5.8899999 -1.635 -1.77 0.25999999
5.875 -1.6109999 -1.7640001 0.17
5.8610001 -1.598 -1.7589999 0.28
5.868 -1.58 -1.7589999 0.25
5.8730001 -1.561 -1.7589999 0.19
5.8699999 -1.541 -1.757 0.27000001
5.8769999 -1.523 -1.757 0.25
5.8629999 -1.5 -1.752 0.18000001
5.8670001 -1.4910001 -1.752 0.27000001
5.8720002 -1.473 -1.752 0.23999999
5.8730001 -1.4529999 -1.751 0.17
5.8790002 -1.4349999 -1.752 0.28
5.8839998 -1.4170001 -1.752 0.23
5.8709998 -1.3940001 -1.7460001 0.18000001
5.8779998 -1.376 -1.747 0.25999999
5.8870001 -1.369 -1.749 0.23999999
5.882 -1.348 -1.7460001 0.18000001
5.8920002 -1.331 -1.748 0.27000001
5.8870001 -1.3099999 -1.745 0.23
5.882 -1.29 -1.742 0.18000001
5.8969998 -1.274 -1.7460001 0.25999999
5.895 -1.2539999 -1.744 0.23
5.8899999 -1.243 -1.742 0.18000001
5.901 -1.226 -1.744 0.25999999
5.8940001 -1.205 -1.74 0.23999999
5.901 -1.188 -1.742 0.18000001
5.9029999 -1.169 -1.7410001 0.25999999
5.8920002 -1.147 -1.7359999 0.23
5.9050002 -1.131 -1.739 0.17
5.9029999 -1.1210001 -1.738 0.27000001
5.902 -1.101 -1.737 0.23
5.8959999 -1.081 -1.734 0.18000001
5.9130001 -1.0650001 -1.738 0.25999999
5.8990002 -1.043 -1.733 0.19
5.8990002 -1.024 -1.7309999 0.25
5.915 -1.008 -1.7359999 0.18000001
5.8959999 -0.995 -1.729 0.25
5.9159999 -0.97899997 -1.734 0.19
5.9130001 -0.95999998 -1.733 0.25
5.9200001 -0.94199997 -1.734 0.2
5.9190001 -0.92299998 -1.733 0.12
5.928 -0.90499997 -1.734 0.2
5.908 -0.88300002 -1.727 0.11
5.9089999 -0.87400001 -1.727 0.19
5.927 -0.85699999 -1.732 0.11
5.9320002 -0.83899999 -1.733 0.18000001
5.9169998 -0.81800002 -1.727 0.22
5.9520001 -0.80400002 -1.737 0.18000001
5.928 -0.78200001 -1.729 0.23999999
5.9559999 -0.77600002 -1.737 0.2
5.9320002 -0.75400001 -1.729 0.23
5.9239998 -0.73400003 -1.726 0.18000001
5.9289999 -0.71499997 -1.727 0.23999999
5.9460001 -0.699 -1.7309999 0.18000001
5.9330001 -0.67799997 -1.727 0.23999999
5.9429998 -0.66000003 -1.729 0.17
5.9289999 -0.64899999 -1.724 0.23
5.9460001 -0.63200003 -1.729 0.18000001
5.9169998 -0.611 -1.72 0.23999999
5.9359999 -0.59399998 -1.725 0.18000001
5.9310002 -0.574 -1.723 0.23
5.9489999 -0.55699998 -1.728 0.2
5.9380002 -0.537 -1.724 0.12
5.9229999 -0.52700001 -1.719 0.2
5.9439998 -0.50999999 -1.725 0.11
5.934 -0.49000001 -1.721 0.2
5.9190001 -0.47 -1.716 0.11
5.941 -0.45300001 -1.723 0.2
5.941 -0.43399999 -1.722 0.11
5.9289999 -0.41499999 -1.7180001 0.19
5.9349999 -0.40599999 -1.72 0.11
5.9419999 -0.38800001 -1.721 0.18000001
5.9239998 -0.368 -1.716 0.12
5.948 -0.34999999 -1.723 0.18000001
5.934 -0.331 -1.7180001 0.22
5.96 -0.31400001 -1.726 0.2
5.9299998 -0.29300001 -1.716 0.22
5.9510002 -0.285 -1.723 0.19
5.941 -0.266 -1.719 0.22
5.9569998 -0.248 -1.724 0.19
5.9369998 -0.228 -1.717 0.22
5.96 -0.20999999 -1.724 0.2
5.9359999 -0.191 -1.717 0.23
5.948 -0.17299999 -1.72 0.2
5.9310002 -0.163 -1.715 0.23
5.9450002 -0.14399999 -1.719 0.19
5.9320002 -0.126 -1.715 0.22
5.9530001 -0.107 -1.721 0.19
5.9310002 -0.088 -1.714 0.23
5.9390001 -0.07 -1.717 0.16
5.9390001 -0.059999999 -1.717 0.23999999
5.947 -0.041999999 -1.719 0.22
5.9310002 -0.023 -1.714 0.11
5.9510002 -0.0040000002 -1.72 0.17
5.7480001 0.012 -1.7180001 0.30000001
5.7550001 0.030999999 -1.72 0.30000001
5.744 0.048999999 -1.717 0.30000001
5.7459998 0.067000002 -1.717 0.28
5.7360001 0.085000001 -1.714 0.30000001
5.73 0.103 -1.712 0.28999999
5.737 0.112 -1.715 0.31
5.7329998 0.13 -1.714 0.31
5.7399998 0.148 -1.716 0.28999999
5.73 0.16599999 -1.7130001 0.30000001
5.7319999 0.184 -1.714 0.30000001
5.7350001 0.20200001 -1.715 0.30000001
5.7309999 0.211 -1.714 0.28999999
5.7379999 0.229 -1.716 0.28999999
5.724 0.24600001 -1.712 0.30000001
5.7399998 0.26499999 -1.717 0.31999999
5.7309999 0.28299999 -1.715 0.28
5.7290001 0.301 -1.714 0.28999999
5.7309999 0.31900001 -1.715 0.31999999
5.723 0.32699999 -1.7130001 0.28
5.7199998 0.345 -1.712 0.28999999
5.7309999 0.36399999 -1.716 0.31
5.7259998 0.382 -1.715 0.31
5.7129998 0.39899999 -1.711 0.31
5.7210002 0.41800001 -1.714 0.30000001
5.724 0.43599999 -1.715 0.31
5.7189999 0.44499999 -1.714 0.30000001
5.724 0.463 -1.716 0.30000001
5.7199998 0.48100001 -1.715 0.31
5.711 0.498 -1.7130001 0.30000001
5.7249999 0.51700002 -1.7180001 0.28999999
5.723 0.53500003 -1.7180001 0.30000001
5.717 0.55299997 -1.717 0.30000001
5.7199998 0.56199998 -1.7180001 0.28999999
5.717 0.57999998 -1.717 0.28999999
5.7189999 0.59799999 -1.7180001 0.28999999
5.7189999 0.61699998 -1.719 0.28999999
5.7220001 0.63499999 -1.721 0.30000001
5.7220001 0.653 -1.721 0.31999999
5.7280002 0.67199999 -1.724 0.31
5.7319999 0.68199998 -1.726 0.31
5.7280002 0.69999999 -1.725 0.30000001
5.7220001 0.71700001 -1.724 0.28999999
5.7259998 0.736 -1.726 0.28999999
5.723 0.75400001 -1.726 0.28999999
5.7270002 0.773 -1.728 0.28999999
5.7319999 0.792 -1.73 0.31
5.723 0.80000001 -1.728 0.28999999
5.73 0.81900001 -1.7309999 0.31
5.7350001 0.838 -1.733 0.28999999
5.7259998 0.85500002 -1.7309999 0.30000001
5.7290001 0.87400001 -1.733 0.30000001
5.73 0.89200002 -1.734 0.30000001
5.7259998 0.91000003 -1.734 0.31999999
5.7319999 0.92000002 -1.7359999 0.30000001
5.7360001 0.93900001 -1.738 0.31999999
5.73 0.95700002 -1.737 0.30000001
5.7340002 0.97600001 -1.74 0.31999999
5.7270002 0.99400002 -1.738 0.31999999
5.7329998 1.013 -1.742 0.31999999
5.7249999 1.03 -1.74 0.31999999
5.73 1.04 -1.742 0.31
5.7160001 1.056 -1.738 0.28999999
5.724 1.076 -1.742 0.31999999
5.7280002 1.096 -1.745 0.31999999
5.723 1.113 -1.744 0.31
5.7210002 1.132 -1.745 0.28999999
5.7290001 1.152 -1.748 0.30000001
5.7210002 1.16 -1.7460001 0.31
5.717 1.178 -1.7460001 0.31
5.7249999 1.198 -1.75 0.28999999
5.7059999 1.2130001 -1.745 0.28999999
5.7140002 1.233 -1.749 0.30000001
5.717 1.253 -1.751 0.30000001
5.7090001 1.27 -1.75 0.28999999
5.7129998 1.28 -1.752 0.28999999
5.7090001 1.298 -1.752 0.28999999
5.7140002 1.318 -1.755 0.31999999
5.7080002 1.336 -1.7539999 0.28
5.7090001 1.355 -1.756 0.30000001
5.7030001 1.372 -1.756 0.30000001
5.7140002 1.3839999 -1.76 0.31
5.7080002 1.402 -1.7589999 0.28
5.7030001 1.42 -1.7589999 0.30000001
5.7010002 1.438 -1.76 0.30000001
5.7090001 1.459 -1.7640001 0.30000001
5.6989999 1.476 -1.762 0.28999999
5.6999998 1.495 -1.7640001 0.30000001
5.7090001 1.507 -1.768 0.28999999
5.7059999 1.525 -1.768 0.31999999
5.7030001 1.544 -1.7690001 0.30000001
5.7020001 1.563 -1.77 0.31999999
5.6890001 1.579 -1.768 0.30000001
5.697 1.6 -1.772 0.30000001
5.7030001 1.6210001 -1.776 0.30000001
5.6859999 1.626 -1.771 0.28999999
5.6810002 1.6440001 -1.771 0.28999999
5.697 1.668 -1.778 0.31999999
5.6900001 1.6849999 -1.777 0.31
5.6890001 1.704 -1.779 0.28999999
5.6960001 1.726 -1.783 0.31
5.6890001 1.743 -1.7819999 0.30000001
5.6929998 1.7539999 -1.785 0.31
5.697 1.775 -1.788 0.28999999
5.7080002 1.798 -1.793 0.33000001
5.698 1.8150001 -1.7920001 0.30000001
5.6999998 1.835 -1.795 0.2
5.7119999 1.859 -1.801 0.37
5.7150002 1.8789999 -1.804 0.34999999
5.7129998 1.888 -1.804 0.31999999
5.6880002 1.9 -1.798 0.28
5.6810002 1.918 -1.7970001 0.30000001
5.6869998 1.9400001 -1.801 0.33000001
5.6789999 1.957 -1.801 0.31999999
5.6700001 1.974 -1.799 0.30000001
5.678 1.9960001 -1.804 0.33000001
5.664 2.0020001 -1.801 0.28999999
5.6700001 2.0239999 -1.8049999 0.33000001
5.6739998 2.0450001 -1.809 0.31999999
5.6630001 2.0610001 -1.807 0.31
5.6609998 2.0810001 -1.809 0.31999999
5.6669998 2.1029999 -1.813 0.31
5.664 2.112 -1.813 0.30000001
5.6539998 2.1289999 -1.812 0.30000001
5.651 2.148 -1.813 0.30000001
5.6440001 2.1659999 -1.813 0.28
5.6550002 2.1900001 -1.819 0.33000001
5.6529999 2.21 -1.821 0.28999999
5.645 2.227 -1.8200001 0.30000001
5.645 2.237 -1.821 0.34
5.6479998 2.2590001 -1.825 0.30000001
5.6430001 2.2780001 -1.826 0.28
5.6529999 2.302 -1.832 0.34
5.6500001 2.322 -1.8329999 0.31
5.6409998 2.339 -1.832 0.31999999
5.638 2.358 -1.834 0.31
5.6360002 2.368 -1.835 0.28
5.6329999 2.3870001 -1.836 0.34999999
5.6339998 2.4089999 -1.839 0.28999999
5.6370001 2.431 -1.8430001 0.30000001
5.6220002 2.4449999 -1.84 0.33000001
5.6209998 2.4660001 -1.8430001 0.31999999
5.6149998 2.4849999 -1.8430001 0.31999999
5.6170001 2.4960001 -1.845 0.31
5.6160002 2.516 -1.848 0.30000001
5.6059999 2.533 -1.847 0.28999999
5.612 2.5569999 -1.852 0.33000001
5.6129999 2.579 -1.855 0.33000001
5.6199999 2.6029999 -1.86 0.31999999
5.6100001 2.6199999 -1.86 0.33000001
5.6059999 2.6289999 -1.86 0.31999999
5.6079998 2.652 -1.863 0.28999999
5.5999999 2.6689999 -1.863 0.31999999
5.5949998 2.688 -1.865 0.31
5.605 2.7149999 -1.8710001 0.30000001
5.5879998 2.7279999 -1.868 0.31
5.5929999 2.753 -1.873 0.31999999
5.5890002 2.7609999 -1.873 0.31999999
5.566 2.7720001 -1.868 0.30000001
5.5749998 2.7980001 -1.874 0.34
5.579 2.822 -1.8789999 0.28999999
5.5669999 2.8380001 -1.878 0.33000001
5.5580001 2.8559999 -1.878 0.30000001
5.5549998 2.865 -1.8789999 0.31
5.546 2.8829999 -1.8789999 0.34
5.539 2.901 -1.8789999 0.30000001
5.5380001 2.9230001 -1.882 0.33000001
5.527 2.9389999 -1.882 0.31999999
5.533 2.9649999 -1.887 0.31999999
5.5240002 2.9820001 -1.887 0.31
5.5190001 2.9909999 -1.887 0.30000001
5.5180001 3.013 -1.89 0.30000001
5.5040002 3.027 -1.888 0.28
5.494 3.0450001 -1.888 0.31
5.506 3.0739999 -1.896 0.31999999
5.4949999 3.0899999 -1.896 0.30000001
5.487 3.108 -1.896 0.31
5.487 3.1199999 -1.898 0.30000001
5.4850001 3.142 -1.901 0.28999999
5.4759998 3.1589999 -1.901 0.28
5.4819999 3.1860001 -1.9069999 0.25999999
5.48 3.2079999 -1.91 0.25
5.487 3.234 -1.916 0.28999999
5.4809999 3.2539999 -1.918 0.28999999
5.4910002 3.2720001 -1.924 0.31999999
