# .PCD v0.7 - Point Cloud Data file format
VERSION 0.7
FIELDS x y z intensity
SIZE 4 4 4 4
TYPE F F F F
COUNT 1 1 1 1
WIDTH 1506
HEIGHT 1
VIEWPOINT 0 0 0 1 0 0 0
POINTS 1506
DATA ascii
12.857 77.482002 0.454 0
12.575 77.289001 0.454 0
12.129 77.616997 0.454 0
10.171 67.904999 0.42300001 0
10.04 67.752998 0.42300001 0
10.001 73.871002 0.442 0
9.8260002 74.330002 0.44299999 0
9.6230001 74.593002 0.44400001 0
1.39 11.373 0.243 0.19
1.354 11.371 0.243 0.20999999
1.322 11.407 0.243 0.18000001
1.279 11.345 0.243 0.16
1.239 11.314 0.243 0.34
1.215 11.429 0.243 0.18000001
1.198 11.431 0.243 0.13
1.161 11.428 0.243 0
-1.498 77.398003 0.45100001 0
-1.739 77.306999 0.45100001 0
-1.9859999 77.467003 0.45100001 0
-2.073 56.382999 0.38499999 0.059999999
-2.253 56.450001 0.38499999 0.090000004
-2.421 56.207001 0.384 0.079999998
-2.5929999 56.109001 0.384 0.079999998
-2.7179999 55.049999 0.38100001 0
-2.895 55.112999 0.38100001 0
-2.987 55.212002 0.38100001 0.12
-3.151 55.047001 0.38100001 0
-3.3169999 54.915001 0.38 0
-4.7729998 75.251999 0.44400001 0
-3.668 54.983002 0.38100001 0
-3.839 54.945 0.38 0
-4.0159998 54.991001 0.38100001 0
-0.93300003 11.73 0.244 0.28999999
-1.0549999 12.306 0.24600001 0.34999999
-1.0369999 11.647 0.244 0.62
-1.117 11.712 0.244 0.57999998
-5.5599999 56.543999 0.38600001 0
-1.163 11.804 0.244 0
-5.612 55.285 0.382 0
-7.835 74.931999 0.44400001 0
-6.1560001 57.077999 0.38800001 0
-8.3050003 74.870003 0.44400001 0
-5.244 45.866001 0.352 0.050000001
-5.2969999 45.696999 0.352 0.16
-5.4250002 45.549 0.35100001 0
-5.5739999 45.577999 0.352 0
-9.7220001 77.623001 0.45300001 0
-9.9200001 77.240997 0.45199999 0.039999999
-5.342 40.487999 0.336 0
-10.458 77.565002 0.454 0
-5.1090002 36.493 0.32300001 0.23
-5.217 36.426998 0.32300001 0.25999999
-5.3769999 36.728001 0.324 0
-5.46 36.488998 0.32300001 0
-5.0679998 29.681999 0.30199999 0
-4.737 26.475 0.292 0.30000001
-4.809 26.399 0.29100001 0.28999999
-4.8920002 26.382999 0.29100001 0.33000001
-4.9829998 26.409 0.292 0.44999999
-5.638 29.389 0.301 0.14
-5.7090001 29.263 0.301 0.38
-5.7670002 29.073 0.30000001 0
-6.276 29.454 0.30199999 0.41
-6.3720002 29.448 0.30199999 0.2
-6.5749998 29.936001 0.303 0.16
-6.4349999 29.076 0.301 0.11
-6.494 28.910999 0.30000001 0
-6.6350002 29.113001 0.301 0.090000004
-4.7270002 20.409 0.273 0.20999999
-4.8470001 20.634001 0.27399999 0
-21.548 75.352997 0.454 0
-21.778 75.261002 0.454 0
-22.000999 75.147003 0.454 0
-22.224001 75.032997 0.45300001 0.050000001
-4.6799998 15.373 0.257 0.27000001
-4.7220001 15.339 0.257 0.31999999
-4.7449999 15.326 0.257 0.33000001
-4.79 15.301 0.257 0.55000001
-4.8540001 15.337 0.25799999 0
-23.606001 74.108002 0.45199999 0
-23.790001 73.880997 0.45100001 0
-20.729 63.678001 0.41800001 0
-20.863001 63.410999 0.417 0
-20.965 63.383999 0.417 0
-21.224001 63.498001 0.41800001 0
-22.641001 67.041 0.43000001 0
-22.108999 64.791 0.42300001 0
-23.160999 67.184998 0.43099999 0
-23.282 66.852997 0.43000001 0
-22.752001 64.676003 0.42300001 0
-22.889999 64.744003 0.42300001 0
-24.082001 67.442001 0.433 0
-20.875 57.875 0.40099999 0
-21.033001 57.743999 0.40099999 0
-21.18 57.584 0.40000001 0
-21.319 57.405998 0.40000001 0
-21.365999 57.254002 0.39899999 0
-21.216 56.313 0.39700001 0.050000001
-21.302999 56.008999 0.396 0.14
-21.625999 56.326 0.39700001 0.1
-21.146 54.561001 0.391 0.15000001
-21.318001 54.493999 0.391 0
-21.577 54.652 0.39199999 0
-23.857 59.882 0.41 0
-21.815001 54.499001 0.39199999 0
-24.037001 59.514 0.40900001 0
-24.899 60.014999 0.412 0
-25.252001 60.328999 0.41299999 0
-25.408001 60.171001 0.41299999 0
-29.195 68.250999 0.44100001 0
-24.326 56.366001 0.40000001 0
-24.646999 56.620998 0.40099999 0
-24.865 56.634998 0.40200001 0
-24.952999 56.352001 0.40099999 0
-25.167 56.356998 0.40099999 0
-26.872999 59.93 0.414 0
-27.121 59.976002 0.414 0
-27.358999 60 0.41499999 0
-27.406 59.605999 0.414 0
-22.726 49.009998 0.377 0
-22.879999 48.938999 0.377 0
-22.997999 48.991001 0.377 0
-22.499001 47.537998 0.373 0
-22.629999 47.429001 0.37200001 0
-32.904999 68.434998 0.44600001 0
-23.113001 47.667 0.37400001 0.12
-23.268999 47.609001 0.37400001 0.16
-23.535 47.771999 0.375 0
-34.042 68.850998 0.449 0
-35.248001 70.733002 0.456 0
-24.306 48.375999 0.377 0.039999999
-24.408001 48.199001 0.377 0
-31.327999 61.403 0.42399999 0.07
-23.302999 45.306 0.36700001 0
-24.747 47.747002 0.37599999 0
-24.778999 47.625999 0.37599999 0
-32.737 62.459999 0.42899999 0
-25.179001 47.660999 0.377 0
-25.285999 47.501999 0.37599999 0
-25.461 47.470001 0.377 0.090000004
-24.596001 45.512001 0.37 0.090000004
-24.697001 45.356998 0.37 0.19
-24.729 45.077999 0.36899999 0
-24.813 45.063 0.36899999 0
-25.004 45.074001 0.36899999 0.079999998
-25.131001 44.969002 0.36899999 0
-33.541 59.595001 0.42199999 0
-33.655998 59.362 0.42199999 0
-3.444 5.9619999 0.229 0.27000001
-3.438 5.908 0.228 0.2
-3.437 5.8639998 0.228 0.34999999
-3.441 5.8270001 0.228 0.31999999
-3.4430001 5.789 0.228 0.31
-3.437 5.7389998 0.228 0.31
-3.4389999 5.6999998 0.228 0.27000001
-3.4360001 5.6739998 0.228 0.44999999
-3.431 5.6259999 0.228 0.28
-3.431 5.586 0.227 0.31999999
-3.572 5.776 0.228 0
-29.051001 46.679001 0.38 0.039999999
-3.4260001 5.5 0.227 0
-28.066 44.778999 0.373 0.090000004
-20.666 32.845001 0.329 0.19
-20.75 32.749001 0.329 0
-28.231001 44.266998 0.37200001 0
-28.527 44.422001 0.373 0
-27.604 42.688 0.36700001 0
-28.614 43.946999 0.37200001 0
-28.789 43.914001 0.37200001 0
-37.169998 56.518002 0.41999999 0
-37.271 56.285999 0.41999999 0
-37.526001 56.285999 0.41999999 0
-29.058001 43.278999 0.37099999 0
-24.393999 36.077999 0.34400001 0.11
-24.444 35.909 0.34400001 0.25
-24.511 35.765999 0.34299999 0
-24.664 35.868 0.34400001 0
-39.134998 56.556999 0.42399999 0
-39.192001 56.262001 0.42300001 0
-39.369999 56.139999 0.42300001 0
-39.716 56.256001 0.42399999 0
-40.028999 56.324001 0.42500001 0
-40.221001 56.219002 0.42500001 0
-40.402 56.285999 0.42500001 0
-40.477001 56.016998 0.42500001 0
-40.478001 55.648998 0.42399999 0
-40.591999 55.438999 0.42300001 0
-39.617001 53.750999 0.417 0
-40.112999 53.714001 0.41800001 0
-39.397999 52.583 0.414 0
-39.952999 52.977001 0.41600001 0
-31.652 41.147999 0.37 0
-31.756001 41.015999 0.37 0
-31.778 40.778999 0.37 0
-31.785999 40.657001 0.36899999 0
-32.119999 40.819 0.37099999 0
-36.111 45.601002 0.38999999 0.11
-32.216 40.416 0.37 0.1
-32.375 40.355999 0.37 0.2
-32.709 40.509998 0.37099999 0.11
-39.983002 49.212002 0.40700001 0
-40.035 49.118 0.40700001 0.07
-33.077999 40.316002 0.37099999 0.090000004
-33.323002 40.355 0.37200001 0.14
-33.445999 40.245998 0.37200001 0.14
-27.818001 33.254002 0.34299999 0.14
-27.952999 33.202999 0.34400001 0.16
-28.035999 33.089001 0.34400001 0
-28.216 33.195999 0.34400001 0
-28.604 33.439999 0.34599999 0.13
-28.809999 33.466999 0.34599999 0
-28.937 33.402 0.34599999 0
-23.104 25.910999 0.31600001 0.16
-23.129 25.775 0.31600001 0.17
-23.379999 25.891001 0.317 0.14
-23.558001 25.924 0.317 0.30000001
-23.886999 26.122 0.31799999 0.11
-23.964001 26.041 0.31799999 0.16
-23.813999 25.796 0.317 0.14
-23.823 25.643 0.317 0.43000001
-23.841999 25.502001 0.317 0.22
-24.212 25.736 0.31799999 0.23
-24.360001 25.731001 0.31799999 0
-14.884 15.364 0.27399999 0
-39.122002 40.193001 0.384 0
-39.844002 40.679001 0.38600001 0.050000001
-40.194 40.779999 0.38699999 0.14
-40.242001 40.573002 0.38699999 0
-40.367001 40.443001 0.38699999 0
-36.040001 35.765999 0.36700001 0.11
-36.073002 35.574001 0.36700001 0.1
-36.168999 35.445 0.366 0
-36.32 35.369999 0.36700001 0.11
-39.337002 38.070999 0.37900001 0
-39.394001 37.888 0.37900001 0
-39.408001 37.780998 0.37900001 0.079999998
-39.486 37.618999 0.37900001 0
-39.456001 37.354 0.37799999 0
-40.886002 38.466999 0.384 0
-41.083 38.409 0.384 0.14
-41.070999 38.158001 0.384 0
-41.091 37.936001 0.38299999 0
-39.485001 34.986 0.373 0.059999999
-39.391998 34.792 0.37200001 0.090000004
-39.620998 34.773998 0.373 0.15000001
-39.688 34.612999 0.373 0.30000001
-39.699001 34.403 0.37200001 0.19
-39.765999 34.242001 0.37200001 0
-40.009998 34.234001 0.373 0.13
-40.129002 34.227001 0.373 0.23
-39.959999 33.867001 0.37200001 0
-40.23 33.879002 0.373 0
-40.168999 33.612999 0.37200001 0
-39.782001 33.077 0.37 0.12
-39.683998 32.785 0.36899999 0.1
-39.782001 32.655998 0.36899999 0.2
-39.733002 32.511002 0.36899999 0
-61.307999 49.862 0.456 0
-61.653 49.821999 0.45699999 0
-62.066002 49.195999 0.456 0
-62.268002 49.037998 0.45699999 0
-62.484001 48.890999 0.45699999 0
-62.914001 49.069 0.458 0
-62.894001 48.736 0.458 0
-62.848999 48.386002 0.45699999 0
-62.956001 48.153999 0.45699999 0
-36.769001 26.497 0.34999999 0
-63.563 45.526001 0.45300001 0
-37.549 26.702 0.352 0
-34.915001 24.662001 0.34200001 0
-34.950001 24.523001 0.34099999 0
-34.973 24.375 0.34099999 0
-38.402 26.59 0.354 0.13
-38.623001 26.653 0.35499999 0.11
-38.865002 26.639999 0.35499999 0.15000001
-39.125999 26.639 0.35600001 0.20999999
-39.355 26.614 0.35699999 0.11
-39.328999 26.417 0.35600001 0.16
-39.209999 26.159 0.35499999 0
-64.638 42.849998 0.45100001 0
-38.960999 25.728001 0.354 0
-61.935001 40.638 0.44 0.039999999
-38.682999 25.023001 0.352 0
-38.542999 24.761 0.35100001 0
-37.646 23.851 0.347 0.31999999
-30.195999 19.058001 0.31900001 0
-63.474998 39.819 0.44299999 0
-35.035 21.811001 0.33700001 0.13
-23.934 14.786 0.29499999 0.19
-23.924 14.676 0.29499999 0.28
-23.969 14.6 0.29499999 0.34999999
-24.048 14.546 0.29499999 0.25
-24.138 14.548 0.296 0.31999999
-34.116001 20.429001 0.33199999 0.20999999
-34.311001 20.399 0.333 0.25
-34.194 20.184 0.33199999 0.11
-34.058998 19.961 0.331 0
-34.358002 19.990999 0.33199999 0
-34.404999 19.874001 0.33199999 0
-34.091999 19.622 0.331 0.13
-34.179001 19.528999 0.331 0.14
-34.147999 19.368999 0.331 0
-33.912998 19.094999 0.329 0.12
-33.573002 18.764999 0.32800001 0
-34.894001 19.360001 0.333 0
-34.923 19.233 0.33199999 0.059999999
-34.800999 19.094999 0.33199999 0.19
-34.905998 19.01 0.33199999 0
-35.054001 18.948 0.33199999 0
-34.548 18.534 0.33000001 0
-36.403999 19.384001 0.33700001 0.13
-39.918999 21.098 0.34900001 0.13
-14.037 7.316 0.257 0.60000002
-14.108 7.296 0.257 0
-35.162998 18.089001 0.331 0.1
-35.191002 17.964001 0.331 0.12
-35.195999 17.827 0.331 0
-35.599998 17.892 0.33199999 0.11
-34.611 17.257999 0.329 0.17
-35.152 17.459 0.331 0.19
-35.241001 17.365 0.331 0.17
-35.019001 17.118999 0.33000001 0.16
-38.056999 18.459 0.34 0
-42.764999 20.58 0.35600001 0.050000001
-42.858002 20.459999 0.35699999 0.18000001
-35.674 16.957001 0.331 0.2
-35.702 16.833 0.331 0.17
-36.237 16.945999 0.333 0.31999999
-36.32 16.846001 0.333 0.11
-36.425999 16.757 0.333 0.12
-35.458 16.176001 0.33000001 0.2
-35.554001 16.084999 0.33000001 0.44999999
-35.493999 15.99 0.33000001 0.18000001
-35.634998 15.92 0.33000001 0.25999999
-35.439999 15.699 0.329 0.18000001
-35.372002 15.536 0.329 0.18000001
-35.466 15.445 0.329 0.28999999
-35.568001 15.356 0.329 0.20999999
-35.548 15.215 0.329 0.28999999
-35.605 15.173 0.329 0.2
-35.568001 15.026 0.329 0.34
-35.674 14.939 0.329 0.19
-35.481998 14.727 0.32800001 0.34
-35.563 14.63 0.32800001 0.14
-35.374001 14.422 0.32699999 0.28999999
-35.042999 14.159 0.32600001 0.2
-35.401001 14.239 0.32699999 0.12
-35.566002 14.176 0.32699999 0.16
-35.233002 13.915 0.32600001 0.23
-35.338001 13.828 0.32600001 0.18000001
-35.250999 13.666 0.32600001 0.22
-35.062 13.467 0.32499999 0.13
-34.943001 13.295 0.32499999 0.36000001
-35.018002 13.261 0.32499999 0.23
-35.094002 13.163 0.32499999 0.17
-35.188999 13.073 0.32499999 0.16
-35.175999 12.943 0.32499999 0.16
-34.921001 12.724 0.324 0.28999999
-35.120998 12.672 0.32499999 0.27000001
-35.223 12.584 0.32499999 0.30000001
-35.227001 12.523 0.32499999 0.19
-35.193001 12.387 0.324 0.44999999
-35.373001 12.326 0.32499999 0.25
-35.304001 12.177 0.32499999 0.28
-35.245998 12.033 0.324 0.14
-35.41 11.965 0.32499999 0.30000001
-35.507 11.936 0.32499999 0.18000001
-35.780998 11.903 0.32600001 0.16
-35.799 11.785 0.32600001 0.46000001
-35.896999 11.692 0.32600001 0.25
-35.859001 11.555 0.32600001 0.27000001
-35.964001 11.464 0.32600001 0.15000001
-36.049999 11.367 0.32600001 0.31999999
-36.169998 11.343 0.32600001 0.19
-36.32 11.265 0.32699999 0.12
-36.52 11.201 0.32699999 0.16
-36.949001 11.206 0.329 0
-37.714001 11.309 0.331 0.11
-38.096001 11.294 0.33199999 0
-38.424999 11.26 0.333 0
-39.085999 11.388 0.33500001 0.07
-40.287998 11.602 0.33899999 0
-40.416 11.501 0.33899999 0.13
-40.105999 11.277 0.338 0.11
-38.137001 10.593 0.33199999 0.38999999
-38.23 10.489 0.33199999 0.19
-38.237999 10.362 0.33199999 0.38
-40.409 10.884 0.33899999 0.27000001
-40.464001 10.763 0.33899999 0.2
-40.396999 10.609 0.338 0.14
-40.339001 10.459 0.338 0.30000001
-40.294998 10.312 0.338 0
-43.007999 10.864 0.347 0.079999998
-43.759998 10.908 0.34900001 0.079999998
-44.158001 10.934 0.34999999 0.079999998
-44.069 10.765 0.34999999 0
-44.159 10.641 0.34999999 0
-48.735001 11.584 0.36500001 0
-48.999001 11.484 0.36500001 0.1
-49.036999 11.331 0.36500001 0.18000001
-49.540001 11.284 0.36700001 0.1
-49.991001 11.304 0.368 0.14
-49.966 11.133 0.368 0
-53.157001 11.671 0.37799999 0
-53.550999 11.581 0.38 0
-50.716 10.8 0.37 0.13
-50.834 10.658 0.37099999 0.2
-50.692001 10.545 0.37 0.2
-50.779999 10.397 0.37 0
-58.075001 11.705 0.39399999 0
-58.014 11.503 0.39300001 0.079999998
-50.546001 9.8540001 0.36899999 0.1
-50.459999 9.6730003 0.36899999 0
-57.221001 10.786 0.38999999 0
-56.938999 10.64 0.389 0
-56.896 10.447 0.389 0.12
-56.702 10.227 0.38800001 0.23
-56.616001 10.028 0.38800001 0.25
-56.574001 9.8380003 0.38800001 0.18000001
-56.479 9.6379995 0.38699999 0.16
-56.465 9.4530001 0.38699999 0.18000001
-56.453999 9.3610001 0.38699999 0
-56.467999 9.1809998 0.38699999 0
-64.676003 10.31 0.41299999 0
-54.625 8.5279999 0.38100001 0
-54.827999 8.3839998 0.382 0
-44.075001 6.5929999 0.347 0
-70.800003 10.379 0.43200001 0
-71.508003 10.253 0.435 0
-71.441002 10.129 0.43399999 0
-71.248001 9.8730001 0.43399999 0
-71.776001 9.717 0.435 0
-76.135002 10.065 0.449 0
-76.594002 9.8809996 0.44999999 0
-76.487999 9.6230001 0.44999999 0
-76.474998 9.5 0.44999999 0
-76.584 9.2690001 0.44999999 0
-71.746002 -4.4390001 0.433 0
-71.716003 -4.6630001 0.433 0
-74.004997 -5.8629999 0.44100001 0
-73.805 -6.0799999 0.44 0
-44.794998 -3.842 0.34900001 0
-72.254997 -6.4109998 0.435 0
-72.200996 -6.52 0.435 0
-71.377998 -6.6719999 0.433 0
-71.231003 -6.8839998 0.43200001 0
-70.949997 -7.0819998 0.43200001 0
-69.485001 -7.1570001 0.42699999 0
-69.661003 -7.3969998 0.428 0
-69.128998 -7.5599999 0.426 0
-69.095001 -7.6659999 0.426 0
-70.334 -8.0270004 0.43000001 0
-71.240997 -8.3570004 0.433 0
-70.704002 -8.5190001 0.43099999 0
-70.133003 -8.6739998 0.43000001 0
-70.211998 -8.908 0.43000001 0
-70.628998 -9.073 0.43099999 0
-69.384003 -9.1359997 0.42699999 0
-70.101997 -9.4540005 0.43000001 0
-71.264999 -9.8389997 0.43399999 0
-70.334999 -9.9359999 0.43099999 0
-73.434998 -10.608 0.44100001 0
-71.700996 -10.588 0.435 0
-72.832001 -10.872 0.43900001 0
-72.532997 -11.06 0.43799999 0
-72.175003 -11.238 0.43700001 0
-55.030998 -8.7519999 0.382 0
-49.667 -8.0609999 0.36500001 0.059999999
-26.101999 -4.3330002 0.28999999 0
-26.136 -4.4229999 0.28999999 0
-26.622 -4.5479999 0.292 0.1
-28.254999 -4.9169998 0.29699999 0.33000001
-26.917 -4.7719998 0.29300001 0.12
-26.129 -4.7179999 0.29100001 0.44999999
-26.275 -4.8299999 0.29100001 0.23999999
-23.59 -4.415 0.28200001 0.16
-21.801001 -4.1539998 0.27700001 0.28
-21.798 -4.1890001 0.27700001 0.38999999
-21.687 -4.2379999 0.27599999 0.47
-22.763 -4.5209999 0.28 0.25999999
-22.891001 -4.6209998 0.28 0.20999999
-21.378 -4.3870001 0.27599999 0.5
-22.476 -4.6849999 0.27900001 0.27000001
-22.054001 -4.6700001 0.278 0.20999999
-22.320999 -4.763 0.27900001 0.15000001
-21.919001 -4.7490001 0.27700001 0.52999997
-22.038 -4.848 0.278 0.15000001
-21.346001 -4.7659998 0.27599999 0.20999999
-24.721001 -5.598 0.287 0.38999999
-24.823 -5.7030001 0.287 0.20999999
-22.461 -5.237 0.28 0.28999999
-20.523001 -4.8210001 0.273 0.23999999
-17.693001 -4.2189999 0.264 0.20999999
-17.645 -4.2659998 0.264 0.43000001
-20.525 -5.026 0.273 0.23999999
-17.798 -4.421 0.26499999 0.2
-16.135 -4.0650001 0.259 0.51999998
-20.601 -5.217 0.27399999 0.18000001
-16.172001 -4.1550002 0.259 0.30000001
-16.089001 -4.1880002 0.259 0.44999999
-15.952 -4.2059999 0.259 0.34
-15.744 -4.204 0.25799999 0.40000001
-15.75 -4.2589998 0.25799999 0.38
-16.336 -4.4710002 0.25999999 0.30000001
-16.169001 -4.4530001 0.25999999 0.47999999
-16.51 -4.6020002 0.26100001 0.18000001
-16.214001 -4.5749998 0.25999999 0.56
-16.438 -4.6939998 0.26100001 0.28999999
-15.776 -4.559 0.259 0.47999999
-15.467 -4.5240002 0.25799999 0.27000001
-15.467 -4.5760002 0.25799999 0.23999999
-13.129 -3.911 0.25 0.51999998
-12.873 -3.8789999 0.249 0.14
-12.733 -3.881 0.249 0.52999997
-12.855 -3.9619999 0.249 0.31
-12.875 -4.0120001 0.249 0.28999999
-12.816 -4.039 0.249 0.23
-12.664 -4.0349998 0.249 0.57999998
-13.216 -4.2319999 0.25099999 0.23999999
-12.729 -4.1209998 0.249 0.27000001
-12.198 -3.993 0.24699999 0.34999999
-11.958 -3.9560001 0.24699999 0.52999997
-12.911 -4.3150001 0.25 0.22
-12.509 -4.2249999 0.248 0.25
-11.821 -4.0359998 0.24600001 0.41
-11.707 -4.0170002 0.24600001 0.28
-12.061 -4.1799998 0.24699999 0.28999999
-10.563 -3.7019999 0.242 0.20999999
-11.842 -4.1890001 0.24600001 0.38999999
-12.042 -4.3010001 0.24699999 0.36000001
-11.036 -3.983 0.244 0.20999999
-10.516 -3.8340001 0.242 0.49000001
-10.456 -3.8310001 0.242 0.18000001
-10.351 -3.8299999 0.242 0.5
-10.172 -3.8010001 0.241 0.18000001
-10.795 -4.0700002 0.243 0.37
-10.594 -4.033 0.243 0.23
-11.577 -4.4460001 0.24600001 0.31
-10.248 -3.957 0.241 0.23999999
-10.217 -3.9820001 0.241 0.41
-10.211 -4.0170002 0.241 0.25999999
-10.13 -4.0219998 0.241 0.43000001
-9.8940001 -3.9649999 0.23999999 0.37
-10.678 -4.316 0.243 0.28
-10.944 -4.4629998 0.244 0.25
-10.833 -4.4380002 0.244 0.30000001
-10.831 -4.4770002 0.244 0.34
-10.796 -4.5019999 0.244 0.28
-10.655 -4.4829998 0.243 0.25
-10.738 -4.5570002 0.244 0.56999999
-11.116 -4.7579999 0.245 0.16
-10.696 -4.619 0.244 0.27000001
-10.61 -4.6020002 0.243 0.44
-8.3030005 -3.6389999 0.235 0.31999999
-8.2819996 -3.661 0.235 0.19
-10.738 -4.7779999 0.244 0.27000001
-10.628 -4.7690001 0.244 0.15000001
-10.32 -4.671 0.243 0.38999999
-10.547 -4.8130002 0.243 0.16
-10.27 -4.7069998 0.242 0.34
-10.303 -4.7610002 0.243 0.20999999
-10.759 -5.0120001 0.244 0.57999998
-9.2989998 -4.3709998 0.23899999 0.23
-8.9980001 -4.2649999 0.23800001 0.19
-8.908 -4.257 0.23800001 0.30000001
-8.8369999 -4.257 0.23800001 0.28999999
-8.8249998 -4.2680001 0.23800001 0.44
-9.8789997 -4.8130002 0.241 0.20999999
-8.7690001 -4.3099999 0.23800001 0.43000001
-9.0810003 -4.4970002 0.23899999 0.31999999
-9.1020002 -4.5430002 0.23899999 0.17
-8.7910004 -4.4239998 0.23800001 0.34999999
-8.7589998 -4.4419999 0.23800001 0.23999999
-8.724 -4.441 0.23800001 0.43000001
-8.2270002 -4.223 0.236 0.2
-8.1300001 -4.2059999 0.236 0.47
-7.928 -4.1339998 0.235 0.2
-7.974 -4.1890001 0.235 0.31999999
-7.9850001 -4.2270002 0.235 0.23
-7.8330002 -4.178 0.235 0.30000001
-7.8369999 -4.1960001 0.235 0.28999999
-7.7849998 -4.1999998 0.235 0.34
-7.757 -4.217 0.235 0.34999999
-7.7579999 -4.2490001 0.235 0.18000001
-7.6620002 -4.2280002 0.234 0.49000001
-7.8779998 -4.3790002 0.235 0.22
-7.7119999 -4.3189998 0.235 0.2
-7.9120002 -4.4460001 0.235 0.40000001
-7.8590002 -4.4489999 0.235 0.18000001
-7.7979999 -4.447 0.235 0.31
-7.4660001 -4.29 0.234 0.23
-7.4130001 -4.2909999 0.234 0
-6.3130002 -3.6849999 0.23 0.11
-7.0650001 -4.1500001 0.233 0.22
-6.2919998 -3.7130001 0.23 0.12
-7.1599998 -4.2509999 0.233 0.16
-6.3390002 -3.7939999 0.23 0.14
-7.1880002 -4.329 0.233 0.15000001
-6.8200002 -4.138 0.23199999 0.41999999
-6.8210001 -4.1680002 0.23199999 0.25
-6.2750001 -3.8640001 0.23 0.23
-6.25 -3.862 0.23 0.20999999
-6.1719999 -3.8410001 0.23 0.17
-6.552 -4.1040001 0.23100001 0.090000004
-7.0120001 -4.421 0.233 0.12
-6.6919999 -4.25 0.23199999 0.30000001
-6.6799998 -4.2719998 0.23199999 0.12
-6.6090002 -4.2410002 0.23199999 0.47999999
-6.6259999 -4.2820001 0.23199999 0.14
-7.0079999 -4.5570002 0.233 0.40000001
-6.79 -4.447 0.23199999 0.20999999
-6.9619999 -4.5900002 0.233 0.11
-6.8340001 -4.5370002 0.233 0.38999999
-7.8309999 -5.23 0.236 0.16
-6.8179998 -4.573 0.233 0.14
-6.494 -4.3870001 0.23199999 0.17
-6.8400002 -4.6500001 0.233 0.11
-6.902 -4.724 0.233 0.18000001
-6.7810001 -4.6729999 0.233 0.14
-6.717 -4.6599998 0.233 0.28999999
-6.3969998 -4.4689999 0.23100001 0.18000001
-6.3930001 -4.4809999 0.23100001 0.23
-6.4640002 -4.5609999 0.23199999 0.34999999
-6.8829999 -4.8870001 0.233 0.2
-6.3049998 -4.5089998 0.23100001 0.33000001
-6.0430002 -4.3520002 0.23 0.17
-6.0250001 -4.368 0.23 0
-6.0320001 -4.402 0.23 0.11
-6.1139998 -4.4759998 0.23100001 0.090000004
-6.678 -4.9180002 0.233 0.19
-6.0120001 -4.46 0.23 0.23
-6.0560002 -4.5209999 0.23100001 0.20999999
-6.0159998 -4.5209999 0.23100001 0.15000001
-5.928 -4.4850001 0.23 0.38
-6.0359998 -4.5809999 0.23100001 0.2
-6.4050002 -4.8909998 0.23199999 0.31
-5.9000001 -4.5370002 0.23 0.2
-6.4299998 -4.974 0.23199999 0.19
-6.177 -4.8099999 0.23100001 0.20999999
-6.0830002 -4.7680001 0.23100001 0.19
-6.0700002 -4.789 0.23100001 0.20999999
-6.3309999 -5.026 0.23199999 0.14
-6.1849999 -4.927 0.23199999 0
-6.0349998 -4.8390002 0.23100001 0
-5.506 -4.4460001 0.229 0.090000004
-5.6339998 -4.5780001 0.23 0.31
-5.6799998 -4.645 0.23 0.16
-5.7379999 -4.7220001 0.23 0.37
-5.7529998 -4.7490001 0.23 0.20999999
-5.684 -4.7220001 0.23 0.25
-5.6459999 -4.7210002 0.23 0.36000001
-5.6370001 -4.744 0.23 0.22
-5.8520002 -4.954 0.23100001 0.30000001
-5.7059999 -4.8629999 0.23 0.19
-5.7309999 -4.915 0.23100001 0.25999999
-5.802 -4.9910002 0.23100001 0.2
-6.9239998 -5.987 0.236 0.16
-5.8660002 -5.1100001 0.23100001 0.16
-5.8000002 -5.085 0.23100001 0.17
-5.4559999 -4.816 0.23 0.12
-5.513 -4.8959999 0.23 0.14
-5.4320002 -4.855 0.23 0
-5.5180001 -4.948 0.23 0.059999999
-5.8060002 -5.237 0.23100001 0
-4.526 -4.1160002 0.226 0
-5.4920001 -5.0180001 0.23 0.11
-5.6399999 -5.1849999 0.23100001 0.19
-5.5869999 -5.1690001 0.23100001 0.12
-5.6020002 -5.1989999 0.23100001 0.12
-5.6170001 -5.2459998 0.23100001 0.14
-5.618 -5.2800002 0.23100001 0.11
-5.5869999 -5.2839999 0.23100001 0
-5.9650002 -5.6750002 0.233 0
-5.6939998 -5.4520001 0.23199999 0
-5.7290001 -5.52 0.23199999 0.13
-5.6090002 -5.4219999 0.23100001 0.18000001
-5.4910002 -5.3429999 0.23100001 0.2
-5.48 -5.3649998 0.23100001 0.25999999
-5.3730001 -5.2940001 0.23100001 0.23999999
-5.441 -5.3940001 0.23100001 0.13
-5.2659998 -5.2550001 0.23 0.34999999
-5.2620001 -5.2839999 0.23 0.19
-5.1820002 -5.2199998 0.23 0.23999999
-5.8140001 -5.8889999 0.233 0.2
-5.1090002 -5.2129998 0.23 0.11
-5.0300002 -5.165 0.23 0.14
-5.1560001 -5.3260002 0.23 0.16
-5.3429999 -5.552 0.23100001 0.23
-5.4190001 -5.6669998 0.23199999 0.2
-5.5949998 -5.868 0.23199999 0.22
-5.6040001 -5.914 0.23199999 0
-5.1020002 -5.4219999 0.23 0
-4.7270002 -5.0580001 0.229 0
-4.6599998 -5.0170002 0.228 0.07
-4.5739999 -4.9569998 0.228 0.15000001
-4.6059999 -5.0229998 0.228 0.23
-5.2309999 -5.717 0.23100001 0.11
-5.1560001 -5.6719999 0.23100001 0.14
-4.8410001 -5.3610001 0.23 0.13
-4.7649999 -5.3109999 0.229 0
-5.1009998 -5.7189999 0.23100001 0
-3.987 -4.507 0.226 0.11
-5.1079998 -5.7979999 0.23100001 0
-3.753 -4.2839999 0.22499999 0
-3.7260001 -4.2810001 0.22499999 0
-3.7420001 -4.3260002 0.22499999 0
-5.1149998 -5.9359999 0.23199999 0
-5.0570002 -5.9060001 0.23100001 0
-3.7279999 -4.3930001 0.22499999 0
-3.622 -4.283 0.22400001 0.12
-3.592 -4.2740002 0.22400001 0.28
-3.586 -4.2950001 0.22400001 0.27000001
-3.5910001 -4.3270001 0.22499999 0.27000001
-3.579 -4.3400002 0.22499999 0.11
-3.5639999 -4.3499999 0.22499999 0
-3.5780001 -4.395 0.22499999 0.050000001
-3.6270001 -4.4689999 0.22499999 0
-3.5739999 -4.4320002 0.22499999 0.07
-3.473 -4.336 0.22400001 0.090000004
-3.4690001 -4.3590002 0.22400001 0.16
-3.473 -4.3920002 0.22400001 0
-3.444 -4.3839998 0.22400001 0
-3.5799999 -4.585 0.22499999 0
-3.6159999 -4.6459999 0.22499999 0
-3.6210001 -4.6820002 0.22499999 0.07
-3.434 -4.4710002 0.22499999 0.079999998
-3.569 -4.6750002 0.22499999 0.090000004
-3.6070001 -4.756 0.226 0
-3.55 -4.7119999 0.22499999 0
-3.299 -4.4099998 0.22400001 0
-3.3610001 -4.506 0.22499999 0
-3.2550001 -4.395 0.22400001 0.07
-3.7279999 -5.0599999 0.227 0
-3.227 -4.414 0.22400001 0
-2.855 -3.937 0.222 0.07
-2.7850001 -3.8670001 0.222 0.15000001
-2.767 -3.8670001 0.222 0.22
-2.757 -3.865 0.222 0.20999999
-2.753 -3.885 0.222 0
-2.7509999 -3.908 0.222 0
-2.8469999 -4.0700002 0.222 0.050000001
-2.7850001 -4.0089998 0.222 0.14
-2.724 -3.9489999 0.222 0.2
-2.6600001 -3.8829999 0.222 0.11
-2.6440001 -3.8729999 0.222 0.14
-2.6010001 -3.8369999 0.221 0.12
-2.6010001 -3.8610001 0.221 0.16
-2.579 -3.8559999 0.221 0.31
-2.5680001 -3.8659999 0.221 0.25999999
-2.608 -3.9519999 0.222 0.25999999
-2.585 -3.9300001 0.222 0
-2.5910001 -3.9660001 0.222 0
-2.641 -4.0689998 0.222 0
-2.7179999 -4.2150002 0.223 0
-2.753 -4.2989998 0.223 0.050000001
-2.9119999 -4.5749998 0.22400001 0
-2.697 -4.2709999 0.223 0
-2.536 -4.0320001 0.222 0
-2.5320001 -4.0539999 0.222 0
-2.556 -4.1209998 0.222 0
-2.5780001 -4.1849999 0.222 0
-2.55 -4.1690001 0.222 0
-2.5120001 -4.1360002 0.222 0
-2.49 -4.1290002 0.222 0.07
-2.4619999 -4.098 0.222 0.14
-2.437 -4.086 0.222 0.23
-2.4070001 -4.0640001 0.222 0.11
-2.391 -4.066 0.222 0
-2.358 -4.04 0.222 0
-2.3440001 -4.0450001 0.222 0
-2.325 -4.0419998 0.222 0.07
-2.29 -3.9960001 0.221 0.079999998
-2.319 -4.0760002 0.222 0.14
-2.339 -4.1399999 0.222 0.17
-2.266 -4.0409999 0.221 0.20999999
-2.2149999 -3.9809999 0.221 0.11
-2.197 -3.977 0.221 0.17
-2.1860001 -3.987 0.221 0.12
-2.194 -4.0170002 0.221 0.15000001
-2.1730001 -4.0079999 0.221 0.16
-2.151 -3.997 0.221 0
-2.161 -4.046 0.221 0
-2.165 -4.085 0.221 0
-2.1340001 -4.0560002 0.221 0
-2.1110001 -4.0300002 0.221 0
-2.092 -4.0240002 0.221 0.07
-2.0799999 -4.0320001 0.221 0.079999998
-2.089 -4.0799999 0.221 0
-2.0840001 -4.0999999 0.221 0
-2.0569999 -4.0799999 0.221 0.07
-2.05 -4.099 0.221 0.14
-2.039 -4.092 0.221 0.090000004
-2.0079999 -4.0619998 0.221 0.16
-1.983 -4.0430002 0.221 0
-2.05 -4.211 0.222 0.07
-2.0020001 -4.1469998 0.221 0.15000001
-1.985 -4.1459999 0.221 0.22
-1.959 -4.1259999 0.221 0.19
-1.952 -4.1269999 0.221 0.31
-1.928 -4.1100001 0.221 0.25999999
-1.9 -4.085 0.221 0.11
-1.91 -4.138 0.221 0.090000004
-1.867 -4.0799999 0.221 0
-1.848 -4.0739999 0.221 0
-1.885 -4.1869998 0.221 0
-1.973 -4.3990002 0.222 0
-1.928 -4.336 0.222 0
-2.0810001 -4.7140002 0.223 0
-2.553 -5.8179998 0.227 0
-1.864 -4.3010001 0.222 0.12
-1.85 -4.3049998 0.222 0.2
-1.839 -4.3179998 0.222 0.25
-1.818 -4.2880001 0.221 0.2
-1.818 -4.3249998 0.222 0
-1.851 -4.441 0.222 0
-1.924 -4.6529999 0.223 0
-1.851 -4.5190001 0.222 0
-1.796 -4.4250002 0.222 0
-1.952 -4.8470001 0.223 0
-1.687 -4.2179999 0.221 0
-1.651 -4.1659999 0.221 0
-1.835 -4.665 0.223 0
-1.687 -4.3330002 0.221 0
-1.65 -4.2779999 0.221 0
-1.598 -4.1849999 0.221 0
-1.5700001 -4.131 0.221 0.12
-1.545 -4.1059999 0.221 0.12
-1.546 -4.1469998 0.221 0.14
-1.533 -4.151 0.221 0.20999999
-1.531 -4.1859999 0.221 0
-1.561 -4.3070002 0.221 0
-1.55 -4.322 0.221 0
-1.614 -4.5180001 0.222 0
-1.594 -4.5079999 0.222 0.079999998
-1.557 -4.4489999 0.222 0
-1.5700001 -4.5289998 0.222 0.07
-1.529 -4.4559999 0.222 0
-1.5190001 -4.474 0.222 0
-1.7309999 -5.112 0.22400001 0
-1.686 -5.0320001 0.22400001 0
-1.72 -5.1869998 0.22400001 0
-1.426 -4.3579998 0.221 0.11
-1.391 -4.2979999 0.221 0.22
-1.38 -4.3099999 0.221 0.23999999
-1.359 -4.2930002 0.221 0.11
-1.353 -4.2950001 0.221 0
-1.411 -4.526 0.222 0.07
-1.339 -4.3460002 0.221 0
-1.324 -4.3460002 0.221 0
-1.2539999 -4.1690001 0.221 0
-1.092 -3.681 0.219 0
-1.0779999 -3.677 0.219 0
-1.1 -3.7720001 0.219 0
-1.108 -3.8429999 0.219 0
-1.2640001 -4.4200001 0.221 0
-1.3 -4.599 0.222 0
-1.449 -5.1760001 0.22400001 0
-1.414 -5.1129999 0.22400001 0
-1.318 -4.829 0.223 0
-1.153 -4.2620001 0.221 0.059999999
-1.128 -4.223 0.221 0.079999998
-1.103 -4.184 0.22 0.079999998
-1.051 -4.0430002 0.22 0.079999998
-1.044 -4.066 0.22 0
-1.0420001 -4.1110001 0.22 0.13
-1.018 -4.072 0.22 0.2
-1.006 -4.0500002 0.22 0.23999999
-0.99299997 -4.053 0.22 0.2
-0.972 -4.026 0.22 0
-0.96200001 -4.0380001 0.22 0
-0.97500002 -4.1479998 0.22 0.050000001
-0.972 -4.1900001 0.22 0
-0.949 -4.1259999 0.22 0
-0.949 -4.1810002 0.22 0
-0.93300003 -4.1739998 0.22 0
-1.1849999 -5.348 0.22400001 0
-1.126 -5.1620002 0.223 0
-0.94800001 -4.4310002 0.221 0
-0.93199998 -4.4219999 0.221 0
-0.92299998 -4.414 0.221 0
-0.90899998 -4.415 0.221 0
-0.86900002 -4.2919998 0.221 0
-0.86400002 -4.3400002 0.221 0.11
-0.87300003 -4.4510002 0.221 0.20999999
-0.86299998 -4.4749999 0.221 0
-0.83899999 -4.427 0.221 0.07
-0.82300001 -4.3829999 0.221 0.090000004
-0.81199998 -4.3969998 0.221 0.14
-0.79500002 -4.3839998 0.221 0
-0.79100001 -4.441 0.221 0
-0.773 -4.4200001 0.221 0.079999998
-0.74400002 -4.3379998 0.221 0
-0.727 -4.3189998 0.221 0
-0.69999999 -4.2049999 0.22 0
-0.67699999 -4.152 0.22 0
-0.68699998 -4.2930002 0.221 0
-0.676 -4.3109999 0.221 0
-0.62599999 -4.0840001 0.22 0
-0.64399999 -4.2810001 0.22 0
-0.68199998 -4.5669999 0.221 0.090000004
-0.63099998 -4.3299999 0.221 0
-0.63099998 -4.4250002 0.221 0
-0.65200001 -4.664 0.222 0
-0.63 -4.6149998 0.221 0
-0.73500001 -5.4780002 0.22400001 0.12
-0.70700002 -5.4050002 0.22400001 0
-0.74000001 -5.7140002 0.22499999 0
-0.67799997 -5.381 0.22400001 0
-0.64099997 -5.2220001 0.223 0
-0.616 -5.1529999 0.223 0
-0.634 -5.4390001 0.22400001 0
-0.62599999 -5.5180001 0.22400001 0.059999999
-0.55400002 -5.0450001 0.223 0.17
-0.54299998 -5.0159998 0.223 0.1
-0.52700001 -5.0219998 0.223 0
-0.40700001 -4.0450001 0.22 0
-0.41999999 -4.2930002 0.22 0
-0.403 -4.2620001 0.22 0
-0.36399999 -4.0050001 0.219 0
-0.35499999 -4.0419998 0.22 0
-0.46200001 -5.257 0.223 0
-0.421 -4.994 0.223 0
-0.33000001 -4.1240001 0.22 0
-0.31600001 -4.105 0.22 0.07
-0.30899999 -4.184 0.22 0
-0.292 -4.1290002 0.22 0
-0.29100001 -4.2989998 0.22 0
-0.271 -4.1160002 0.22 0
-0.25600001 -4.0830002 0.22 0
-0.26699999 -4.4510002 0.221 0
-0.25600001 -4.4920001 0.221 0
-0.25299999 -4.6799998 0.222 0
-0.20299999 -4.0580001 0.22 0
-0.197 -4.059 0.22 0
-0.18099999 -3.9949999 0.219 0
-0.17 -4.0380001 0.22 0
-0.18700001 -4.6900001 0.222 0
-0.14399999 -4.0190001 0.219 0
-0.13 -3.9890001 0.219 0
-0.115 -3.9260001 0.219 0
-0.106 -3.826 0.219 0
-0.093999997 -3.826 0.219 0
-0.082999997 -3.8699999 0.219 0
-0.108 -5.3639998 0.22400001 0
-0.094999999 -5.5430002 0.22400001 0
-0.081 -5.7490001 0.22499999 0
-0.063000001 -5.7449999 0.22499999 0
-0.032000002 -4.131 0.22 0
-0.016000001 -3.885 0.219 0
-0.0040000002 -3.8469999 0.219 0
0.0089999996 -3.8329999 0.219 0
0.021 -3.8210001 0.219 0
0.033 -3.823 0.219 0
0.039000001 -3.823 0.219 0
0.057 -4.823 0.222 0
0.072999999 -4.8790002 0.222 0
0.088 -4.8870001 0.222 0
0.102 -4.7859998 0.222 0
0.118 -4.8260002 0.222 0
0.132 -4.7779999 0.222 0
0.139 -4.7670002 0.222 0
0.155 -4.8130002 0.222 0
0.17200001 -4.8499999 0.222 0
0.185 -4.802 0.222 0
0.20299999 -4.8649998 0.222 0
0.21699999 -4.8499999 0.222 0
0.221 -4.5760002 0.221 0
0.237 -4.7649999 0.222 0
0.25099999 -4.7589998 0.222 0
0.257 -4.5799999 0.221 0
0.27200001 -4.5910001 0.221 0
0.29899999 -4.8060002 0.222 0
0.32699999 -5.0209999 0.223 0
0.34400001 -5.0380001 0.223 0
0.35600001 -5.1069999 0.223 0
0.35499999 -4.8559999 0.222 0
0.389 -5.1170001 0.223 0
0.389 -4.8959999 0.222 0
0.41499999 -5.0279999 0.223 0
0.41600001 -4.8460002 0.222 0
0.43099999 -4.8439999 0.222 0
0.46799999 -5.1859999 0.223 0.07
0.46599999 -4.974 0.223 0.090000004
0.46000001 -4.7410002 0.222 0.090000004
0.47499999 -4.7399998 0.222 0.13
0.49700001 -4.8140001 0.222 0.1
0.50800002 -4.7639999 0.222 0.15000001
0.51200002 -4.73 0.222 0.18000001
0.52600002 -4.7199998 0.222 0.28999999
0.53299999 -4.6550002 0.222 0.27000001
0.546 -4.6370001 0.222 0.11
0.56300002 -4.6570001 0.222 0.090000004
0.59100002 -4.763 0.222 0
0.63599998 -5.0110002 0.223 0
0.602 -4.6729999 0.222 0
0.59500003 -4.5 0.221 0.059999999
0.60399997 -4.4549999 0.221 0
0.59799999 -4.3039999 0.22 0
0.60799998 -4.2719998 0.22 0
0.62800002 -4.3200002 0.221 0
0.68300003 -4.6069999 0.221 0.059999999
0.68699998 -4.586 0.221 0.079999998
0.704 -4.5999999 0.221 0.14
0.71799999 -4.5960002 0.221 0.31
0.73100001 -4.585 0.221 0.25999999
0.73799998 -4.5380001 0.221 0.27000001
0.75400001 -4.5409999 0.221 0.19
0.76099998 -4.5419998 0.221 0.20999999
0.77499998 -4.5380001 0.221 0.23
0.787 -4.5209999 0.221 0
0.85799998 -4.848 0.222 0.14
0.83999997 -4.6560001 0.222 0.11
0.86400002 -4.7090001 0.222 0
0.90700001 -4.8569999 0.222 0.1
0.91900003 -4.882 0.222 0.20999999
0.93599999 -4.8889999 0.222 0.13
0.94999999 -4.8779998 0.222 0.36000001
0.96100003 -4.855 0.222 0
0.94199997 -4.677 0.222 0
0.99000001 -4.8390002 0.222 0.11
1.007 -4.8439999 0.222 0
1.006 -4.803 0.222 0
1.188 -5.605 0.22499999 0
1.233 -5.7319999 0.22499999 0.12
1.2589999 -5.7649999 0.22499999 0.30000001
1.267 -5.7140002 0.22499999 0
1.173 -5.2010002 0.22400001 0
1.27 -5.5560002 0.22499999 0.079999998
1.3150001 -5.7160001 0.22499999 0.16
1.295 -5.5479999 0.22499999 0.2
1.352 -5.7150002 0.22499999 0.11
1.3380001 -5.573 0.22499999 0.090000004
1.369 -5.6269999 0.22499999 0.15000001
1.396 -5.6620002 0.22499999 0.2
1.401 -5.6030002 0.22499999 0
1.381 -5.4840002 0.22499999 0
1.337 -5.2350001 0.22400001 0
1.364 -5.2740002 0.22400001 0
1.393 -5.3179998 0.22400001 0
1.41 -5.3130002 0.22400001 0
1.37 -5.0939999 0.223 0
1.381 -5.1020002 0.223 0
1.332 -4.8559999 0.223 0
1.303 -4.6900001 0.222 0
1.375 -4.8959999 0.223 0
1.375 -4.836 0.223 0
1.355 -4.7059999 0.222 0
1.374 -4.7150002 0.222 0
1.4 -4.7779999 0.222 0
1.65 -5.5830002 0.22499999 0
1.414 -4.7140002 0.222 0
1.393 -4.5910001 0.222 0
1.409 -4.592 0.222 0
1.426 -4.5970001 0.222 0
1.449 -4.6170001 0.222 0
1.446 -4.585 0.222 0
1.524 -4.7820001 0.223 0
1.449 -4.493 0.222 0
1.4170001 -4.3439999 0.221 0
1.442 -4.3759999 0.221 0
1.45 -4.3540001 0.221 0
1.5779999 -4.7199998 0.222 0
1.651 -4.8899999 0.223 0
1.737 -5.0949998 0.22400001 0
1.666 -4.8319998 0.223 0
1.603 -4.5999999 0.222 0
1.845 -5.2509999 0.22400001 0
1.7079999 -4.8070002 0.223 0
1.649 -4.6139998 0.222 0
1.901 -5.2789998 0.22400001 0
1.783 -4.8969998 0.223 0
1.648 -4.4780002 0.222 0
1.66 -4.467 0.222 0
1.6160001 -4.3039999 0.221 0.16
1.632 -4.3039999 0.221 0.1
1.624 -4.2620001 0.221 0
1.678 -4.3660002 0.222 0
1.696 -4.3720002 0.222 0
1.704 -4.3499999 0.222 0
1.659 -4.1950002 0.221 0
1.683 -4.2179999 0.221 0
1.697 -4.2140002 0.221 0
1.76 -4.3530002 0.222 0
1.934 -4.7459998 0.223 0
2.0880001 -5.0830002 0.22400001 0
2.0869999 -5.0359998 0.22400001 0
2.066 -4.9390001 0.22400001 0
2.0739999 -4.9159999 0.22400001 0
1.918 -4.5190001 0.222 0
1.902 -4.4429998 0.222 0
1.876 -4.342 0.222 0
1.855 -4.257 0.221 0
1.977 -4.5019999 0.222 0
1.99 -4.4920001 0.222 0
1.891 -4.23 0.221 0
1.942 -4.3260002 0.222 0
2.0650001 -4.566 0.223 0
1.947 -4.2639999 0.222 0.059999999
1.89 -4.1030002 0.221 0.079999998
1.896 -4.0830002 0.221 0.14
1.91 -4.0799999 0.221 0.20999999
1.9349999 -4.0999999 0.221 0.25
1.937 -4.0869999 0.221 0.11
1.975 -4.1339998 0.221 0.2
1.984 -4.119 0.221 0.23999999
1.9910001 -4.1020002 0.221 0.18000001
2.006 -4.099 0.221 0.1
2.0339999 -4.1230001 0.221 0
2.05 -4.1399999 0.221 0
2.2379999 -4.4899998 0.223 0
2.2190001 -4.415 0.222 0.07
2.2869999 -4.5170002 0.223 0.090000004
2.336 -4.5780001 0.223 0
2.322 -4.5149999 0.223 0
2.303 -4.4439998 0.223 0
2.4349999 -4.684 0.223 0
2.4719999 -4.7189999 0.22400001 0
2.494 -4.7249999 0.22400001 0
2.4979999 -4.6960001 0.22400001 0.059999999
2.267 -4.224 0.222 0.23
2.28 -4.2160001 0.222 0.16
2.29 -4.204 0.222 0.36000001
2.283 -4.1739998 0.222 0.2
2.257 -4.0949998 0.222 0.17
2.2550001 -4.0609999 0.221 0.14
2.325 -4.158 0.222 0.36000001
2.2160001 -3.9319999 0.221 0.11
2.2160001 -3.902 0.221 0.16
2.221 -3.8970001 0.221 0.30000001
2.223 -3.872 0.221 0.2
2.2290001 -3.8529999 0.221 0.18000001
2.2490001 -3.8599999 0.221 0
2.27 -3.869 0.221 0.11
2.2739999 -3.848 0.221 0.18000001
2.2620001 -3.799 0.221 0
2.253 -3.7709999 0.221 0
2.5550001 -4.2529998 0.222 0
2.9779999 -4.9299998 0.22499999 0
2.645 -4.3410001 0.223 0
2.5250001 -4.112 0.222 0
2.401 -3.881 0.221 0
2.5190001 -4.0450001 0.222 0.07
2.549 -4.079 0.222 0.18000001
2.4560001 -3.901 0.221 0.23999999
2.4460001 -3.8570001 0.221 0.19
2.4579999 -3.8499999 0.221 0
2.513 -3.9089999 0.221 0
2.576 -3.9809999 0.222 0.050000001
2.5999999 -3.9909999 0.222 0.18000001
2.5439999 -3.891 0.221 0.25
2.5439999 -3.8629999 0.221 0.25999999
2.5610001 -3.8640001 0.221 0.17
2.5639999 -3.842 0.221 0.14
2.612 -3.8870001 0.222 0
2.858 -4.2280002 0.223 0
3.05 -4.5009999 0.22400001 0
2.8729999 -4.2080002 0.223 0.11
2.8929999 -4.2090001 0.223 0.23
2.8859999 -4.1700001 0.223 0.11
2.928 -4.204 0.223 0.14
2.9319999 -4.1820002 0.223 0
2.997 -4.2459998 0.223 0
3.049 -4.3049998 0.223 0.12
3.0039999 -4.2140002 0.223 0.1
3.043 -4.2399998 0.223 0.15000001
3.0480001 -4.2189999 0.223 0.16
3.0539999 -4.1999998 0.223 0.18000001
3.0810001 -4.2080002 0.223 0
3.131 -4.25 0.223 0.11
3.267 -4.421 0.22400001 0.1
3.1370001 -4.2160001 0.223 0.090000004
3.1099999 -4.152 0.223 0
3.1429999 -4.1690001 0.223 0.07
3.1489999 -4.1500001 0.223 0
3.2249999 -4.223 0.22400001 0
3.803 -4.954 0.226 0
3.388 -4.395 0.22400001 0
3.3310001 -4.2919998 0.22400001 0
3.424 -4.3850002 0.22400001 0
3.303 -4.1999998 0.22400001 0.07
3.1900001 -4.0289998 0.223 0.079999998
3.1670001 -3.974 0.223 0.2
3.1889999 -3.9890001 0.223 0
3.2620001 -4.0539999 0.223 0
3.4690001 -4.2870002 0.22400001 0
3.346 -4.1069999 0.223 0
3.6589999 -4.4660001 0.22499999 0
3.569 -4.3270001 0.22400001 0
3.5309999 -4.2529998 0.22400001 0
3.5999999 -4.323 0.22499999 0
4.7709999 -5.7059999 0.23 0
3.7650001 -4.4660001 0.22499999 0
3.55 -4.1820002 0.22400001 0
3.313 -3.8740001 0.223 0
3.313 -3.8499999 0.223 0
3.48 -4.033 0.22400001 0
3.6900001 -4.2509999 0.22499999 0.050000001
3.7609999 -4.3060002 0.22499999 0.14
3.6589999 -4.1620002 0.22400001 0.090000004
3.5869999 -4.0539999 0.22400001 0
3.4330001 -3.8540001 0.223 0.13
3.427 -3.822 0.223 0.22
3.428 -3.8110001 0.223 0
3.5650001 -3.9400001 0.22400001 0
3.7449999 -4.1139998 0.22400001 0
3.4430001 -3.756 0.223 0
3.684 -3.9960001 0.22400001 0.07
3.7620001 -4.0549998 0.22400001 0
4.4640002 -4.789 0.227 0
5.289 -5.664 0.23100001 0
3.852 -4.0879998 0.22499999 0
3.8570001 -4.0679998 0.22400001 0
3.8499999 -4.0349998 0.22400001 0
5.073 -5.2950001 0.23 0
3.5369999 -3.6570001 0.223 0
3.5409999 -3.6389999 0.223 0
3.7219999 -3.8139999 0.22400001 0.15000001
3.812 -3.8829999 0.22400001 0.25
3.812 -3.858 0.22400001 0.1
3.7590001 -3.78 0.22400001 0.14
3.619 -3.615 0.223 0.1
3.615 -3.5880001 0.223 0.14
3.619 -3.5699999 0.223 0.30000001
3.615 -3.5539999 0.223 0.27000001
3.6059999 -3.523 0.223 0.11
3.628 -3.523 0.223 0.16
3.652 -3.5239999 0.223 0.28
3.645 -3.4949999 0.223 0.27000001
3.6340001 -3.4619999 0.223 0.11
3.6760001 -3.4909999 0.223 0.16
3.681 -3.474 0.223 0.20999999
3.658 -3.431 0.223 0.25999999
3.6440001 -3.3959999 0.223 0.1
3.6860001 -3.4130001 0.223 0.14
3.665 -3.3729999 0.223 0.1
3.7420001 -3.4230001 0.223 0.090000004
3.7579999 -3.4260001 0.223 0.079999998
3.7920001 -3.4360001 0.223 0.14
3.822 -3.4419999 0.223 0.1
3.8369999 -3.434 0.223 0.14
3.8629999 -3.4349999 0.223 0.31999999
3.881 -3.4289999 0.223 0.19
3.891 -3.427 0.223 0.13
3.9289999 -3.4389999 0.223 0.17
3.973 -3.4560001 0.223 0.28
3.9849999 -3.444 0.223 0
4.085 -3.5090001 0.22400001 0
4.0409999 -3.4489999 0.22400001 0.12
3.925 -3.3269999 0.223 0.090000004
3.892 -3.289 0.223 0.16
3.898 -3.273 0.223 0.28999999
3.9319999 -3.2809999 0.223 0.1
4.073 -3.378 0.223 0.13
4.1199999 -3.3959999 0.22400001 0.17
4.131 -3.3829999 0.22400001 0.19
4.1479998 -3.375 0.22400001 0.12
4.2309999 -3.4319999 0.22400001 0.090000004
4.2680001 -3.4400001 0.22400001 0.14
4.2490001 -3.402 0.22400001 0.25
4.2550001 -3.385 0.22400001 0.15000001
4.2979999 -3.398 0.22400001 0.16
4.29 -3.3699999 0.22400001 0.16
4.2940001 -3.362 0.22400001 0.44
4.3260002 -3.365 0.22400001 0.19
4.3239999 -3.342 0.22400001 0.18000001
4.349 -3.339 0.22400001 0.31999999
4.369 -3.3329999 0.22400001 0.20999999
4.3559999 -3.3010001 0.22400001 0.23999999
4.3629999 -3.2850001 0.22400001 0.18000001
4.4089999 -3.3099999 0.22400001 0.090000004
4.5320001 -3.3800001 0.22499999 0.17
4.5570002 -3.3759999 0.22499999 0.31
4.579 -3.3699999 0.22499999 0
4.5219998 -3.306 0.22400001 0
4.3559999 -3.1630001 0.22400001 0.13
4.382 -3.161 0.22400001 0.16
4.6820002 -3.368 0.22499999 0.090000004
4.6739998 -3.3399999 0.22499999 0.16
4.6960001 -3.3340001 0.22499999 0.12
4.7340002 -3.339 0.22499999 0
4.7690001 -3.3410001 0.22499999 0.12
4.8270001 -3.3599999 0.22499999 0.22
4.836 -3.3429999 0.22499999 0.18000001
4.8509998 -3.3429999 0.22499999 0
4.809 -3.2909999 0.22499999 0
5.0440001 -3.4300001 0.226 0.13
5.04 -3.404 0.226 0.16
5.0799999 -3.408 0.226 0.2
5.0869999 -3.3900001 0.226 0
5.1209998 -3.3889999 0.226 0
4.9380002 -3.256 0.22499999 0.07
4.9720001 -3.256 0.226 0.13
5.131 -3.3380001 0.226 0.16
5.1900001 -3.3540001 0.226 0.090000004
5.0710001 -3.2539999 0.226 0.079999998
5.1389999 -3.2739999 0.226 0.079999998
4.9689999 -3.154 0.22499999 0
5.441 -3.4330001 0.227 0
7.507 -4.7150002 0.235 0.12
8.0979996 -5.053 0.237 0.12
7.053 -4.3660002 0.233 0.13
6.7270002 -4.1339998 0.23199999 0.1
7.3379998 -4.48 0.234 0.14
7.2049999 -4.3829999 0.233 0.11
8.0559998 -4.8699999 0.236 0.38999999
6.8060002 -4.0799999 0.23199999 0.12
6.7950001 -4.0440001 0.23199999 0.44999999
7.2399998 -4.2810001 0.233 0.1
7.2140002 -4.2350001 0.233 0.16
6.921 -4.0469999 0.23199999 0.22
7.0479999 -4.092 0.23199999 0.19
6.967 -4.0149999 0.23199999 0.12
7.0159998 -4.0139999 0.23199999 0.16
6.921 -3.931 0.23199999 0.27000001
6.9580002 -3.9230001 0.23199999 0.12
6.9790001 -3.9059999 0.23199999 0.14
6.9200001 -3.859 0.23199999 0.17
6.8260002 -3.777 0.23100001 0.15000001
6.7049999 -3.6819999 0.23100001 0.15000001
6.4689999 -3.5250001 0.23 0.12
6.6570001 -3.602 0.23100001 0.12
6.5050001 -3.4920001 0.23 0.31999999
6.4949999 -3.46 0.23 0.19
6.428 -3.4119999 0.23 0.27000001
6.5960002 -3.4749999 0.23 0.090000004
6.7639999 -3.5369999 0.23100001 0.12
6.7220001 -3.4879999 0.23100001 0.23999999
6.6440001 -3.421 0.23 0.12
7.0500002 -3.6029999 0.23199999 0.37
7.0240002 -3.562 0.23199999 0.18000001
6.947 -3.5090001 0.23100001 0.36000001
6.507 -3.2590001 0.23 0.15000001
6.4920001 -3.2260001 0.23 0.38999999
6.4840002 -3.197 0.23 0.22
6.494 -3.1760001 0.23 0.25
6.592 -3.1989999 0.23 0.15000001
6.5089998 -3.1459999 0.23 0.27000001
6.4899998 -3.1110001 0.229 0.31
6.5089998 -3.095 0.23 0.28999999
6.5089998 -3.0710001 0.229 0.12
6.6659999 -3.119 0.23 0.16
6.724 -3.1210001 0.23 0
7.1129999 -3.276 0.23100001 0.11
7.369 -3.381 0.23199999 0.23999999
7.5009999 -3.414 0.233 0.25
7.4749999 -3.3729999 0.233 0.27000001
7.355 -3.2909999 0.23199999 0.20999999
7.513 -3.3340001 0.233 0.16
7.5430002 -3.319 0.233 0.31
7.9819999 -3.484 0.234 0.15000001
8.026 -3.4879999 0.234 0.16
8.0059996 -3.4489999 0.234 0.33000001
8.158 -3.4849999 0.235 0.2
7.9780002 -3.378 0.234 0.20999999
8.04 -3.375 0.234 0.17
8.0629997 -3.355 0.234 0.5
8.3210001 -3.4319999 0.235 0.23999999
8.9510002 -3.678 0.237 0.22
8.4720001 -3.448 0.236 0.2
7.6550002 -3.085 0.233 0.28999999
7.691 -3.0710001 0.233 0.19
7.8400002 -3.1029999 0.233 0.15000001
7.723 -3.0280001 0.233 0.18000001
7.7160001 -3.0120001 0.233 0.17
9.8889999 -3.832 0.23999999 0.14
9.2480001 -3.5480001 0.23800001 0.31999999
9.4099998 -3.5769999 0.23899999 0.22
8.816 -3.3180001 0.236 0.34
8.8219995 -3.2880001 0.236 0.23999999
9.3109999 -3.4389999 0.23800001 0.28999999
8.9200001 -3.277 0.237 0.25999999
8.927 -3.2479999 0.237 0.20999999
8.875 -3.197 0.237 0.28
9.3050003 -3.3199999 0.23800001 0.23
9.4390001 -3.336 0.23800001 0.31999999
9.4379997 -3.302 0.23800001 0.27000001
9.441 -3.27 0.23800001 0.28999999
9.4440002 -3.2539999 0.23800001 0.41
10.342 -3.529 0.241 0.22
10.633 -3.592 0.242 0.17
10.815 -3.6159999 0.243 0.23
10.754 -3.5580001 0.243 0.41999999
10.803 -3.5369999 0.243 0.34
10.725 -3.493 0.242 0.28
10.783 -3.474 0.243 0.43000001
10.747 -3.425 0.242 0.17
10.668 -3.3629999 0.242 0.41999999
9.6330004 -3.0009999 0.23899999 0.15000001
10.801 -3.3310001 0.242 0.38999999
11.165 -3.3859999 0.244 0.57999998
9.6569996 -2.892 0.23899999 0.18000001
11.24 -3.332 0.244 0.16
12.253 -3.5929999 0.24699999 0.41999999
12.186 -3.5320001 0.24699999 0.38
14.159 -4.0599999 0.25299999 0.17
14.366 -4.0710001 0.25400001 0.41999999
14.366 -4.046 0.25400001 0.46000001
15.065 -4.1929998 0.25600001 0.46000001
12.626 -3.467 0.248 0.23999999
15.011 -4.0770001 0.25600001 0.33000001
15.045 -4.0359998 0.25600001 0.38
15.064 -3.99 0.25600001 0.34999999
14.871 -3.8889999 0.255 0.25
14.806 -3.846 0.255 0.30000001
14.893 -3.819 0.255 0.25999999
14.894 -3.77 0.255 0.56999999
16.061001 -4.0139999 0.259 0.28
16.045 -3.9560001 0.259 0.34
15.779 -3.8369999 0.25799999 0.20999999
15.436 -3.7019999 0.257 0.34999999
15.898 -3.7869999 0.25799999 0.34
15.978 -3.753 0.259 0.20999999
16.462999 -3.8139999 0.25999999 0.34
16.389 -3.7420001 0.25999999 0.30000001
16.551001 -3.7249999 0.25999999 0.23
16.1 -3.569 0.259 0.40000001
16.135 -3.5510001 0.259 0.36000001
16.33 -3.54 0.259 0.43000001
16.388 -3.4990001 0.25999999 0.41999999
16.207001 -3.4070001 0.259 0.34
16.204 -3.3529999 0.259 0.23999999
16.514 -3.3629999 0.25999999 0.34999999
16.589001 -3.325 0.25999999 0.41999999
16.906 -3.3610001 0.26100001 0.2
16.910999 -3.3069999 0.26100001 0.36000001
17.563 -3.378 0.26300001 0.19
17.902 -3.385 0.264 0.34999999
18.535999 -3.4460001 0.266 0.50999999
18.700001 -3.4159999 0.26699999 0.28
18.966 -3.4030001 0.26800001 0.23
20.458 -3.6400001 0.27200001 0.25999999
20.552 -3.5899999 0.273 0.46000001
16.955 -2.902 0.26100001 0.36000001
22.919001 -3.858 0.28 0.2
23.052999 -3.8069999 0.28 0.31
23.142 -3.747 0.28099999 0.2
23.142 -3.6719999 0.28099999 0.28999999
23.132 -3.6329999 0.28099999 0.34
23.103001 -3.5550001 0.28 0.28999999
23.223 -3.4979999 0.28099999 0.25999999
23.165001 -3.415 0.28099999 0.23
24.507 -3.536 0.285 0.34
24.559999 -3.4649999 0.285 0.31
24.507 -3.3789999 0.285 0.30000001
24.493 -3.3380001 0.285 0.23999999
24.594 -3.273 0.285 0
24.731001 -3.2119999 0.285 0.12
29.413 -3.7320001 0.30000001 0.22
29.459 -3.6429999 0.30000001 0.37
29.530001 -3.5580001 0.301 0.28999999
29.877001 -3.552 0.30199999 0.22
29.726999 -3.4400001 0.301 0.18000001
29.849001 -3.359 0.301 0.50999999
29.871 -3.267 0.30199999 0.25
30.202999 -3.207 0.303 0.27000001
30.566999 -3.1489999 0.30399999 0.20999999
30.728001 -3.1170001 0.30399999 0.36000001
31.132999 -3.0599999 0.30500001 0.11
30.504 -2.901 0.303 0.14
30.656 -2.8180001 0.30399999 0.25999999
30.870001 -2.74 0.30399999 0.31999999
30.267 -2.5899999 0.303 0.22
30.952 -2.5510001 0.30500001 0.25999999
32.217999 -2.6059999 0.30899999 0.22
32.720001 -2.5439999 0.31 0.2
32.897999 -2.454 0.31099999 0.49000001
32.973 -2.355 0.31099999 0.2
33.799999 -2.3080001 0.31400001 0.31
32.793999 -2.135 0.31 0.19
34.261002 -2.0699999 0.315 0
34.742001 -1.99 0.317 0
40.965 -2.2219999 0.336 0
28.201 -1.432 0.296 0
48.435001 -2.326 0.36000001 0
48.448002 -2.174 0.36000001 0
46.933998 -1.9579999 0.35499999 0
48.675999 -1.955 0.36000001 0
48.596001 -1.799 0.36000001 0
44.888 -1.377 0.34799999 0
69.440002 3.7820001 0.098999999 0
69.295998 3.993 0.098999999 0
69.324997 4.1040001 0.098999999 0
69.194 4.3140001 0.098999999 0
69.134003 4.5279999 0.098999999 0
58.145 5.3670001 0.116 0
57.907001 5.5279999 0.116 0
57.820999 5.612 0.116 0
57.817001 5.7950001 0.116 0
57.793999 5.9759998 0.116 0
57.785 6.1589999 0.116 0
57.789001 6.3429999 0.116 0
57.794998 6.527 0.116 0
57.812 6.7129998 0.116 0
57.834999 6.8080001 0.116 0
57.895 6.9990001 0.116 0
65.391998 8.7440004 0.104 0
65.331001 8.9449997 0.104 0
65.319 9.0480003 0.104 0
65.269997 9.25 0.104 0
65.276001 9.4610004 0.104 0
65.214996 9.6610003 0.104 0
65.230003 9.8730001 0.104 0
74.419998 11.507 0.090000004 0
65.054001 10.264 0.104 0
64.499001 10.488 0.105 0
64.148003 10.638 0.106 0
