# .PCD v0.7 - Point Cloud Data file format
VERSION 0.7
FIELDS x y z intensity
SIZE 4 4 4 4
TYPE F F F F
COUNT 1 1 1 1
WIDTH 1403
HEIGHT 1
VIEWPOINT 0 0 0 1 0 0 0
POINTS 1403
DATA ascii
-3.1459999 -9.5159998 -1.221 0.36000001
-3.1099999 -9.5080004 -1.2180001 0.36000001
-3.0780001 -9.5100002 -1.217 0.37
-3.0439999 -9.5080004 -1.215 0.36000001
-3.029 -9.5109997 -1.215 0.36000001
-2.993 -9.5030003 -1.212 0.37
-2.96 -9.5010004 -1.211 0.34999999
-2.9300001 -9.5089998 -1.21 0.36000001
-2.8959999 -9.507 -1.209 0.41
-2.8610001 -9.4969997 -1.206 0.34
-2.846 -9.5030003 -1.206 0.37
-2.8139999 -9.5039997 -1.205 0.40000001
-2.78 -9.4980001 -1.2029999 0.34999999
-2.7520001 -9.5139999 -1.204 0.40000001
-2.7179999 -9.5080004 -1.202 0.34999999
-2.6860001 -9.5089998 -1.2 0.36000001
-2.651 -9.5019999 -1.198 0.36000001
-2.6359999 -9.5039997 -1.198 0.36000001
-2.602 -9.4989996 -1.196 0.36000001
-2.569 -9.4940004 -1.194 0.38999999
-2.539 -9.5 -1.194 0.34999999
-2.506 -9.4980001 -1.192 0.36000001
-2.474 -9.4980001 -1.191 0.36000001
-2.4430001 -9.5 -1.1900001 0.38999999
-2.427 -9.4980001 -1.1900001 0.33000001
-2.3929999 -9.4919996 -1.188 0.36000001
-2.3640001 -9.5019999 -1.188 0.36000001
-2.329 -9.4899998 -1.1849999 0.36000001
-2.3 -9.4989996 -1.1849999 0.36000001
-2.2679999 -9.4969997 -1.184 0.36000001
-2.2509999 -9.4940004 -1.183 0.38999999
-2.2190001 -9.4919996 -1.182 0.34
-2.1860001 -9.4849997 -1.1799999 0.38999999
-2.1570001 -9.4940004 -1.1799999 0.34
-2.1240001 -9.4870005 -1.178 0.34999999
-2.0929999 -9.4899998 -1.177 0.38999999
-2.063 -9.493 -1.177 0.34999999
-2.0469999 -9.4919996 -1.176 0.38999999
-2.016 -9.4949999 -1.176 0.34
-1.9859999 -9.4989996 -1.176 0.34999999
-1.9529999 -9.4899998 -1.173 0.40000001
-1.9220001 -9.4879999 -1.1720001 0.34
-1.89 -9.4860001 -1.171 0.38999999
-1.858 -9.4820004 -1.17 0.34
-1.842 -9.4790001 -1.169 0.38999999
-1.813 -9.4849997 -1.169 0.34999999
-1.781 -9.4809999 -1.1670001 0.40000001
-1.75 -9.4829998 -1.1670001 0.38
-1.721 -9.4899998 -1.1670001 0.34
-1.689 -9.4860001 -1.166 0.38999999
-1.673 -9.4809999 -1.165 0.38
-1.643 -9.4860001 -1.165 0.33000001
-1.614 -9.493 -1.165 0.38999999
-1.582 -9.4879999 -1.163 0.38
-1.552 -9.4870005 -1.163 0.33000001
-1.522 -9.4940004 -1.163 0.38999999
-1.4910001 -9.4890003 -1.1619999 0.34
-1.475 -9.4890003 -1.161 0.38999999
-1.4450001 -9.4879999 -1.16 0.34
-1.414 -9.4890003 -1.16 0.40000001
-1.383 -9.4849997 -1.159 0.38
-1.354 -9.4890003 -1.159 0.33000001
-1.323 -9.4879999 -1.158 0.38999999
-1.307 -9.4840002 -1.1569999 0.37
-1.276 -9.4799995 -1.156 0.38
-1.248 -9.4919996 -1.1569999 0.37
-1.215 -9.4779997 -1.154 0.34
-1.186 -9.4840002 -1.155 0.38999999
-1.156 -9.4860001 -1.154 0.38
-1.126 -9.4849997 -1.154 0.34
-1.1109999 -9.4870005 -1.154 0.38999999
-1.081 -9.4879999 -1.154 0.37
-1.049 -9.4759998 -1.151 0.38
-1.02 -9.4829998 -1.152 0.33000001
-0.99000001 -9.4860001 -1.152 0.38999999
-0.95899999 -9.4779997 -1.15 0.34999999
-0.92900002 -9.4849997 -1.151 0.38999999
-0.91399997 -9.4840002 -1.151 0.37
-0.88300002 -9.4729996 -1.149 0.36000001
-0.85299999 -9.4700003 -1.148 0.36000001
-0.824 -9.4840002 -1.149 0.37
-0.79400003 -9.4770002 -1.148 0.37
-0.76300001 -9.4700003 -1.147 0.37
-0.75 -9.493 -1.15 0.33000001
-0.71799999 -9.4689999 -1.146 0.38999999
-0.68900001 -9.4809999 -1.147 0.33000001
-0.66000003 -9.4890003 -1.148 0.38999999
-0.62900001 -9.4829998 -1.147 0.34999999
-0.59899998 -9.4750004 -1.146 0.38999999
-0.58399999 -9.4799995 -1.146 0.31999999
-0.55400002 -9.4720001 -1.145 0.38999999
-0.52399999 -9.474 -1.145 0.37
-0.49399999 -9.4779997 -1.145 0.31999999
-0.465 -9.4790001 -1.145 0.38999999
-0.435 -9.4820004 -1.146 0.37
-0.405 -9.4840002 -1.146 0.38
-0.38999999 -9.4779997 -1.145 0.38
-0.36000001 -9.4720001 -1.1440001 0.37
-0.33000001 -9.4790001 -1.1440001 0.38
-0.301 -9.4799995 -1.1440001 0.38
-0.271 -9.4809999 -1.1440001 0.36000001
-0.241 -9.4729996 -1.143 0.37
-0.211 -9.4680004 -1.142 0.36000001
-0.19599999 -9.4729996 -1.143 0.37
-0.16599999 -9.467 -1.142 0.38
-0.13699999 -9.4700003 -1.142 0.37
-0.107 -9.4639997 -1.142 0.37
-0.077 -9.4720001 -1.143 0.37
-0.046999998 -9.4689999 -1.142 0.33000001
-0.032000002 -9.4759998 -1.143 0.38999999
-0.003 -9.4729996 -1.143 0.38
0.027000001 -9.4630003 -1.141 0.37
0.057 -9.4639997 -1.142 0.33000001
0.086999997 -9.4700003 -1.142 0.38999999
0.116 -9.4619999 -1.141 0.36000001
0.146 -9.4659996 -1.142 0.38
0.161 -9.4689999 -1.142 0.31999999
0.191 -9.4709997 -1.143 0.38999999
0.221 -9.4720001 -1.143 0.38
0.25 -9.4610004 -1.142 0.36000001
0.28 -9.474 -1.1440001 0.25
0.31 -9.4680004 -1.143 0.55000001
0.324 -9.4569998 -1.141 0.34
0.30399999 -8.0170002 -0.93699998 0.34
0.414 -9.4659996 -1.143 0.37
0.44400001 -9.46 -1.142 0.37
0.47299999 -9.4630003 -1.143 0.37
0.50300002 -9.4630003 -1.143 0.40000001
0.51899999 -9.4720001 -1.145 0.28999999
0.54799998 -9.4650002 -1.1440001 0.34999999
0.57800001 -9.4589996 -1.143 0.38999999
0.60699999 -9.4569998 -1.143 0.36000001
0.63700002 -9.4630003 -1.1440001 0.37
0.667 -9.4530001 -1.143 0.41
0.69700003 -9.4650002 -1.145 0.38999999
0.71799999 -9.5430002 -1.156 0.22
0.75300002 -9.6129999 -1.1670001 0.36000001
0.78500003 -9.6330004 -1.17 0.25
0.80699998 -9.5299997 -1.156 0.56999999
0.87599999 -9.6230001 -1.17 0.38
0.89200002 -9.6269999 -1.17 0.34
0.92199999 -9.6300001 -1.171 0.34999999
0.95200002 -9.6239996 -1.171 0.43000001
0.98199999 -9.6169996 -1.17 0.28999999
1.013 -9.6230001 -1.1720001 0.33000001
1.043 -9.6140003 -1.171 0.38999999
1.074 -9.6190004 -1.1720001 0.38
1.09 -9.6289997 -1.174 0.28999999
1.12 -9.6230001 -1.173 0.54000002
1.149 -9.6059999 -1.171 0.23
1.182 -9.6260004 -1.175 0.37
1.212 -9.6199999 -1.174 0.38
1.242 -9.6129999 -1.174 0.25
1.247 -9.5340004 -1.163 0.56999999
1.318 -9.6099997 -1.175 0.37
1.351 -9.6219997 -1.177 0.37
1.382 -9.6230001 -1.178 0.30000001
1.41 -9.6090002 -1.177 0.55000001
1.4450001 -9.6359997 -1.181 0.15000001
1.4579999 -9.6160002 -1.179 0.38
1.489 -9.6190004 -1.1799999 0.37
1.52 -9.6190004 -1.1799999 0.37
1.55 -9.6160002 -1.181 0.40000001
1.582 -9.6210003 -1.182 0.31999999
1.613 -9.6190004 -1.183 0.34
1.628 -9.6149998 -1.182 0.37
1.661 -9.6269999 -1.1849999 0.34
1.693 -9.6300001 -1.186 0.31
1.7180001 -9.5970001 -1.182 0.54000002
1.748 -9.592 -1.182 0.16
1.756 -9.4639997 -1.164 0.28999999
1.783 -9.4440002 -1.1619999 0.36000001
1.802 -9.4650002 -1.166 0.31999999
1.845 -9.5290003 -1.176 0.56
1.891 -9.4440002 -1.165 0.36000001
1.924 -9.4569998 -1.168 0.36000001
1.955 -9.4569998 -1.169 0.27000001
1.9579999 -9.3190002 -1.15 0.56999999
2.033 -9.46 -1.1720001 0.34
2.062 -9.4499998 -1.171 0.36000001
2.096 -9.4630003 -1.174 0.27000001
2.1240001 -9.4469995 -1.1720001 0.56999999
2.1589999 -9.4630003 -1.176 0.13
2.174 -9.46 -1.176 0.36000001
2.2049999 -9.4610004 -1.177 0.36000001
2.234 -9.4499998 -1.176 0.41999999
2.266 -9.4540005 -1.178 0.38999999
2.296 -9.4490004 -1.178 0.16
2.326 -9.4420004 -1.178 0.38999999
2.358 -9.4440002 -1.1799999 0.34999999
2.3740001 -9.4440002 -1.1799999 0.36000001
2.4059999 -9.4440002 -1.181 0.44999999
2.441 -9.46 -1.1849999 0.30000001
2.467 -9.4390001 -1.183 0.33000001
2.5009999 -9.4460001 -1.1849999 0.36000001
2.5369999 -9.4630003 -1.189 0.38
2.549 -9.448 -1.187 0.38
2.5799999 -9.4449997 -1.188 0.43000001
2.612 -9.4469995 -1.189 0.28999999
2.6429999 -9.4420004 -1.1900001 0.37
2.677 -9.4490004 -1.192 0.38
2.7119999 -9.4580002 -1.1950001 0.31999999
2.74 -9.4449997 -1.194 0.52999997
2.7720001 -9.5 -1.2029999 0.38
2.872 -9.6190004 -1.223 0.34
2.904 -9.6140003 -1.223 0.41
2.937 -9.6160002 -1.225 0.41
2.9660001 -9.6009998 -1.224 0.22
2.987 -9.6169996 -1.227 0.36000001
3.0220001 -9.6230001 -1.23 0.36000001
3.0550001 -9.6210003 -1.2309999 0.31
3.0810001 -9.6000004 -1.229 0.5
3.118 -9.6110001 -1.232 0.2
3.151 -9.6110001 -1.234 0.37
3.187 -9.618 -1.2359999 0.28
3.2049999 -9.6199999 -1.237 0.56999999
3.2349999 -9.6120005 -1.237 0.23
3.2679999 -9.6090002 -1.239 0.31
3.302 -9.6099997 -1.24 0.36000001
3.3410001 -9.6239996 -1.244 0.31999999
3.392 -9.6750002 -1.253 0.55000001
3.4189999 -9.6049995 -1.245 0.36000001
3.457 -9.6169996 -1.248 0.31999999
3.4909999 -9.6169996 -1.25 0.40000001
3.598 -9.816 -1.2819999 0.19
3.661 -9.7969999 -1.2819999 0
1.502 -2.552 -0.221 0
1.512 -2.5510001 -0.221 0
1.529 -2.5710001 -0.22499999 0
1.538 -2.5680001 -0.22499999 0
1.548 -2.566 -0.226 0
1.548 -2.5480001 -0.22400001 0
1.562 -2.553 -0.22499999 0
1.572 -2.552 -0.226 0
1.5779999 -2.552 -0.227 0
1.584 -2.5439999 -0.226 0
1.5880001 -2.5320001 -0.22499999 0
1.607 -2.5439999 -0.228 0
1.615 -2.539 -0.228 0
1.62 -2.5309999 -0.227 0
1.635 -2.536 -0.229 0
1.658 -2.563 -0.234 0
2.418 -3.23 -0.373 0
2.4289999 -3.2219999 -0.373 0
2.4100001 -3.187 -0.36700001 0
2.415 -3.1730001 -0.366 0
2.431 -3.1730001 -0.368 0
2.434 -3.1559999 -0.366 0
2.4389999 -3.142 -0.36500001 0
2.4419999 -3.125 -0.36300001 0
2.431 -3.0899999 -0.35800001 0
2.4530001 -3.109 -0.36199999 0
2.4649999 -3.1040001 -0.36300001 0
2.392 -2.7869999 -0.322 0
2.4230001 -2.8050001 -0.32600001 0
2.3889999 -2.747 -0.317 0
4.2950001 -2.296 -0.491 0
4.329 -2.2709999 -0.49399999 0
4.4320002 -2.3080001 -0.509 0
10.315 -5.3270001 -1.4450001 0.23
10.33 -5.2940001 -1.4450001 0.28
10.333 -5.2750001 -1.444 0.31999999
10.365 -5.2509999 -1.447 0.34
11.712 -5.8909998 -1.658 0.20999999
11.733 -5.855 -1.658 0.27000001
11.749 -5.8169999 -1.658 0.28
11.785 -5.789 -1.661 0.23
11.661 -5.6820002 -1.638 0
7.3569999 -3.503 -0.95499998 0
7.3590002 -3.4749999 -0.954 0
7.3260002 -3.404 -0.94499999 0
7.3080001 -3.381 -0.94199997 0
7.2950001 -3.2090001 -0.93000001 0
7.2550001 -3.178 -0.92299998 0
7.257 -3.152 -0.92199999 0
7.2579999 -3.125 -0.92000002 0
7.23 -3.086 -0.91500002 0
7.2410002 -3.0639999 -0.91500002 0
7.2319999 -3.033 -0.912 0
7.2290001 -3.0050001 -0.91000003 0
7.2340002 -2.994 -0.91000003 0
7.2470002 -2.973 -0.91100001 0
7.2449999 -2.9449999 -0.90899998 0
7.2399998 -2.9170001 -0.90700001 0
7.2420001 -2.891 -0.90600002 0
7.2410002 -2.8640001 -0.90399998 0
7.2309999 -2.8469999 -0.90200001 0
7.2379999 -2.8239999 -0.90200001 0
7.2449999 -2.8 -0.90100002 0
7.2410002 -2.7720001 -0.89899999 0
7.2410002 -2.7460001 -0.898 0
7.2529998 -2.7249999 -0.89899999 0
7.2779999 -2.7079999 -0.90100002 0
7.2930002 -2.701 -0.903 0
7.276 -2.668 -0.89899999 0
7.2600002 -2.6370001 -0.89499998 0.07
7.2480001 -2.6059999 -0.89200002 0.079999998
7.2670002 -2.5880001 -0.89399999 0.079999998
7.2680001 -2.562 -0.89300001 0.090000004
7.302 -2.5610001 -0.89700001 0.15000001
7.2719998 -2.5250001 -0.89200002 0
7.2880001 -2.5050001 -0.89300001 0
7.2969999 -2.483 -0.89300001 0
7.3130002 -2.4619999 -0.89399999 0
7.309 -2.4360001 -0.89200002 0
7.3109999 -2.424 -0.89200002 0.07
7.3319998 -2.405 -0.89399999 0.2
7.3280001 -2.378 -0.89200002 0.25
7.3369999 -2.3559999 -0.89300001 0
7.3470001 -2.3329999 -0.89300001 0.13
7.3579998 -2.3110001 -0.89300001 0.25999999
7.3569999 -2.286 -0.89200002 0.34
7.3850002 -2.2820001 -0.89600003 0.2
7.3660002 -2.2509999 -0.89200002 0.33000001
7.381 -2.23 -0.89300001 0
7.3839998 -2.2049999 -0.89300001 0
7.3870001 -2.181 -0.89200002 0
7.4050002 -2.161 -0.89399999 0
7.427 -2.142 -0.89600003 0
7.467 -2.141 -0.90100002 0
9.1280003 -1.9680001 -1.124 0
12.304 -2.3989999 -1.576 0
10.218 -1.955 -1.274 0
10.339 -1.944 -1.291 0
10.426 -1.944 -1.303 0
10.5 -1.924 -1.313 0
10.938 -1.97 -1.375 0.079999998
11.106 -1.965 -1.398 0.12
12.905 -2.2449999 -1.656 0.31
12.91 -2.204 -1.656 0.30000001
12.887 -2.1589999 -1.652 0.31
12.875 -2.1359999 -1.649 0.31999999
12.866 -2.0929999 -1.647 0.30000001
12.845 -2.0480001 -1.643 0.28999999
12.85 -2.007 -1.643 0.30000001
12.84 -1.964 -1.641 0.28999999
12.825 -1.921 -1.638 0.28
12.806 -1.897 -1.6339999 0.28999999
12.806 -1.8559999 -1.6339999 0.28999999
12.792 -1.813 -1.631 0.28
12.778 -1.77 -1.628 0.27000001
12.772 -1.729 -1.626 0.18000001
12.76 -1.686 -1.624 0.43000001
12.749 -1.6440001 -1.622 0.25
12.75 -1.624 -1.6210001 0.23
12.718 -1.579 -1.6160001 0.18000001
12.719 -1.538 -1.615 0.43000001
12.717 -1.498 -1.615 0.25
12.697 -1.455 -1.6109999 0.27000001
12.703 -1.415 -1.6109999 0.25
12.662 -1.39 -1.605 0.31
12.684 -1.352 -1.608 0.19
12.659 -1.3099999 -1.603 0.38999999
12.657 -1.2690001 -1.602 0.23
12.655 -1.229 -1.602 0.18000001
12.651 -1.188 -1.601 0.40000001
12.645 -1.168 -1.599 0.23
12.646 -1.128 -1.599 0.2
12.648 -1.0880001 -1.599 0.38
12.665 -1.049 -1.601 0.2
12.644 -1.008 -1.597 0.23999999
12.644 -0.96700001 -1.597 0.20999999
12.649 -0.92799997 -1.597 0.23
12.656 -0.90799999 -1.598 0.18000001
12.641 -0.86699998 -1.595 0.31999999
12.642 -0.82800001 -1.595 0.2
12.64 -0.78799999 -1.595 0.18000001
12.639 -0.74800003 -1.594 0.30000001
12.635 -0.708 -1.5930001 0.2
12.631 -0.66799998 -1.592 0.18000001
12.636 -0.648 -1.5930001 0.28999999
12.628 -0.60799998 -1.592 0.2
12.616 -0.56699997 -1.59 0.18000001
12.622 -0.528 -1.59 0.30000001
12.618 -0.48800001 -1.589 0.2
12.623 -0.449 -1.59 0.18000001
12.604 -0.428 -1.587 0.33000001
12.609 -0.389 -1.5880001 0.18000001
12.591 -0.34799999 -1.585 0.34999999
12.602 -0.30899999 -1.586 0.19
12.595 -0.26899999 -1.585 0.36000001
12.585 -0.23 -1.584 0.22
12.602 -0.19 -1.586 0.18000001
12.592 -0.17 -1.585 0.41
12.585 -0.131 -1.5829999 0.23
12.581 -0.090999998 -1.5829999 0.18000001
12.581 -0.052000001 -1.5829999 0.38999999
12.584 -0.012 -1.5829999 0.22
12.238 0.003 -1.589 0.31999999
12.236 0.023 -1.589 0.31
12.231 0.061000001 -1.589 0.30000001
12.237 0.098999999 -1.589 0.31999999
12.223 0.138 -1.587 0.31999999
12.224 0.176 -1.5880001 0.31
12.228 0.215 -1.5880001 0.34999999
12.227 0.25299999 -1.5880001 0.30000001
12.231 0.27200001 -1.589 0.34
12.238 0.31099999 -1.59 0.33000001
12.231 0.34900001 -1.589 0.31
12.218 0.38699999 -1.587 0.31999999
12.23 0.426 -1.589 0.31999999
12.235 0.465 -1.59 0.31
12.23 0.484 -1.59 0.31
12.238 0.523 -1.591 0.30000001
12.248 0.56199998 -1.5930001 0.31999999
12.245 0.60000002 -1.5930001 0.31
12.235 0.63800001 -1.591 0.28999999
12.243 0.67699999 -1.5930001 0.28999999
12.248 0.71600002 -1.594 0.30000001
12.243 0.73500001 -1.5930001 0.30000001
12.241 0.77399999 -1.5930001 0.28
12.236 0.81199998 -1.5930001 0.30000001
12.236 0.85000002 -1.5930001 0.28999999
12.241 0.889 -1.595 0.28
12.238 0.92799997 -1.595 0.30000001
12.217 0.94599998 -1.592 0.27000001
12.22 0.98400003 -1.5930001 0.28999999
12.226 1.024 -1.594 0.30000001
12.217 1.062 -1.5930001 0.30000001
12.198 1.099 -1.591 0.28999999
12.21 1.138 -1.5930001 0.33000001
12.199 1.176 -1.592 0.30000001
12.183 1.194 -1.59 0.33000001
12.168 1.2309999 -1.5880001 0.28999999
12.156 1.268 -1.587 0.31
12.148 1.306 -1.587 0.31
12.118 1.341 -1.5829999 0.31999999
12.118 1.38 -1.5829999 0.31999999
12.104 1.4170001 -1.582 0.33000001
12.091 1.434 -1.58 0.31
12.089 1.473 -1.581 0.28999999
12.108 1.5140001 -1.584 0.49000001
11.969 1.534 -1.5650001 0.28999999
11.735 1.541 -1.531 0.25
11.609 1.561 -1.513 0.27000001
11.596 1.5779999 -1.511 0.31
11.585 1.614 -1.51 0.28
11.6 1.653 -1.513 0.33000001
11.599 1.6900001 -1.5140001 0.33000001
11.572 1.723 -1.511 0.33000001
11.566 1.76 -1.511 0.34999999
11.555 1.795 -1.51 0.33000001
11.53 1.8099999 -1.507 0.31999999
11.519 1.845 -1.506 0.33000001
11.505 1.88 -1.505 0.34999999
11.478 1.9119999 -1.502 0.33000001
11.446 1.944 -1.498 0.31999999
11.421 1.977 -1.495 0.37
11.408 1.993 -1.493 0.34999999
11.384 2.0250001 -1.4910001 0.34999999
11.362 2.0580001 -1.489 0.34999999
11.332 2.0899999 -1.485 0.34999999
11.304 2.1210001 -1.482 0.33000001
11.278 2.1530001 -1.479 0.31999999
11.246 2.1830001 -1.475 0.34999999
11.215 2.1960001 -1.471 0.36000001
11.191 2.227 -1.469 0.34
11.149 2.2550001 -1.4630001 0.31999999
11.142 2.29 -1.4630001 0.38
11.107 2.3199999 -1.459 0.31
11.081 2.3499999 -1.456 0.33000001
11.06 2.3640001 -1.454 0.34
11.035 2.395 -1.451 0.34
11.004 2.424 -1.448 0.34
10.975 2.454 -1.4450001 0.34
10.961 2.487 -1.444 0.38
10.915 2.513 -1.438 0.31999999
10.876 2.54 -1.433 0.31999999
10.861 2.5539999 -1.432 0.31999999
10.826 2.582 -1.428 0.34999999
10.775 2.605 -1.421 0.30000001
10.754 2.6359999 -1.419 0.37
10.736 2.6670001 -1.418 0.34999999
10.704 2.6949999 -1.414 0.36000001
10.673 2.723 -1.411 0.33000001
10.647 2.734 -1.408 0.33000001
10.608 2.76 -1.403 0.34999999
10.574 2.786 -1.399 0.31
10.533 2.8110001 -1.3940001 0.25
9.8240004 2.6530001 -1.288 0.38999999
9.7849998 2.675 -1.284 0.46000001
9.7119999 2.671 -1.273 0.27000001
9.6859999 2.697 -1.271 0.36000001
9.6359997 2.7160001 -1.2640001 0.46000001
9.585 2.734 -1.258 0.37
9.5539999 2.757 -1.2539999 0.50999999
9.5209999 2.78 -1.251 0.58999997
8.6090002 2.526 -1.112 0.25
8.4189997 2.4979999 -1.085 0.37
8.3219995 2.4979999 -1.071 0.34
8.2410002 2.5009999 -1.0599999 0.34999999
8.1400003 2.4979999 -1.046 0.22
8.0799999 2.507 -1.038 0.41999999
8.1169996 2.5469999 -1.044 0.54000002
8.1219997 2.563 -1.046 0.52999997
8.1219997 2.5910001 -1.0470001 0.54000002
8.125 2.6199999 -1.049 0.54000002
8.1280003 2.6489999 -1.051 0.54000002
8.1230001 2.6760001 -1.051 0.54000002
8.1389999 2.71 -1.0549999 0.58999997
8.217 2.7650001 -1.068 0.38
7.9629998 2.6919999 -1.03 0.27000001
7.934 2.71 -1.027 0.28999999
7.4400001 2.566 -0.95099998 0.33000001
7.48 2.6059999 -0.95899999 0.47999999
7.6490002 2.6930001 -0.986 0.27000001
7.3429999 2.6099999 -0.94 0.36000001
7.3759999 2.635 -0.94599998 0.44999999
7.382 2.6630001 -0.94800001 0.36000001
7.118 2.592 -0.90799999 0.31
7.3080001 2.688 -0.93900001 0.46000001
7.0289998 2.6099999 -0.89700001 0.28
7.026 2.6340001 -0.898 0.36000001
7.0770001 2.6789999 -0.90700001 0.47
7.0430002 2.678 -0.903 0.28999999
7.0240002 2.6960001 -0.90100002 0.31999999
7.0799999 2.743 -0.91100001 0.31
6.8039999 2.6600001 -0.86900002 0.38999999
6.724 2.6530001 -0.85799998 0.36000001
7.0149999 2.7950001 -0.90499997 0.30000001
6.9060001 2.763 -0.88800001 0.31
7.2859998 2.9430001 -0.94999999 0.5
6.6160002 2.694 -0.84500003 0.25999999
6.441 2.6459999 -0.81900001 0.30000001
6.3559999 2.6340001 -0.80699998 0.28999999
6.3280001 2.6459999 -0.80400002 0.28999999
6.3940001 2.697 -0.81599998 0.43000001
6.3039999 2.671 -0.80199999 0.25
6.2199998 2.658 -0.79000002 0.36000001
6.1589999 2.654 -0.78100002 0.31999999
6 2.608 -0.75700003 0.34
5.9359999 2.602 -0.74800003 0.30000001
5.9070001 2.6110001 -0.745 0.36000001
5.8800001 2.6099999 -0.74199998 0.31999999
5.836 2.612 -0.736 0.25999999
5.835 2.6340001 -0.73699999 0.43000001
5.9229999 2.697 -0.75300002 0.36000001
5.7589998 2.6429999 -0.727 0.22
5.7810001 2.675 -0.73199999 0.31999999
5.7329998 2.675 -0.72600001 0.25
5.7659998 2.7019999 -0.73199999 0.41999999
5.7649999 2.723 -0.73299998 0.27000001
5.7509999 2.7390001 -0.73199999 0.44999999
9.1739998 4.421 -1.289 0.27000001
5.8940001 2.8529999 -0.75800002 0.28999999
5.6719999 2.766 -0.72399998 0.33000001
5.6350002 2.76 -0.71799999 0.20999999
5.9120002 2.9189999 -0.76499999 0.31
5.6960001 2.8340001 -0.73100001 0.41999999
5.7189999 2.868 -0.736 0.25999999
5.9070001 2.987 -0.76899999 0.38999999
5.8839998 2.9979999 -0.76599997 0.25999999
5.8200002 2.9879999 -0.75700003 0.28999999
5.7709999 2.9749999 -0.75 0.27000001
5.869 3.049 -0.76800001 0.46000001
5.9549999 3.118 -0.78399998 0.25999999
5.8280001 3.0739999 -0.764 0.36000001
5.7119999 3.036 -0.74699998 0.28999999
5.6609998 3.0309999 -0.74000001 0.34
5.6690001 3.0580001 -0.74299997 0.40000001
5.6209998 3.043 -0.73500001 0.40000001
5.6529999 3.0840001 -0.74199998 0.38999999
5.6669998 3.115 -0.74599999 0.28999999
5.7259998 3.1719999 -0.75800002 0.38
5.7909999 3.2309999 -0.76999998 0.37
5.6939998 3.201 -0.75599998 0.23999999
4.599 2.589 -0.57300001 0.47
5.7189999 3.25 -0.76300001 0.22
4.5380001 2.592 -0.565 0.14
4.506 2.592 -0.56099999 0.43000001
4.4790001 2.595 -0.55800003 0.23999999
4.4429998 2.5929999 -0.55299997 0.28
4.349 2.5469999 -0.53799999 0.25999999
4.3379998 2.5580001 -0.537 0.16
4.3740001 2.598 -0.54500002 0.28999999
4.2690001 2.5539999 -0.52899998 0.18000001
4.158 2.5039999 -0.51099998 0.27000001
4.1599998 2.5239999 -0.51300001 0.34
4.1469998 2.5339999 -0.51200002 0.30000001
4.1199999 2.5250001 -0.50800002 0.25
4.0799999 2.5179999 -0.50199997 0.25999999
4.0669999 2.5280001 -0.50099999 0.28
4.0359998 2.526 -0.49700001 0.2
3.974 2.5050001 -0.48800001 0.17
3.9879999 2.5309999 -0.49200001 0.31
3.9530001 2.526 -0.48699999 0.19
3.8610001 2.4749999 -0.472 0.14
3.852 2.4860001 -0.472 0.43000001
3.928 2.5539999 -0.486 0.18000001
3.8940001 2.549 -0.48199999 0.37
3.8989999 2.5699999 -0.484 0.19
3.8529999 2.5569999 -0.477 0.31999999
3.8210001 2.5439999 -0.472 0.17
3.8080001 2.553 -0.472 0.25999999
3.8069999 2.569 -0.47299999 0.18000001
3.7839999 2.5710001 -0.47 0.23999999
3.763 2.5739999 -0.46799999 0.16
3.757 2.5869999 -0.46799999 0.31999999
3.737 2.5910001 -0.46599999 0.17
3.71 2.5799999 -0.46200001 0.27000001
3.6440001 2.5510001 -0.45199999 0.20999999
3.615 2.5469999 -0.44800001 0.17
3.6600001 2.5969999 -0.45699999 0.16
3.5799999 2.556 -0.44400001 0.14
3.6389999 2.6159999 -0.45699999 0.13
3.6010001 2.598 -0.44999999 0.15000001
3.5150001 2.5510001 -0.43599999 0.20999999
3.4749999 2.539 -0.43099999 0.2
3.5079999 2.5810001 -0.43799999 0.28999999
3.405 2.52 -0.421 0.2
3.372 2.5120001 -0.41600001 0.19
3.368 2.517 -0.41600001 0.20999999
3.329 2.5039999 -0.41 0.15000001
3.22 2.437 -0.39199999 0.27000001
3.211 2.4460001 -0.391 0.20999999
3.21 2.461 -0.39300001 0.15000001
3.2579999 2.5150001 -0.403 0.16
3.217 2.4990001 -0.39700001 0.16
3.161 2.4630001 -0.38699999 0.30000001
3.2090001 2.517 -0.398 0.23
3.188 2.517 -0.39500001 0.14
3.2160001 2.556 -0.40200001 0.41999999
3.2 2.5599999 -0.40000001 0.19
3.2149999 2.5880001 -0.405 0.25
3.184 2.5799999 -0.40000001 0.18000001
3.224 2.6210001 -0.40900001 0.12
3.293 2.7119999 -0.42500001 0.15000001
3.7 3.0710001 -0.50400001 0.16
3.2820001 2.7379999 -0.426 0.18000001
3.095 2.5969999 -0.39199999 0.23
3.0339999 2.562 -0.382 0.16
3.027 2.5639999 -0.38100001 0.14
3.052 2.602 -0.38800001 0.15000001
3.0139999 2.586 -0.382 0.23
3.286 2.8399999 -0.43599999 0.11
2.823 2.45 -0.34799999 0.16
2.8340001 2.4760001 -0.352 0.19
2.8469999 2.4949999 -0.35499999 0.15000001
2.911 2.569 -0.36899999 0.44999999
2.8970001 2.572 -0.368 0.2
2.8759999 2.5699999 -0.36500001 0.25
2.8499999 2.563 -0.36199999 0.2
2.8900001 2.6159999 -0.37099999 0
2.8410001 2.5869999 -0.36300001 0.12
2.77 2.53 -0.34999999 0.28
2.7869999 2.5610001 -0.35499999 0.2
2.7260001 2.52 -0.34400001 0.15000001
2.7980001 2.605 -0.36000001 0.33000001
2.7179999 2.5450001 -0.34599999 0.16
2.7149999 2.5580001 -0.347 0.40000001
2.6860001 2.539 -0.34200001 0.16
2.664 2.5339999 -0.33899999 0.15000001
2.675 2.5599999 -0.34299999 0.17
2.6589999 2.5610001 -0.34099999 0.22
2.668 2.586 -0.345 0.14
2.7869999 2.72 -0.37099999 0.13
2.7249999 2.6760001 -0.36000001 0.11
2.599 2.5580001 -0.33500001 0.14
2.7019999 2.6789999 -0.35800001 0
2.7049999 2.698 -0.36000001 0.090000004
2.5639999 2.5710001 -0.33199999 0.33000001
2.5599999 2.5840001 -0.333 0.23999999
2.5910001 2.6329999 -0.34099999 0.11
2.589 2.638 -0.34200001 0.12
2.628 2.6960001 -0.352 0
2.598 2.6819999 -0.347 0.12
2.566 2.665 -0.34200001 0.12
2.517 2.6300001 -0.33399999 0.12
2.9219999 3.079 -0.42199999 0
2.812 2.9809999 -0.40000001 0.07
2.4779999 2.6300001 -0.33000001 0.18000001
2.52 2.6930001 -0.34099999 0
2.4059999 2.585 -0.31799999 0
2.378 2.5710001 -0.31299999 0.12
2.4419999 2.658 -0.329 0.31
2.7950001 3.0669999 -0.40799999 0
2.678 2.9460001 -0.38299999 0
2.5969999 2.875 -0.368 0.1
2.424 2.698 -0.33199999 0
2.392 2.6789999 -0.32600001 0.13
2.437 2.747 -0.338 0.28999999
2.401 2.723 -0.33199999 0.1
2.325 2.6530001 -0.317 0.090000004
2.253 2.5769999 -0.30199999 0.14
2.214 2.5480001 -0.29499999 0.20999999
2.2060001 2.5550001 -0.29499999 0.19
2.2160001 2.5829999 -0.29899999 0.20999999
2.1949999 2.575 -0.296 0.17
2.1359999 2.5209999 -0.285 0.16
2.1099999 2.507 -0.28 0.34
2.1040001 2.507 -0.28 0.2
2.0610001 2.471 -0.27200001 0.15000001
2.026 2.4430001 -0.26499999 0.31999999
2.0250001 2.4590001 -0.26699999 0.2
2.03 2.4809999 -0.27000001 0.23999999
2.017 2.4809999 -0.26899999 0
2.086 2.5829999 -0.287 0.13
2.141 2.661 -0.301 0.28999999
2.108 2.6370001 -0.29499999 0
2.2980001 2.8970001 -0.34200001 0
2.1400001 2.7119999 -0.30599999 0.16
2.0309999 2.589 -0.28200001 0.11
1.9859999 2.5469999 -0.27399999 0.14
1.9859999 2.556 -0.27500001 0.14
1.946 2.52 -0.26699999 0.14
1.952 2.5450001 -0.27000001 0.28
1.91 2.5050001 -0.26199999 0.18000001
1.914 2.527 -0.26499999 0.38
1.8890001 2.51 -0.26100001 0.18000001
1.878 2.5120001 -0.25999999 0.37
1.873 2.513 -0.25999999 0.22
1.8839999 2.5439999 -0.264 0.22
1.848 2.5120001 -0.257 0.15000001
1.765 2.4130001 -0.23899999 0.13
1.79 2.464 -0.24699999 0.15000001
1.844 2.5569999 -0.26199999 0.17
1.87 2.6029999 -0.27000001 0.17
1.891 2.6500001 -0.27700001 0.23
1.892 2.6700001 -0.28 0.11
1.809 2.5669999 -0.26100001 0.17
1.753 2.5039999 -0.248 0.25
1.761 2.533 -0.252 0.2
1.744 2.5250001 -0.25 0.15000001
1.756 2.5510001 -0.25400001 0.31999999
1.735 2.536 -0.25099999 0.17
1.712 2.52 -0.24699999 0.15000001
1.706 2.527 -0.24699999 0.15000001
1.668 2.4879999 -0.23899999 0.31
1.678 2.52 -0.244 0.19
1.679 2.5309999 -0.245 0.23999999
1.682 2.553 -0.248 0.15000001
1.673 2.556 -0.248 0.14
1.682 2.5880001 -0.25299999 0.11
1.618 2.5050001 -0.237 0.13
1.614 2.517 -0.23899999 0.13
1.609 2.527 -0.23899999 0.13
1.608 2.5339999 -0.23999999 0.15000001
1.546 2.4519999 -0.22499999 0.1
1.528 2.4400001 -0.222 0.14
1.543 2.4820001 -0.229 0.12
1.517 2.4560001 -0.22400001 0.12
1.474 2.4030001 -0.214 0.13
1.442 2.365 -0.206 0.17
1.502 2.4749999 -0.22499999 0.28
1.498 2.4860001 -0.226 0.11
1.49 2.4909999 -0.226 0.14
1.518 2.5569999 -0.236 0.17
1.508 2.559 -0.236 0.17
1.497 2.5580001 -0.235 0.17
1.477 2.5420001 -0.23100001 0.18000001
1.493 2.579 -0.237 0.28999999
1.461 2.5420001 -0.23 0.16
1.4630001 2.5639999 -0.233 0.15000001
1.4680001 2.5929999 -0.237 0.16
1.477 2.6289999 -0.242 0.20999999
1.6210001 2.911 -0.289 0
1.668 3.0090001 -0.30399999 0
1.451 2.6300001 -0.241 0.079999998
1.421 2.5940001 -0.234 0.12
1.429 2.628 -0.23899999 0.14
1.4220001 2.6359999 -0.23899999 0.16
1.38 2.576 -0.229 0.16
1.3660001 2.5680001 -0.227 0.1
1.4 2.6440001 -0.23899999 0.14
1.364 2.5940001 -0.23 0.16
1.352 2.5910001 -0.229 0.23999999
1.362 2.632 -0.235 0.18000001
1.357 2.642 -0.236 0.28999999
1.3200001 2.589 -0.226 0.16
1.3150001 2.599 -0.227 0.38
1.321 2.622 -0.23100001 0.2
1.372 2.747 -0.25 0.090000004
1.419 2.8659999 -0.26899999 0.090000004
1.413 2.8770001 -0.27000001 0
1.364 2.7980001 -0.25600001 0.12
1.309 2.704 -0.241 0.16
1.288 2.6719999 -0.235 0.16
1.2819999 2.681 -0.236 0.18000001
1.258 2.651 -0.23 0.23
1.2539999 2.664 -0.23199999 0.11
1.226 2.625 -0.22499999 0.14
1.21 2.612 -0.222 0.15000001
1.179 2.5639999 -0.214 0.14
1.183 2.5829999 -0.21699999 0.18000001
1.1720001 2.582 -0.21600001 0.28
1.17 2.5999999 -0.21799999 0.13
1.163 2.605 -0.219 0.28999999
1.152 2.602 -0.21699999 0.20999999
1.143 2.605 -0.21699999 0.28999999
1.1390001 2.618 -0.219 0.27000001
1.127 2.5999999 -0.21600001 0.2
1.113 2.5910001 -0.214 0.14
1.101 2.585 -0.212 0.14
1.098 2.6010001 -0.214 0.14
1.089 2.6029999 -0.214 0.17
1.095 2.641 -0.219 0
1.127 2.7309999 -0.233 0
1.1799999 2.891 -0.25799999 0.13
1.079 2.661 -0.221 0.23
1.058 2.6329999 -0.21600001 0.25
1.079 2.7119999 -0.228 0.18000001
1.035 2.6229999 -0.214 0.1
1.02 2.6070001 -0.211 0.15000001
1.0190001 2.6159999 -0.212 0.12
1.021 2.6470001 -0.21600001 0.13
0.99299997 2.5969999 -0.208 0.23999999
0.977 2.579 -0.205 0.18000001
0.98299998 2.6210001 -0.211 0.23999999
0.97299999 2.6210001 -0.20999999 0.18000001
0.95999998 2.609 -0.208 0.13
1.002 2.7409999 -0.228 0
1.018 2.8150001 -0.23899999 0
1.012 2.8239999 -0.23999999 0
1.1109999 3.1389999 -0.28799999 0
0.98000002 2.7909999 -0.234 0.1
0.92000002 2.6400001 -0.20999999 0.18000001
0.903 2.6040001 -0.204 0.18000001
0.889 2.5899999 -0.20200001 0.30000001
0.87599999 2.5780001 -0.2 0.16
0.86299998 2.5650001 -0.197 0.38
0.85600001 2.572 -0.198 0.2
0.85299999 2.5899999 -0.2 0.33000001
0.84799999 2.602 -0.20200001 0.18000001
0.84200001 2.5969999 -0.20100001 0.12
0.833 2.598 -0.2 0.14
0.829 2.6140001 -0.20200001 0.16
0.824 2.6259999 -0.204 0
0.79799998 2.572 -0.19499999 0.13
0.78899997 2.5710001 -0.19499999 0.12
0.77399999 2.55 -0.191 0
0.81400001 2.701 -0.214 0
0.82800001 2.7820001 -0.226 0.1
0.79100001 2.6860001 -0.211 0.090000004
0.77700001 2.6689999 -0.208 0.15000001
0.77700001 2.7 -0.212 0.17
0.76899999 2.704 -0.213 0.1
0.76200002 2.694 -0.211 0
0.76800001 2.75 -0.219 0
0.77200001 2.8 -0.226 0
0.76499999 2.812 -0.228 0.059999999
0.73299998 2.723 -0.214 0
0.75099999 2.8280001 -0.229 0
0.722 2.7539999 -0.21799999 0
0.75800002 2.915 -0.242 0
0.727 2.8299999 -0.229 0
0.73000002 2.881 -0.236 0
0.736 2.9430001 -0.245 0
0.71200001 2.8829999 -0.236 0.059999999
0.66600001 2.7309999 -0.213 0.079999998
0.65499997 2.7219999 -0.211 0.14
0.66900003 2.802 -0.223 0.1
0.667 2.8329999 -0.227 0.13
0.62900001 2.7060001 -0.208 0.1
0.61000001 2.661 -0.20100001 0.16
0.60299999 2.6689999 -0.20200001 0.30000001
0.60399997 2.714 -0.208 0.2
0.62199998 2.8410001 -0.227 0
0.61699998 2.8380001 -0.226 0.16
0.583 2.7219999 -0.208 0.25
0.56099999 2.6559999 -0.198 0.18000001
0.55800003 2.6830001 -0.20200001 0.37
0.54299998 2.654 -0.198 0.19
0.53500003 2.655 -0.198 0.15000001
0.53299999 2.6700001 -0.2 0.16
0.53100002 2.7049999 -0.204 0.11
0.51599997 2.6670001 -0.199 0.14
0.50700003 2.6689999 -0.199 0.28999999
0.495 2.6489999 -0.19499999 0.19
0.48500001 2.641 -0.19400001 0.16
0.47400001 2.6289999 -0.192 0.34999999
0.47099999 2.6329999 -0.193 0.23
0.463 2.6370001 -0.193 0.23999999
0.45300001 2.6259999 -0.191 0.18000001
0.447 2.642 -0.193 0.43000001
0.44100001 2.6589999 -0.19499999 0.19
0.433 2.6619999 -0.19599999 0.36000001
0.42300001 2.6229999 -0.19 0.23
0.41600001 2.635 -0.191 0.25999999
0.40400001 2.6099999 -0.18799999 0.22
0.40000001 2.6429999 -0.192 0.44
0.39199999 2.6459999 -0.193 0.22
0.38299999 2.641 -0.192 0.17
0.37799999 2.6659999 -0.19499999 0.38999999
0.368 2.654 -0.193 0.23
0.36300001 2.6500001 -0.193 0.27000001
0.354 2.648 -0.192 0.28999999
0.34799999 2.6619999 -0.19400001 0.25999999
0.33899999 2.661 -0.19400001 0.27000001
0.329 2.6470001 -0.191 0.31999999
0.32100001 2.6559999 -0.193 0.28999999
0.31600001 2.6440001 -0.191 0.25999999
0.308 2.6530001 -0.192 0.23
0.30000001 2.652 -0.192 0.27000001
0.29300001 2.6670001 -0.19400001 0.19
0.28400001 2.664 -0.193 0.28999999
0.27900001 2.6960001 -0.198 0.19
0.27500001 2.7460001 -0.205 0.17
0.271 2.757 -0.206 0.31
0.264 2.777 -0.20900001 0.18000001
0.255 2.766 -0.208 0.1
0.252 2.848 -0.219 0
0.25400001 2.987 -0.23999999 0.14
0.24699999 3.0190001 -0.244 0.22
0.244 3.0469999 -0.248 0.15000001
0.236 3.0639999 -0.25099999 0.14
0.226 3.066 -0.25099999 0.16
0.31200001 4.612 -0.477 0.090000004
0.30599999 4.7470002 -0.49700001 0.12
0.30000001 4.9200001 -0.52200001 0.23999999
0.285 4.9229999 -0.52200001 0.19
0.28099999 4.9850001 -0.53100002 0.23999999
0.47799999 9.427 -1.181 0.15000001
0.44999999 9.4720001 -1.187 0.28999999
0.419 9.4499998 -1.184 0.34999999
0.389 9.441 -1.182 0.44999999
0.359 9.427 -1.1799999 0.41
0.33000001 9.4350004 -1.181 0.41
0.317 9.5109997 -1.192 0.44
0.287 9.5019999 -1.1900001 0.38
0.25299999 9.3409996 -1.1670001 0.36000001
0.221 9.217 -1.149 0.33000001
0.192 9.224 -1.149 0.34
0.164 9.2930002 -1.16 0.20999999
0.14 9.6820002 -1.216 0.38999999
0.124 9.684 -1.216 0.30000001
0.093999997 9.6660004 -1.214 0.28999999
0.064000003 9.6590004 -1.2130001 0.40000001
0.033 9.6529999 -1.212 0.31999999
0.003 9.6610003 -1.2130001 0.37
-0.028000001 9.6569996 -1.212 0.31
-0.043000001 9.6689997 -1.214 0.38
-0.072999999 9.651 -1.212 0.34
-0.103 9.6560001 -1.212 0.31
-0.134 9.6540003 -1.212 0.31999999
-0.164 9.6619997 -1.2130001 0.34
-0.19499999 9.6669998 -1.214 0.34999999
-0.22499999 9.6560001 -1.2130001 0.33000001
-0.23999999 9.6639996 -1.214 0.33000001
-0.27000001 9.6549997 -1.2130001 0.37
-0.301 9.6719999 -1.215 0.40000001
-0.331 9.6630001 -1.214 0.30000001
-0.36199999 9.6619997 -1.214 0.33000001
-0.39300001 9.677 -1.216 0.34
-0.42199999 9.658 -1.214 0.33000001
-0.43700001 9.6549997 -1.214 0.31
-0.46700001 9.6359997 -1.211 0.43000001
-0.49700001 9.6300001 -1.21 0.43000001
-0.52999997 9.684 -1.219 0.37
-0.56300002 9.7139997 -1.223 0.31999999
-0.59399998 9.7299995 -1.226 0.30000001
-0.625 9.724 -1.225 0.37
-0.63999999 9.7270002 -1.226 0.31
-0.671 9.7329998 -1.227 0.36000001
-0.70300001 9.7419996 -1.229 0.30000001
-0.73400003 9.7559996 -1.2309999 0.47
-0.76499999 9.75 -1.23 0.38
-0.79500002 9.7390003 -1.229 0.36000001
-0.81099999 9.7460003 -1.23 0.43000001
-0.84100002 9.743 -1.23 0.36000001
-0.87099999 9.7349997 -1.23 0.31
-0.90200001 9.7279997 -1.229 0.40000001
-0.93300003 9.7329998 -1.23 0.40000001
-0.96200001 9.7139997 -1.228 0.44
-0.96799999 9.4829998 -1.194 0.28999999
-0.96499997 9.3079996 -1.169 0.33000001
-0.99000001 9.2720003 -1.164 0.27000001
-1.012 9.2040005 -1.154 0.31999999
-1.0319999 9.118 -1.142 0.34999999
-1.0549999 9.0690002 -1.136 0.41
-1.08 9.0349998 -1.131 0.34999999
-1.113 9.0699997 -1.137 0.38
-1.131 9.1000004 -1.141 0.38999999
-1.164 9.1280003 -1.146 0.36000001
-1.198 9.1669998 -1.152 0.44999999
-1.2309999 9.191 -1.156 0.43000001
-1.265 9.2220001 -1.1619999 0.36000001
-1.308 9.3219995 -1.177 0.34999999
-1.3329999 9.3909998 -1.187 0.47999999
-1.359 9.3629999 -1.184 0.36000001
-1.387 9.3509998 -1.183 0.34999999
-1.416 9.3389997 -1.182 0.37
-1.449 9.3590002 -1.1849999 0.41
-1.479 9.3610001 -1.186 0.44
-1.498 9.29 -1.176 0.36000001
-1.521 9.3400002 -1.184 0.41
-1.55 9.3310003 -1.184 0.38
-1.5779999 9.3190002 -1.182 0.38
-1.609 9.3269997 -1.184 0.37
-1.635 9.3030005 -1.182 0.43000001
-1.666 9.3030005 -1.182 0.38999999
-1.704 9.3500004 -1.1900001 0.47
-1.523 8.2950001 -1.034 0.25999999
-1.743 9.3149996 -1.186 0.38999999
-1.773 9.3100004 -1.186 0.37
-1.795 9.2690001 -1.181 0.34
-1.835 9.3179998 -1.189 0.36000001
-1.874 9.3620005 -1.197 0.44
-1.903 9.3540001 -1.196 0.34999999
-1.91 9.3129997 -1.1900001 0.34
-1.946 9.3380003 -1.1950001 0.38999999
-1.977 9.3389997 -1.196 0.34
-1.995 9.283 -1.189 0.43000001
-2.0309999 9.3050003 -1.193 0.41999999
-2.052 9.2639999 -1.188 0.34
-2.072 9.2819996 -1.191 0.34999999
-2.102 9.2810001 -1.192 0.41999999
-2.1140001 9.2019997 -1.181 0.41
-2.148 9.2159996 -1.184 0.40000001
-2.188 9.2530003 -1.191 0.38
-2.2119999 9.2270002 -1.188 0.38999999
-2.2490001 9.2510004 -1.193 0.36000001
-2.266 9.2589998 -1.194 0.36000001
-2.2869999 9.2209997 -1.1900001 0.37
-2.3210001 9.2329998 -1.193 0.34999999
-2.3570001 9.2550001 -1.197 0.38999999
-2.3840001 9.2379999 -1.1950001 0.38999999
-2.4100001 9.217 -1.193 0.38
-2.441 9.2189999 -1.1950001 0.40000001
-2.457 9.2189999 -1.1950001 0.38
-2.494 9.2410002 -1.2 0.34999999
-2.5280001 9.2519999 -1.2029999 0.41
-2.5369999 9.1719999 -1.192 0.38
-2.579 9.21 -1.199 0.36000001
-2.602 9.1809998 -1.196 0.34
-2.6270001 9.1610003 -1.194 0.43000001
-2.652 9.1929998 -1.199 0.34
-2.6719999 9.1540003 -1.1950001 0.47999999
-2.6989999 9.1400003 -1.194 0.38
-2.7030001 9.0500002 -1.182 0.28999999
-2.7750001 9.184 -1.2029999 0.38
-2.796 9.1499996 -1.199 0.46000001
-2.813 9.1529999 -1.201 0.36000001
-2.8469999 9.1630001 -1.2029999 0.38999999
-2.858 9.0979996 -1.1950001 0.38
-2.892 9.1040001 -1.197 0.38999999
-2.9170001 9.0830002 -1.1950001 0.38
-2.937 9.0480003 -1.191 0.38
-2.9590001 9.0200005 -1.188 0.41
-3.003 9.1070004 -1.2029999 0.33000001
-3.0239999 9.073 -1.199 0.44
-3.0680001 9.1110001 -1.206 0.46000001
-3.0840001 9.0640001 -1.2 0.38999999
-3.1129999 9.0559998 -1.201 0.44999999
-3.141 9.0439997 -1.2 0.43000001
-1.1289999 3.2190001 -0.30000001 0.090000004
-3.171 9.0380001 -1.201 0.28
-3.1659999 8.9790001 -1.193 0.14
-3.2620001 9.0679998 -1.21 0.15000001
-3.2850001 9.0430002 -1.207 0.16
-3.306 9.0139999 -1.204 0
-1.155 3.138 -0.28999999 0.11
-1.1849999 3.2030001 -0.301 0
-3.348 9.0410004 -1.21 0
-1.186 3.1730001 -0.29699999 0.13
-1.151 3.053 -0.278 0.12
-1.165 3.062 -0.28 0.14
-1.159 3.0179999 -0.27399999 0.090000004
-1.192 3.073 -0.28299999 0.15000001
-1.1900001 3.0420001 -0.27900001 0.22
-1.173 2.9849999 -0.27000001 0.11
-1.1849999 2.987 -0.271 0.14
-1.214 3.0309999 -0.27900001 0.28
-1.219 3.016 -0.27700001 0.19
-1.219 2.99 -0.27399999 0.19
-1.24 3.0139999 -0.278 0.20999999
-1.238 2.9949999 -0.27500001 0.18000001
-1.24 2.9749999 -0.273 0.17
-1.2309999 2.928 -0.266 0.14
-1.226 2.891 -0.26100001 0.14
-1.215 2.842 -0.25299999 0.17
-1.24 2.8740001 -0.259 0.30000001
-1.2460001 2.8629999 -0.25799999 0.13
-1.267 2.8989999 -0.264 0.38999999
-1.2640001 2.868 -0.25999999 0.16
-1.266 2.8499999 -0.257 0.15000001
-1.271 2.8369999 -0.25600001 0.16
-1.278 2.829 -0.255 0.28999999
-1.283 2.816 -0.25400001 0.19
-1.279 2.7850001 -0.25 0.15000001
-1.295 2.806 -0.25299999 0.13
-1.3099999 2.8169999 -0.25600001 0.15000001
-1.3049999 2.7820001 -0.25099999 0.28999999
-1.308 2.767 -0.249 0.16
-1.325 2.779 -0.252 0.38
-1.317 2.7409999 -0.24600001 0.23999999
-1.327 2.7409999 -0.24699999 0.16
-1.346 2.7690001 -0.252 0.38999999
-1.352 2.757 -0.25 0.2
-1.36 2.753 -0.25 0.15000001
-1.386 2.7820001 -0.25600001 0.13
-1.406 2.8010001 -0.25999999 0.14
-1.439 2.842 -0.26699999 0.23
-1.439 2.8310001 -0.266 0.2
-1.4579999 2.846 -0.26899999 0.2
-1.475 2.8570001 -0.27200001 0.36000001
-1.483 2.8510001 -0.271 0.23
-1.467 2.799 -0.26300001 0.16
-1.49 2.8199999 -0.26800001 0.38999999
-1.501 2.8210001 -0.26899999 0.18000001
-1.5089999 2.826 -0.27000001 0.34999999
-1.5089999 2.803 -0.26699999 0.19
-1.493 2.7539999 -0.259 0
-1.494 2.7349999 -0.257 0.13
-1.511 2.7460001 -0.25999999 0.12
-1.522 2.7449999 -0.25999999 0.14
-1.495 2.678 -0.25 0.13
-1.515 2.7030001 -0.25400001 0.15000001
-1.553 2.75 -0.26300001 0.15000001
-1.567 2.753 -0.26499999 0.41999999
-1.577 2.7520001 -0.26499999 0.18000001
-1.579 2.7349999 -0.26300001 0.38
-1.599 2.75 -0.26699999 0.18000001
-1.622 2.7690001 -0.271 0.36000001
-1.61 2.7390001 -0.266 0.2
-1.602 2.7060001 -0.26100001 0.15000001
-1.6 2.684 -0.25799999 0.16
-1.6289999 2.7119999 -0.264 0.23
-1.615 2.6700001 -0.25799999 0.18000001
-1.569 2.5780001 -0.243 0.1
-1.575 2.579 -0.243 0.15000001
-1.62 2.632 -0.25299999 0.17
-1.6619999 2.681 -0.26300001 0.16
-1.711 2.7390001 -0.27399999 0.25
-1.702 2.707 -0.26899999 0.20999999
-1.707 2.697 -0.26800001 0.17
-1.733 2.7179999 -0.273 0.40000001
-1.716 2.6819999 -0.26699999 0.19
-1.7410001 2.7030001 -0.27200001 0.36000001
-1.748 2.694 -0.271 0.22
-1.749 2.677 -0.26899999 0.2
-1.771 2.6930001 -0.273 0.38999999
-1.784 2.694 -0.27399999 0.23
-1.794 2.6900001 -0.27399999 0.27000001
-1.806 2.6989999 -0.27599999 0.23999999
-1.827 2.711 -0.27900001 0.28
-1.817 2.6789999 -0.27500001 0.2
-1.847 2.704 -0.28 0.43000001
-1.853 2.6949999 -0.28 0.23999999
-1.851 2.675 -0.27700001 0.27000001
-1.8710001 2.6849999 -0.28 0.28
-1.875 2.6819999 -0.28 0.20999999
-1.878 2.668 -0.278 0.41
-1.877 2.6489999 -0.27599999 0.25
-1.892 2.6530001 -0.278 0.2
-1.914 2.665 -0.28099999 0.40000001
-1.918 2.654 -0.28 0.25
-1.927 2.6570001 -0.28099999 0.18000001
-1.947 2.6670001 -0.28400001 0.28999999
-1.957 2.6630001 -0.285 0.2
-1.959 2.648 -0.28299999 0.15000001
-1.989 2.671 -0.28799999 0.43000001
-1.9859999 2.6489999 -0.285 0.23
-2.007 2.6600001 -0.289 0.17
-2.02 2.668 -0.29100001 0.38999999
-2.0309999 2.664 -0.29100001 0.23
-2.043 2.6630001 -0.292 0.2
-2.0899999 2.7060001 -0.301 0.41
-2.086 2.684 -0.29800001 0.23
-2.089 2.6700001 -0.29699999 0.2
-2.102 2.6689999 -0.29800001 0.28999999
-2.0999999 2.658 -0.29699999 0.20999999
-2.128 2.6760001 -0.301 0.17
-2.151 2.688 -0.30500001 0.41
-2.152 2.6719999 -0.303 0.15000001
-2.1860001 2.6960001 -0.30899999 0.41999999
-2.175 2.6659999 -0.30399999 0.23999999
-2.171 2.652 -0.30199999 0.19
-2.221 2.6949999 -0.31200001 0.41
-2.2179999 2.675 -0.30899999 0.23
-2.2249999 2.6659999 -0.30899999 0.25
-2.2390001 2.665 -0.31 0.18000001
-2.2349999 2.645 -0.308 0.44999999
-2.257 2.652 -0.31099999 0.22
-2.257 2.6440001 -0.31 0.2
-2.277 2.651 -0.31200001 0.44999999
-2.2850001 2.6440001 -0.31200001 0.23
-2.3110001 2.6559999 -0.31600001 0.20999999
-2.3199999 2.6500001 -0.31600001 0.40000001
-2.332 2.6470001 -0.317 0.16
-2.3369999 2.635 -0.31600001 0.25999999
-2.342 2.6329999 -0.317 0.19
-2.372 2.6489999 -0.32100001 0.28999999
-2.3989999 2.6619999 -0.32499999 0.27000001
-2.392 2.6389999 -0.322 0.27000001
-2.4089999 2.6400001 -0.324 0.25999999
-2.425 2.641 -0.32600001 0.27000001
-2.437 2.638 -0.32600001 0.18000001
-2.4400001 2.632 -0.32600001 0.38999999
-2.427 2.602 -0.322 0.17
-2.457 2.6170001 -0.32600001 0.25999999
-2.428 2.5710001 -0.31799999 0.18000001
-2.461 2.589 -0.324 0.19
-2.4630001 2.575 -0.322 0.23
-2.527 2.6240001 -0.33399999 0.20999999
-2.5569999 2.6470001 -0.33899999 0.16
-2.6029999 2.677 -0.347 0.44
-2.599 2.6559999 -0.345 0.20999999
-2.6129999 2.6530001 -0.34599999 0.25999999
-2.6210001 2.645 -0.34599999 0.27000001
-2.645 2.652 -0.34900001 0.25
-2.642 2.641 -0.34799999 0.23999999
-2.6459999 2.6289999 -0.347 0.23
-2.674 2.6400001 -0.35100001 0.47
-2.671 2.6199999 -0.34799999 0.18000001
-2.674 2.6059999 -0.347 0.28
-2.6949999 2.6099999 -0.34999999 0.16
-2.7190001 2.6170001 -0.35299999 0.31999999
-2.7030001 2.5940001 -0.34900001 0.19
-2.7739999 2.645 -0.36199999 0.18000001
-2.8210001 2.6719999 -0.37 0.27000001
-2.826 2.6600001 -0.36899999 0.30000001
-2.8369999 2.6530001 -0.36899999 0.28
-2.8510001 2.6500001 -0.37 0.25999999
-2.859 2.641 -0.37 0.23
-2.878 2.6500001 -0.373 0.15000001
-2.902 2.655 -0.37599999 0.16
-2.9649999 2.6949999 -0.38699999 0.12
-3.0179999 2.7249999 -0.396 0.15000001
-3.03 2.7179999 -0.396 0.14
-3.01 2.684 -0.391 0.38
-3.1400001 2.7809999 -0.41499999 0.25999999
-3.2449999 2.8629999 -0.43399999 0.11
-3.0910001 2.7119999 -0.40200001 0
-3.072 2.6789999 -0.39700001 0.13
-3.1210001 2.704 -0.405 0.20999999
-3.1300001 2.694 -0.405 0.18000001
-3.1029999 2.655 -0.398 0.25999999
-3.1110001 2.6530001 -0.39899999 0.2
-3.151 2.6700001 -0.405 0.27000001
-3.1559999 2.6570001 -0.40400001 0.20999999
-3.2349999 2.7049999 -0.41800001 0.27000001
-3.2309999 2.6849999 -0.41499999 0.18000001
-3.2609999 2.6919999 -0.41999999 0.41
-3.2620001 2.6760001 -0.41800001 0.18000001
-3.2290001 2.641 -0.41100001 0.34999999
-3.2119999 2.6110001 -0.40700001 0.16
-3.2479999 2.6229999 -0.412 0.16
-3.277 2.6289999 -0.41499999 0.15000001
-3.339 2.661 -0.426 0.28
-3.497 2.7679999 -0.45300001 0.25
-3.503 2.7539999 -0.45300001 0.16
-3.6040001 2.8239999 -0.47099999 0.38
-3.5869999 2.7920001 -0.46599999 0.2
-3.5699999 2.7620001 -0.461 0.18000001
-3.539 2.72 -0.454 0.34
-3.5610001 2.7190001 -0.456 0.19
-3.5439999 2.6889999 -0.45199999 0.18000001
-3.6240001 2.7309999 -0.465 0.20999999
-3.701 2.779 -0.47799999 0.17
-3.6559999 2.7279999 -0.46799999 0.23999999
-3.664 2.7160001 -0.46799999 0.2
-3.677 2.7079999 -0.46900001 0.20999999
-3.7149999 2.717 -0.47400001 0.25999999
-3.763 2.7349999 -0.48100001 0.18000001
-3.8080001 2.757 -0.48899999 0.22
-3.809 2.74 -0.48699999 0.2
-3.8269999 2.7349999 -0.48899999 0.16
-3.8970001 2.766 -0.5 0.28999999
-3.902 2.7509999 -0.49900001 0.16
-3.9400001 2.7590001 -0.505 0.31999999
-4.0089998 2.7880001 -0.51499999 0.19
-4.0890002 2.8340001 -0.52899998 0.16
-4.263 2.9330001 -0.55800003 0.13
-4.1620002 2.845 -0.53799999 0.14
-4.171 2.832 -0.53799999 0.34
-4.1209998 2.78 -0.528 0.16
-4.4710002 2.993 -0.588 0.36000001
-4.5910001 3.062 -0.60799998 0.18000001
-4.401 2.9170001 -0.57300001 0.20999999
-4.5910001 3.02 -0.60500002 0.47
-4.3410001 2.8380001 -0.55900002 0.18000001
-4.8639998 3.155 -0.64899999 0.2
-4.585 2.9560001 -0.59899998 0.25
-4.3990002 2.8169999 -0.565 0.27000001
-4.3610001 2.7739999 -0.55699998 0.27000001
-4.4120002 2.7969999 -0.565 0.27000001
-4.4089999 2.7750001 -0.56300002 0.28999999
-4.4530001 2.783 -0.56900001 0.23
-4.5799999 2.842 -0.58899999 0.28999999
-4.4809999 2.7620001 -0.57099998 0.31999999
-4.6030002 2.816 -0.58999997 0.28999999
-4.5599999 2.78 -0.58200002 0.28999999
-4.5619998 2.7620001 -0.58099997 0.27000001
-4.5809999 2.7539999 -0.583 0.2
-4.572 2.7290001 -0.57999998 0.36000001
-4.5599999 2.7030001 -0.57599998 0.25999999
-4.5359998 2.6700001 -0.57099998 0.2
-4.6539998 2.7190001 -0.58899999 0.46000001
-4.7839999 2.783 -0.61000001 0.19
-4.671 2.6989999 -0.58999997 0.27000001
-4.6890001 2.6900001 -0.59200001 0.31999999
-4.7290001 2.6930001 -0.597 0.25
-4.7129998 2.664 -0.59299999 0.19
-4.8099999 2.698 -0.60699999 0.47999999
-4.9250002 2.7520001 -0.62599999 0.25
-4.8990002 2.717 -0.62 0.25
-4.9229999 2.711 -0.62300003 0.18000001
-5.0110002 2.7379999 -0.63599998 0.43000001
-5.0500002 2.7390001 -0.64099997 0.23
-5.0440001 2.7149999 -0.639 0.33000001
-9.7220001 5.1469998 -1.409 0.40000001
-6.2410002 3.289 -0.83200002 0.27000001
-6.263 3.276 -0.83399999 0.46000001
-6.3559999 3.299 -0.84799999 0.31
-6.3369999 3.2639999 -0.84299999 0.28999999
-6.3449998 3.243 -0.84299999 0.36000001
-6.2459998 3.168 -0.82499999 0.38999999
-6.2670002 3.1659999 -0.82700002 0.27000001
-6.198 3.108 -0.815 0.38999999
-6.2030001 3.086 -0.81400001 0.34
-6.2020001 3.0610001 -0.81199998 0.41999999
-6.2199998 3.046 -0.81400001 0.41
-6.2690001 3.0450001 -0.81999999 0.34999999
-6.3670001 3.0799999 -0.83499998 0.23999999
-6.2049999 2.9779999 -0.80699998 0.38999999
-6.1890001 2.947 -0.80299997 0.33000001
-6.1729999 2.915 -0.79900002 0.38999999
-6.1999998 2.904 -0.80199999 0.34999999
-6.2220001 2.891 -0.80400002 0.40000001
-6.184 2.8499999 -0.796 0.31
-6.1539998 2.825 -0.79100001 0.31
-6.2280002 2.8340001 -0.801 0.31999999
-6.2639999 2.8269999 -0.80599999 0.25
-6.184 2.7679999 -0.792 0.41
-6.3740001 2.8280001 -0.81999999 0.27000001
-6.2049999 2.7309999 -0.792 0.38
-6.1700001 2.6919999 -0.78500003 0.41
-6.303 2.7379999 -0.80599999 0.20999999
-6.2189999 2.6789999 -0.79100001 0.34
-6.2059999 2.6500001 -0.78799999 0.36000001
-6.223 2.6340001 -0.78899997 0.23999999
-6.2220001 2.6110001 -0.78799999 0.44
-6.2360001 2.5940001 -0.78799999 0.23
-6.1890001 2.552 -0.77999997 0.34999999
-6.2059999 2.5469999 -0.78200001 0.34999999
-6.2399998 2.5380001 -0.78600001 0.37
-6.2249999 2.5090001 -0.78200001 0.25
-6.23 2.4879999 -0.78200001 0.34
-6.2080002 2.457 -0.77700001 0.34
-6.2670002 2.4579999 -0.78500003 0.46000001
-6.3470001 2.4660001 -0.796 0.25
-6.3920002 2.471 -0.80299997 0.37
-6.5120001 2.494 -0.81999999 0.25
-6.4850001 2.46 -0.815 0.33000001
-6.5960002 2.4790001 -0.83099997 0.2
-6.8590002 2.5510001 -0.87099999 0.38
-6.7810001 2.4990001 -0.85699999 0.23
-6.9390001 2.5439999 -0.88099998 0.33000001
-6.9860001 2.536 -0.88800001 0.34
-7.0970001 2.5510001 -0.903 0.28999999
-7.1220002 2.5339999 -0.90600002 0.5
-7.4770002 2.6329999 -0.95999998 0.25
-7.4850001 2.6099999 -0.95999998 0.31999999
-7.4349999 2.579 -0.95099998 0.28
-7.8200002 2.684 -1.01 0.25
-7.4640002 2.5369999 -0.95300001 0.31
-7.8610001 2.6429999 -1.013 0.27000001
-7.6269999 2.5380001 -0.97600001 0.37
-7.6479998 2.5190001 -0.97799999 0.41
-7.6919999 2.506 -0.98400003 0.54000002
-8.0570002 2.6099999 -1.039 0.31999999
-8.2110004 2.631 -1.061 0.28
-7.855 2.4909999 -1.005 0.23
-8.5500002 2.6789999 -1.1109999 0.28999999
-8.6820002 2.6900001 -1.1289999 0.28999999
-8.3950005 2.573 -1.084 0.38999999
-8.4960003 2.575 -1.099 0.49000001
-8.5769997 2.585 -1.11 0.34999999
-8.9370003 2.661 -1.164 0.31999999
-9.2379999 2.7179999 -1.2079999 0.31999999
-8.6029997 2.5039999 -1.1109999 0.25
-9.0909996 2.6140001 -1.184 0.38999999
-9.1490002 2.599 -1.191 0.33000001
-9.5799999 2.688 -1.255 0.31999999
-9.8400002 2.743 -1.294 0.37
-10.366 2.8529999 -1.372 0.38999999
-9.6850004 2.635 -1.268 0.25999999
-10.043 2.698 -1.321 0.43000001
-10.18 2.7 -1.34 0.38
-11.901 3.112 -1.599 0.27000001
-11.965 3.108 -1.608 0.31999999
-11.919 3.0569999 -1.599 0.38
-11.988 3.0339999 -1.608 0.47
-11.955 2.9860001 -1.602 0.38999999
-12.02 2.9619999 -1.61 0.44999999
-12.232 2.973 -1.641 0.44999999
-11.844 2.8399999 -1.581 0.44999999
-11.849 2.822 -1.581 0.51999998
-12.185 2.8610001 -1.63 0.34
-11.791 2.73 -1.5700001 0.55000001
-11.79 2.691 -1.568 0.55000001
-11.914 2.6789999 -1.586 0.38
-11.867 2.6300001 -1.577 0.38999999
-11.813 2.579 -1.568 0.46000001
-11.887 2.575 -1.5779999 0.44999999
-11.968 2.5539999 -1.589 0.38999999
-12.36 2.596 -1.647 0.43000001
-12.506 2.585 -1.6670001 0.31999999
-12.667 2.5769999 -1.6900001 0.28999999
-12.883 2.5780001 -1.721 0.23
-13.131 2.6059999 -1.757 0.49000001
-13.246 2.585 -1.773 0.43000001
-13.319 2.556 -1.783 0.41
