# .PCD v0.7 - Point Cloud Data file format
VERSION 0.7
FIELDS x y z intensity
SIZE 4 4 4 4
TYPE F F F F
COUNT 1 1 1 1
WIDTH 1383
HEIGHT 1
VIEWPOINT 0 0 0 1 0 0 0
POINTS 1383
DATA ascii
-30.052 5.0970001 -1.895 0.47
-30.075001 5.0040002 -1.896 0.23
-30.115999 4.9130001 -1.897 0.14
-30.1 4.8140001 -1.895 0.43000001
-30.058001 4.71 -1.891 0.23999999
-30.282 4.6479998 -1.906 0.16
-30.344 4.6090002 -1.91 0.44
-30.554001 4.5419998 -1.923 0.23999999
-30.865999 4.4899998 -1.944 0.19
-30.834999 4.3870001 -1.941 0.38999999
-30.700001 4.2690001 -1.9299999 0.23999999
-30.658001 4.165 -1.927 0.18000001
-30.548 4.052 -1.918 0.30000001
-30.656 4.0180001 -1.925 0.18000001
-30.915001 3.9530001 -1.942 0.2
-30.823 3.8429999 -1.9349999 0.36000001
-31.226999 3.7939999 -1.962 0.16
-31.916 3.776 -2.0090001 0.16
-32.141998 3.701 -2.0239999 0.17
-32.284 3.615 -2.033 0.14
-32.259998 3.5610001 -2.0309999 0.44999999
-31.802999 3.4089999 -1.999 0.19
-31.802 3.3080001 -1.998 0.17
-31.707001 3.197 -1.99 0.12
-31.931 3.119 -2.0050001 0.19
-32.747002 3.095 -2.0610001 0.14
-32.615002 3.0309999 -2.052 0.13
-32.945999 2.957 -2.0739999 0.14
-33.155998 2.8710001 -2.0880001 0.28
-33.228001 2.773 -2.092 0.19
-33.467999 2.687 -2.108 0.31999999
-33.386002 2.575 -2.102 0.2
-32.993999 2.4400001 -2.0739999 0.14
-33.105999 2.3959999 -2.082 0.27000001
-33.720001 2.335 -2.1229999 0.15000001
-33.831001 2.2360001 -2.131 0.33000001
-33.931 2.135 -2.1370001 0.2
-33.902 2.026 -2.135 0.2
-34.388 1.839 -2.1670001 0.19
-34.535 1.793 -2.177 0.15000001
-33.215 1.618 -2.086 0.30000001
-34.389999 1.568 -2.1659999 0.2
-34.433998 1.462 -2.1689999 0.18000001
-25.228001 0.98500001 -1.535 0
-25.233 0.90600002 -1.535 0.12
-34.159 1.128 -2.1489999 0.17
-33.796001 1.062 -2.1240001 0.13
-34.268002 0.97000003 -2.1570001 0.16
-34.325001 0.86400002 -2.1600001 0.27000001
-34.361 0.75599998 -2.1630001 0.25
-34.626999 0.65399998 -2.181 0.34
-34.678001 0.546 -2.184 0.22
-34.790001 0.43799999 -2.1919999 0.28999999
-35.094002 0.38699999 -2.2130001 0.1
-34.966999 0.27599999 -2.204 0.2
-34.877998 0.16500001 -2.198 0.11
-34.939999 0.056000002 -2.2019999 0.18000001
-32.566002 -0.052000001 -2.0380001 0.19
-33.140999 -0.26100001 -2.0780001 0.41999999
-33.292999 -0.31400001 -2.089 0.25
-33.147999 -0.417 -2.079 0.23
-33.16 -0.52100003 -2.0799999 0.17
-33.23 -0.62699997 -2.085 0.46000001
-33.147999 -0.72899997 -2.079 0.22
-33.771999 -0.84899998 -2.122 0.25
-33.408001 -0.89200002 -2.0969999 0.17
-33.722 -1.007 -2.119 0.16
-33.942001 -1.12 -2.1340001 0.31999999
-33.958 -1.227 -2.1359999 0.19
-34.099998 -1.339 -2.1459999 0.33000001
-33.855999 -1.436 -2.1289999 0.18000001
-33.793999 -1.54 -2.125 0.37
-34.820999 -1.696 -2.1960001 0.16
-35.206001 -1.825 -2.223 0.18000001
-35.313999 -1.942 -2.2309999 0.22
-35.418999 -2.059 -2.2390001 0.17
-35.405998 -2.1140001 -2.2379999 0.31999999
-35.147999 -2.21 -2.221 0.23
-35.063 -2.3150001 -2.2160001 0.12
-34.93 -2.4170001 -2.207 0.17
-34.231998 -2.477 -2.1589999 0.11
-34.646 -2.6159999 -2.188 0.14
-34.933998 -2.7479999 -2.2090001 0.20999999
-35.033001 -2.8110001 -2.2160001 0.18000001
-35.080002 -2.9260001 -2.22 0.38999999
-34.997002 -3.03 -2.2149999 0.27000001
-34.733002 -3.1170001 -2.197 0.2
-34.860001 -3.2390001 -2.207 0.15000001
-35.153 -3.3770001 -2.2279999 0.34999999
-35.337002 -3.507 -2.2409999 0.2
-35.518002 -3.5810001 -2.2539999 0.23
-35.557999 -3.698 -2.2579999 0.2
-35.772999 -3.8340001 -2.273 0.22
-35.883999 -3.96 -2.2820001 0.20999999
-35.915001 -4.0770001 -2.2850001 0.2
-36.165001 -4.2210002 -2.303 0.41999999
-36.330002 -4.355 -2.3150001 0.23999999
-36.462002 -4.4289999 -2.325 0.16
-36.641998 -4.5679998 -2.3380001 0.44
-36.841 -4.71 -2.3529999 0.25
-36.804001 -4.823 -2.352 0.2
-36.965 -4.9619999 -2.3640001 0.38999999
-37.168999 -5.1079998 -2.3789999 0.19
-37.220001 -5.2340002 -2.3840001 0
-37.250999 -5.2979999 -2.3870001 0
-37.300999 -5.4250002 -2.391 0
-37.32 -5.5469999 -2.3940001 0
-37.365002 -5.6739998 -2.398 0
-37.408001 -5.8010001 -2.402 0
-37.446999 -5.928 -2.4059999 0
-37.479 -5.993 -2.4089999 0
-37.488998 -6.1149998 -2.411 0
-37.508999 -6.2399998 -2.414 0
-37.547001 -6.3670001 -2.418 0
-37.603001 -6.4980001 -2.4230001 0
-37.662998 -6.6300001 -2.4289999 0
-37.729 -6.7639999 -2.4349999 0
-37.804001 -6.8390002 -2.441 0
-37.882999 -6.9759998 -2.448 0
-37.938999 -7.1100001 -2.454 0
-37.987 -7.2420001 -2.4590001 0
-38.027 -7.3740001 -2.4630001 0
-38.091999 -7.5100002 -2.4690001 0
-38.16 -7.6479998 -2.4760001 0.07
-38.202999 -7.7189999 -2.4790001 0.079999998
-38.303001 -7.8649998 -2.4879999 0.079999998
-38.445999 -8.0200005 -2.5 0.14
-38.561001 -8.1709995 -2.51 0.090000004
-38.719002 -8.3310003 -2.523 0.15000001
-38.904999 -8.4989996 -2.5380001 0.1
-39.116001 -8.6739998 -2.5550001 0.16
-39.365002 -8.7939997 -2.573 0.1
-39.594002 -8.9750004 -2.5910001 0.15000001
-39.791 -9.151 -2.6070001 0.090000004
-40.021 -9.3369999 -2.625 0.14
-40.248001 -9.5229998 -2.6429999 0.090000004
-40.464001 -9.7080002 -2.661 0.090000004
-40.713001 -9.835 -2.6800001 0
-40.902 -10.017 -2.6949999 0
-41.036999 -10.187 -2.707 0
-41.070999 -10.332 -2.7119999 0
-41.087002 -10.473 -2.7149999 0
-41.134998 -10.623 -2.721 0
-41.200001 -10.778 -2.7279999 0
-41.277 -10.868 -2.7349999 0
-41.360001 -11.029 -2.743 0
-41.414001 -11.182 -2.7490001 0
-41.493999 -11.344 -2.7579999 0
-41.549 -11.499 -2.7639999 0
-41.611 -11.657 -2.7709999 0
-41.666 -11.814 -2.7780001 0
-41.747002 -11.908 -2.7850001 0
-41.827999 -12.073 -2.793 0
-41.875 -12.229 -2.799 0
-41.919998 -12.385 -2.8050001 0
-41.973 -12.544 -2.812 0
-42.042 -12.709 -2.8199999 0
-42.09 -12.868 -2.826 0
-42.181999 -12.968 -2.8340001 0
-42.243999 -13.133 -2.842 0
-42.314999 -13.3 -2.8499999 0
-42.355 -13.459 -2.8559999 0
-42.445 -13.635 -2.865 0
-42.500999 -13.8 -2.872 0
-42.561001 -13.968 -2.8800001 0
-42.646 -14.07 -2.888 0
-42.700001 -14.236 -2.895 0
-42.797001 -14.418 -2.905 0
-42.851002 -14.586 -2.9119999 0
-42.912998 -14.758 -2.9200001 0
-42.992001 -14.936 -2.9289999 0
-43.051998 -15.033 -2.9349999 0
-43.108002 -15.204 -2.9430001 0
-43.167 -15.378 -2.951 0
-43.25 -15.561 -2.96 0
-43.289001 -15.728 -2.967 0
-43.326 -15.896 -2.973 0
-43.414001 -16.083 -2.983 0
-43.493 -16.190001 -2.9909999 0
-43.547001 -16.365999 -2.9990001 0
-43.606998 -16.545 -3.007 0
-43.675999 -16.728001 -3.016 0
-43.737 -16.909 -3.0239999 0.039999999
-34.806 -13.714 -2.372 0
-43.924 -17.379 -3.0480001 0
-43.977001 -17.559999 -3.056 0
-44.009998 -17.733999 -3.062 0
-44.058998 -17.915001 -3.0699999 0
-44.125 -18.103001 -3.079 0
-44.171001 -18.284 -3.0869999 0
-44.223999 -18.469 -3.095 0
-44.305 -18.584999 -3.1029999 0
-44.362 -18.773001 -3.112 0
-44.405998 -18.955999 -3.1199999 0
-44.451 -19.139999 -3.128 0
-44.491001 -19.323 -3.135 0
-44.537998 -19.51 -3.1429999 0
-44.601002 -19.705 -3.1530001 0
-44.660999 -19.815001 -3.1600001 0
-44.728001 -20.013 -3.1689999 0
-44.765999 -20.198999 -3.177 0
-44.793999 -20.381001 -3.184 0
-44.853001 -20.577999 -3.1930001 0
-44.890999 -20.767 -3.201 0
-39.092999 -18.163 -2.7639999 0
-38.779999 -18.166 -2.744 0.07
-39.52 -18.664 -2.8050001 0.20999999
-39.546001 -18.827999 -2.8110001 0
-39.620998 -19.017 -2.822 0
-43.764 -21.171 -3.1429999 0
-44.165001 -21.537001 -3.1789999 0
-39.495998 -19.34 -2.8239999 0
-42.041 -20.747999 -3.023 0
-42.117001 -20.950001 -3.0339999 0
-42.234001 -21.174 -3.0480001 0
-42.305 -21.375999 -3.059 0
-41.804001 -21.288 -3.026 0
-42.388 -21.67 -3.073 0
-42.34 -21.813 -3.075 0
-42.466 -22.047001 -3.0899999 0
-42.504002 -22.236 -3.098 0
-42.557999 -22.434999 -3.108 0
-42.700001 -22.681 -3.1240001 0
-42.799999 -22.907 -3.138 0
-42.764999 -22.975 -3.138 0
-42.630001 -23.075001 -3.1329999 0
-42.645 -23.257 -3.1400001 0
-41.855999 -22.997999 -3.0840001 0
-41.977001 -23.236 -3.099 0
-42.166 -23.514 -3.1199999 0
-42.631001 -23.948999 -3.1619999 0
-42.991001 -24.24 -3.194 0
-43.076 -24.466 -3.2060001 0
-42.667 -24.412001 -3.1800001 0
-42.092999 -24.26 -3.141 0
-42.651001 -24.759001 -3.191 0
-42.827999 -25.042 -3.211 0
-42.229 -24.871 -3.1700001 0
-42.441002 -25.084999 -3.1900001 0
-42.367001 -25.222 -3.1900001 0
-42.580002 -25.530001 -3.214 0
-42.807999 -25.849001 -3.2379999 0
-43.307999 -26.337 -3.2850001 0
-43.473 -26.624001 -3.3050001 0
-44.766998 -27.610001 -3.4170001 0
-44.764 -27.705 -3.4200001 0
-44.276001 -27.596001 -3.3870001 0
-44.786999 -28.110001 -3.4360001 0
-45.037998 -28.464001 -3.464 0
-45.423 -28.908001 -3.5020001 0
-43.787998 -28.062 -3.3759999 0
-43.676998 -28.184999 -3.3740001 0
-45.036999 -29.162001 -3.4890001 0
-44.962002 -29.313999 -3.4909999 0
-45.060001 -29.58 -3.506 0
-45.182999 -29.864 -3.5239999 0
-45.266998 -30.124001 -3.539 0
-45.104 -30.221001 -3.533 0
-44.820999 -30.134001 -3.5139999 0
-44.759998 -30.297001 -3.517 0
-44.724998 -30.479 -3.5220001 0
-45.522999 -31.231001 -3.596 0
-45.438 -31.382999 -3.5969999 0
-45.703999 -31.780001 -3.628 0
-45.622002 -31.936001 -3.6289999 0
-45.490002 -31.950001 -3.6229999 0
-46.306999 -32.741001 -3.7 0
-46.376999 -33.008999 -3.714 0
-46.417 -33.257999 -3.727 0
-46.278 -33.379002 -3.724 0
-47.174999 -34.25 -3.809 0
-47.146999 -34.457001 -3.816 0
-47.160999 -34.581001 -3.8210001 0
-47.431 -35.007999 -3.8540001 0
-47.419998 -35.230999 -3.862 0
-47.261002 -35.344002 -3.858 0
-47.601002 -35.832001 -3.8970001 0
-47.986 -36.358002 -3.9400001 0
-48.213001 -36.648998 -3.9649999 0
-48.171001 -36.855999 -3.971 0
-48.269001 -37.172001 -3.9890001 0
-49.862999 -38.648998 -4.138 0
-49.973999 -38.987 -4.1589999 0
-50.762001 -39.858002 -4.2379999 0
-50.839001 -40.176998 -4.256 0
-51.346001 -40.709 -4.3060002 0
-51.458 -41.061001 -4.3270001 0
-51.780998 -41.584999 -4.3670001 0
-51.687 -41.777 -4.3699999 0
-52.000999 -42.301998 -4.4099998 0
-52.057999 -42.620998 -4.427 0
-52.368999 -43.150002 -4.467 0
-52.625999 -43.500999 -4.4959998 0
-52.728001 -43.865002 -4.5170002 0
-52.707001 -44.127998 -4.527 0
-52.546001 -44.275002 -4.5250001 0
-52.110001 -44.188 -4.4990001 0
-52.519001 -44.819 -4.5479999 0
-52.467999 -44.917999 -4.5500002 0
-52.923 -45.596001 -4.6040001 0
-52.869999 -45.84 -4.612 0
-52.709 -45.992001 -4.6110001 0
-52.816002 -46.377998 -4.6339998 0
-52.685001 -46.556999 -4.6350002 0
-52.620998 -46.794998 -4.6430001 0
-52.592999 -46.918999 -4.6469998 0
-52.493 -47.126999 -4.651 0
-52.463001 -47.397999 -4.6620002 0
-52.326 -47.574001 -4.664 0
-52.162998 -47.726002 -4.6620002 0
-52.106998 -47.976002 -4.671 0
-52.032001 -48.209999 -4.678 0
-51.868 -48.209999 -4.6700001 0
-51.736 -48.389999 -4.6719999 0
-51.623001 -48.59 -4.6750002 0
-51.487 -48.768002 -4.677 0
-51.435001 -49.026001 -4.6869998 0
-51.382999 -49.285 -4.6960001 0
-51.261002 -49.478001 -4.6999998 0
-51.255001 -49.627998 -4.7069998 0
-51.120998 -49.811001 -4.7090001 0
-50.909 -49.917 -4.7030001 0
-50.785999 -50.110001 -4.7069998 0
-50.722 -50.362 -4.7160001 0
-50.601002 -50.560001 -4.7189999 0
-50.553001 -50.669998 -4.7220001 0
-33.619999 -33.922001 -3.0840001 0
-33.562 -34.077 -3.089 0
-50.055 -51.125999 -4.7210002 0
-33.598999 -34.546001 -3.1140001 0.07
-33.594002 -34.758999 -3.1240001 0
-33.462002 -34.84 -3.1210001 0
-33.381001 -34.865002 -3.119 0
-33.172001 -34.866001 -3.109 0
-45.435001 -48.042999 -4.3470001 0
-45.752998 -48.683998 -4.3940001 0
-45.587002 -48.813999 -4.3930001 0
-44.867001 -48.348 -4.336 0
-44.410999 -48.158001 -4.3049998 0
-44.332001 -48.224998 -4.3049998 0
-30.246 -33.331001 -2.895 0.30000001
-30.125 -33.408001 -2.8929999 0.27000001
-30.042999 -33.528999 -2.895 0.2
-29.975 -33.665001 -2.8989999 0.18000001
-29.863001 -33.645 -2.8929999 0
-29.743999 -33.723999 -2.892 0
-29.676001 -33.861 -2.8959999 0.07
-32.130001 -36.890999 -3.164 0
-32.036999 -37.019001 -3.1659999 0.059999999
-32.487 -37.777 -3.2260001 0.079999998
-32.283001 -37.778999 -3.217 0
-41.397999 -48.589001 -4.1900001 0.039999999
-29.455 -34.804001 -2.9349999 0
-29.334999 -34.883999 -2.934 0
-29.275 -35.035999 -2.9389999 0
-32.247002 -38.834 -3.2709999 0
-32.146 -38.962002 -3.273 0
-40.557999 -49.460999 -4.1989999 0
-40.449001 -49.487999 -4.1950002 0
-29.011 -35.734001 -2.9649999 0
-28.709999 -35.59 -2.944 0
-28.475 -35.528 -2.931 0
-28.674999 -36.007 -2.9649999 0
-40.411999 -51.056999 -4.2779999 0
-43.182999 -54.909 -4.6040001 0
-40.528999 -51.703999 -4.3179998 0
-40.380001 -51.848 -4.3189998 0
-21.351 -27.613001 -2.1989999 0
-21.235001 -27.642 -2.1960001 0.079999998
-21.813 -28.577999 -2.2709999 0.18000001
-21.652 -28.552999 -2.263 0
-21.531 -28.58 -2.26 0.1
-21.287001 -28.349001 -2.237 0.28
-20.622 -27.645 -2.171 0.16
-20.579 -27.768999 -2.1760001 0.15000001
-20.691 -28.103001 -2.1989999 0.14
-20.476999 -27.997 -2.184 0.34
-20.441999 -28.134001 -2.191 0.15000001
-20.785999 -28.701 -2.2360001 0.30000001
-20.855 -28.988001 -2.2550001 0.19
-21.214001 -29.683001 -2.3080001 0.22
-21.362 -30.087 -2.3369999 0.17
-21.75 -30.839001 -2.3940001 0.31999999
-21.67 -30.93 -2.3959999 0
-21.511999 -30.910999 -2.3889999 0.12
-21.705999 -31.294001 -2.418 0.16
-21.666 -31.447001 -2.425 0.15000001
-21.628 -31.604 -2.4330001 0.34999999
-21.509001 -31.642 -2.4300001 0.25
-21.422001 -31.73 -2.4319999 0.19
-21.354 -31.843 -2.4360001 0.15000001
-21.393 -32.008999 -2.447 0.33000001
-21.200001 -31.938 -2.4349999 0.20999999
-21.016001 -31.878 -2.425 0.14
-21.006001 -32.081001 -2.4360001 0.36000001
-18.955 -29.152 -2.1900001 0.27000001
-20.757 -32.139999 -2.4300001 0.16
-18.691999 -29.148001 -2.1800001 0.34999999
-18.836 -29.473 -2.204 0.16
-18.889999 -29.763 -2.223 0.25999999
-18.356001 -29.125 -2.1670001 0.47999999
-18.612 -29.737 -2.2119999 0.11
-18.135 -29.179001 -2.1619999 0.13
-18.594 -30.127001 -2.234 0.25
-18.493999 -30.177 -2.233 0.27000001
-18.427 -30.173 -2.23 0.18000001
-18.166 -29.958 -2.2079999 0.12
-18.066 -30.004999 -2.2079999 0.13
-19.768999 -33.062 -2.448 0
-19.875999 -33.479 -2.477 0.1
-18.316999 -31.079 -2.28 0.20999999
-18.263 -31.1 -2.279 0.31
-18.415001 -31.584 -2.313 0.19
-18.318001 -31.646999 -2.3139999 0.23
-18.337 -31.91 -2.3299999 0.14
-18.163 -31.837999 -2.3199999 0.14
-18.033001 -31.843 -2.316 0.31999999
-17.819 -31.697001 -2.3 0.22
-17.804001 -31.785999 -2.3050001 0.14
-17.402 -31.299999 -2.2620001 0
-17.615 -31.917999 -2.306 0.11
-18.951 -34.59 -2.5120001 0.19
-18.812 -34.594002 -2.507 0
-17.743999 -32.880001 -2.369 0
-21.489 -40.106998 -2.928 0
-21.285 -39.876999 -2.908 0.12
-16.292999 -30.768999 -2.1930001 0.28
-16.160999 -30.754999 -2.188 0.2
-8.198 -15.868 -1.027 0.41
-8.0930004 -15.787 -1.018 0.27000001
-8.0550003 -15.775 -1.017 0.51999998
-7.9770002 -15.744 -1.012 0.37
-20.636999 -40.957001 -2.9530001 0.1
-20.362 -40.730999 -2.931 0.079999998
-23.021999 -46.407001 -3.362 0
-20.357 -41.366001 -2.97 0
-22.976 -47.053001 -3.401 0
-7.888 -16.257999 -1.041 0
-7.7859998 -16.438999 -1.049 0.41999999
-7.7290001 -16.452999 -1.049 0.38999999
-7.5879998 -16.287001 -1.034 0.31
-7.6240001 -16.497 -1.048 0.52999997
-10.342 -22.451 -1.499 0.17
-10.089 -22.084 -1.4680001 0.43000001
-9.934 -21.927 -1.454 0.23
-9.8000002 -21.813999 -1.443 0.23
-7.1090002 -15.975 -1.001 0.44999999
-7.0310001 -15.935 -0.99599999 0.38999999
-7 -15.999 -0.99900001 0.41
-6.9650002 -15.988 -0.99800003 0.34
-6.9359999 -16.059999 -1.001 0.44
-6.9190001 -16.16 -1.007 0.23
-6.8509998 -16.139999 -1.0039999 0.60000002
-6.9790001 -16.586 -1.036 0.25
-6.763 -16.215 -1.007 0.25
-6.7280002 -16.202 -1.005 0.58999997
-6.6739998 -16.216 -1.0039999 0.36000001
-6.5700002 -16.108999 -0.995 0.22
-6.4679999 -16.002001 -0.98500001 0.55000001
-6.4510002 -16.106001 -0.99199998 0.25
-6.4000001 -16.124001 -0.991 0.63
-6.401 -16.275999 -1.001 0.28999999
-6.3969998 -16.34 -1.005 0.30000001
-6.3270001 -16.311001 -1.002 0.38
-6.2389998 -16.238001 -0.995 0.41
-6.1859999 -16.252001 -0.99400002 0.41
-6.1279998 -16.253 -0.99299997 0.34
-6.085 -16.294001 -0.995 0.64999998
-8.6850004 -23.336 -1.511 0.34999999
-6.0510001 -16.438999 -1.003 0.33000001
-8.6199999 -23.611 -1.527 0.23999999
-5.9450002 -16.469 -1.003 0.16
-5.8150001 -16.27 -0.98699999 0.25999999
-5.7529998 -16.256001 -0.98400003 0.63
-5.6750002 -16.197001 -0.97899997 0.15000001
-5.6560001 -16.226999 -0.98000002 0.31999999
-5.5830002 -16.18 -0.97600001 0.58999997
-5.559 -16.443001 -0.99199998 0.63
-5.5149999 -16.483999 -0.99400002 0.28
-5.395 -16.296 -0.97899997 0.28
-5.3639998 -16.288 -0.97799999 0.55000001
-5.3239999 -16.341 -0.98000002 0.31
-5.2579999 -16.309999 -0.977 0.49000001
-5.2610002 -16.495001 -0.98900002 0
-13.438 -42.462002 -2.862 0.12
-13.356 -42.668999 -2.8740001 0.1
-13.054 -42.169998 -2.835 0.18000001
-12.389 -40.25 -2.6949999 0
-12.817 -42.105 -2.826 0.090000004
-12.272 -40.777 -2.7279999 0.18000001
-5.9629998 -20.322001 -1.255 0.31999999
-5.901 -20.344 -1.255 0.46000001
-5.2160001 -18.208 -1.101 0.31
-5.1939998 -18.239 -1.103 0.27000001
-5.7459998 -20.407 -1.257 0.54000002
-5.6820002 -20.429001 -1.257 0.25999999
-5.026 -18.302 -1.104 0.40000001
-5.2449999 -19.330999 -1.176 0.28999999
-5.2129998 -19.452999 -1.184 0.47999999
-5.1880002 -19.606001 -1.193 0.25
-5.4229999 -20.618999 -1.265 0
-10.929 -41.985001 -2.783 0.14
-4.7509999 -18.547001 -1.115 0.12
-5.4980001 -21.729 -1.34 0.2
-5.4190001 -21.705999 -1.337 0.31
-5.3449998 -21.697001 -1.335 0.50999999
-5.303 -21.677 -1.3329999 0.28999999
-5.2309999 -21.677999 -1.332 0.31999999
-5.171 -21.725 -1.334 0.41
-5.1149998 -21.794001 -1.3380001 0.14
-9.2550001 -39.903 -2.6159999 0.079999998
-9.1569996 -40.051998 -2.625 0.15000001
-9.0480003 -40.153 -2.6300001 0.17
-4.8330002 -21.66 -1.325 0.16
-4.7480001 -21.601 -1.3200001 0.38
-4.665 -21.542999 -1.314 0.38999999
-4.5910001 -21.531 -1.313 0.36000001
-4.5110002 -21.483999 -1.308 0.31
-4.4299998 -21.438 -1.304 0.34999999
-4.3520002 -21.396999 -1.3 0.38
-4.309 -21.361 -1.2970001 0.40000001
-4.237 -21.347 -1.295 0.36000001
-4.1680002 -21.348 -1.294 0.28
-4.145 -21.593 -1.311 0.25999999
-4.092 -21.681999 -1.316 0.38999999
-4.027 -21.709999 -1.317 0.33000001
-3.9630001 -21.75 -1.319 0.34999999
-3.9389999 -21.809999 -1.323 0.49000001
-3.937 -22.193001 -1.349 0.23
-3.8729999 -22.239 -1.351 0.13
-3.8150001 -22.322001 -1.3559999 0.55000001
-4.323 -25.754999 -1.595 0.16
-4.2509999 -25.825001 -1.599 0.22
-4.2319999 -25.964001 -1.608 0.36000001
-3.55 -22.243999 -1.348 0.37
-3.503 -22.400999 -1.358 0.38
-5.783 -37.637001 -2.418 0.25
-5.724 -38.048 -2.4449999 0.16
-3.7709999 -25.667999 -1.5829999 0.28
-3.7060001 -25.792 -1.591 0.41
-3.635 -25.583 -1.576 0.37
-3.073 -22.153999 -1.337 0.18000001
-3 -22.134001 -1.335 0.38
-2.9289999 -22.136999 -1.334 0.40000001
-2.859 -22.142 -1.334 0.31999999
-2.7839999 -22.104 -1.331 0.55000001
-3.1930001 -25.643999 -1.576 0.2
-3.102 -25.57 -1.5700001 0.41999999
-3.0109999 -25.493 -1.564 0.28
-4.316 -37.444 -2.391 0.14
-4.1700001 -37.210999 -2.3740001 0.18000001
-4.0560002 -37.245998 -2.3759999 0.16
-3.951 -37.369999 -2.3829999 0.16
-4.04 -38.791 -2.4809999 0.17
-3.928 -38.900002 -2.4879999 0.11
-1.682 -17.919001 -1.036 0.30000001
-1.624 -17.913 -1.035 0.25
-1.564 -17.874001 -1.0319999 0.33000001
-1.541 -17.926001 -1.036 0.44999999
-1.467 -17.732 -1.022 0.38999999
-1.4349999 -18.025 -1.0420001 0.31999999
-1.377 -18.007999 -1.04 0.58999997
-1.2640001 -18.024 -1.041 0.56999999
-1.188 -17.745001 -1.022 0.36000001
-1.164 -17.806999 -1.026 0.22
-1.1 -17.687 -1.017 0.52999997
-1.045 -17.688 -1.017 0.36000001
-0.98199999 -17.572001 -1.0089999 0.41
-0.92900002 -17.607 -1.011 0.5
-0.87599999 -17.646999 -1.0140001 0.28
-0.82099998 -17.664 -1.015 0.38999999
-0.796 -17.731001 -1.0190001 0.31
-0.73500001 -17.608 -1.01 0.36000001
-0.68199998 -17.67 -1.015 0.37
-0.63800001 -17.995001 -1.0369999 0.47
-0.58899999 -18.218 -1.052 0.46000001
-0.51599997 -17.684999 -1.015 0.31999999
-0.48699999 -17.65 -1.013 0.30000001
-0.433 -17.716 -1.017 0.58999997
-0.75999999 -34.539001 -2.175 0
-0.65499997 -34.705002 -2.1860001 0
-0.57599998 -36.493999 -2.309 0.13
-0.461 -36.473999 -2.3080001 0
-0.27200001 -34.506001 -2.1719999 0.22
-0.162 -34.308998 -2.158 0.23
-0.034000002 -25.455 -1.549 0.34999999
0.046 -25.302999 -1.539 0.14
0.118 -23.455 -1.4119999 0.19
0.191 -23.379 -1.406 0.18000001
0.266 -20.347 -1.198 0.43000001
0.33000001 -20.35 -1.198 0.43000001
0.454 -23.66 -1.426 0.28999999
0.52899998 -23.707001 -1.429 0.28
0.61000001 -23.982 -1.448 0.19
0.98900002 -35.009998 -2.2079999 0.14
1.022 -34.257999 -2.1559999 0.15000001
1.1289999 -34.229 -2.154 0.25999999
1.244 -34.437 -2.1689999 0.17
1.352 -34.418999 -2.168 0.14
1.456 -34.337002 -2.1619999 0.47999999
1.567 -34.400002 -2.1670001 0.19
1.673 -34.353001 -2.164 0.38
1.7359999 -34.516998 -2.1760001 0.23999999
1.864 -34.883999 -2.201 0.2
1.962 -34.668999 -2.187 0.16
2.073 -34.710999 -2.1900001 0.16
2.221 -35.319 -2.233 0.27000001
2.4059999 -36.449001 -2.3110001 0
2.536 -36.666 -2.3269999 0.14
2.5799999 -34.903 -2.2060001 0.50999999
2.5580001 -33.169998 -2.0869999 0.12
2.655 -33.062 -2.0799999 0.31
2.7550001 -33.018002 -2.0769999 0.16
3.0639999 -35.396 -2.2420001 0.16
2.9430001 -33.369999 -2.1029999 0.19
3.043 -33.313 -2.099 0.25999999
3.151 -33.328999 -2.1010001 0.27000001
3.546 -36.32 -2.309 0.22
3.73 -37.011002 -2.3570001 0.1
3.5940001 -33.516998 -2.1170001 0.41
3.6659999 -33.692001 -2.1300001 0.19
3.717 -33.188 -2.096 0.25
3.825 -33.212002 -2.098 0.25
3.836 -32.403 -2.043 0.49000001
3.9389999 -32.398998 -2.043 0.22
4.079 -32.701 -2.0650001 0.27000001
4.1700001 -32.591 -2.059 0.2
4.2509999 -32.816002 -2.075 0.19
4.3530002 -32.797001 -2.0739999 0.18000001
4.585 -33.736 -2.1400001 0.19
4.802 -34.521999 -2.1960001 0.23
4.9250002 -34.612999 -2.2030001 0.18000001
4.9559999 -34.058998 -2.1659999 0
4.901 -33.314999 -2.115 0.12
4.9419999 -32.868999 -2.085 0.25
5.0479999 -32.873001 -2.086 0.17
2.0480001 -12.959 -0.70099998 0.38
2.095 -12.996 -0.704 0.38
2.1359999 -12.991 -0.704 0.20999999
2.178 -12.992 -0.704 0.47999999
2.1930001 -12.955 -0.70200002 0.18000001
5.5440001 -32.366001 -2.0569999 0
2.3150001 -13.175 -0.71799999 0
0.51599997 -2.7679999 0.0080000004 0
0.52700001 -2.777 0.0080000004 0
0.54000002 -2.7980001 0.0060000001 0
0.542 -2.7880001 0.0070000002 0
0.55199999 -2.7920001 0.0060000001 0
0.56 -2.7820001 0.0070000002 0
0.56699997 -2.773 0.0070000002 0
2.6889999 -13.01 -0.71200001 0.16
2.6760001 -12.846 -0.70099998 0.30000001
2.744 -12.966 -0.70999998 0.44
2.7950001 -13.006 -0.713 0.41
2.7850001 -12.764 -0.69700003 0.25
2.483 -11.194 -0.58700001 0.31999999
2.507 -11.137 -0.583 0.61000001
2.9200001 -12.803 -0.70099998 0.28
2.79 -12.139 -0.65499997 0.23
2.5369999 -10.868 -0.56599998 0.61000001
2.5869999 -10.928 -0.57099998 0.5
2.6670001 -10.96 -0.574 0.38
2.723 -11.039 -0.57999998 0.46000001
2.7279999 -10.984 -0.57700002 0.28999999
2.7739999 -11.022 -0.57999998 0.38999999
2.7620001 -10.828 -0.56699997 0.49000001
2.7909999 -10.802 -0.565 0.36000001
2.8069999 -10.721 -0.56 0.34
2.869 -10.82 -0.56800002 0.44999999
2.8640001 -10.733 -0.56199998 0.28999999
2.8599999 -10.583 -0.55199999 0.55000001
3.286 -11.877 -0.64600003 0.63
3.3429999 -11.936 -0.65100002 0.28999999
3.3640001 -11.868 -0.64700001 0.44
3.4579999 -12.055 -0.66100001 0.56
4.131 -14.336 -0.824 0.38999999
4.178 -14.329 -0.82499999 0.2
3.2279999 -10.921 -0.58099997 0.23
3.855 -12.912 -0.72500002 0.63999999
4.4959998 -14.9 -0.86900002 0.23
4.0320001 -13.2 -0.74800003 0.23999999
4.0809999 -13.214 -0.74900001 0.58999997
4.1300001 -13.151 -0.74599999 0.52999997
4.1810002 -13.17 -0.74900001 0.36000001
4.2470002 -13.233 -0.75400001 0.31
4.263 -13.14 -0.74800003 0.38999999
4.3060002 -13.132 -0.74900001 0.46000001
4.2909999 -12.95 -0.73699999 0.31999999
4.2329998 -12.705 -0.71899998 0.28999999
5.5650001 -16.552999 -0.99900001 0.38
5.099 -15.005 -0.88800001 0.2
4.375 -12.73 -0.72399998 0.62
5.211 -15.023 -0.89200002 0.28
5.224 -14.911 -0.88499999 0.43000001
5.2659998 -14.953 -0.889 0.55000001
5.3449998 -15.027 -0.89499998 0.22
5.493 -15.294 -0.91600001 0.20999999
5.8010001 -15.997 -0.96899998 0.38
5.6209998 -15.347 -0.92199999 0.38999999
5.5739999 -15.071 -0.903 0.11
6.5339999 -17.507 -1.084 0.14
6.1440001 -16.381001 -1.002 0.34999999
6.2059999 -16.388 -1.0039999 0.31999999
6.2709999 -16.403999 -1.006 0.57999998
5.8119998 -14.917 -0.89899999 0.22
5.927 -15.071 -0.912 0.52999997
6.0710001 -15.297 -0.93000001 0.38999999
6.0619998 -15.204 -0.92400002 0.36000001
6.092 -15.141 -0.921 0.5
6.132 -15.105 -0.92000002 0.31999999
6.1859999 -15.1 -0.921 0.5
6.2620001 -15.017 -0.917 0.31
6.3000002 -15.042 -0.92000002 0.60000002
7.697 -18.23 -1.159 0.19
7.7779999 -18.261999 -1.164 0.25
7.8540001 -18.280001 -1.1670001 0.27000001
6.428 -14.821 -0.90899998 0.63999999
8.1459999 -18.638 -1.197 0.20999999
8.1719999 -18.618 -1.197 0.36000001
5.8319998 -13.154 -0.78799999 0.31
5.8600001 -13.106 -0.78600001 0.30000001
5.8930001 -13.07 -0.78399998 0.47999999
5.9429998 -13.071 -0.78600001 0.28999999
6.0050001 -13.098 -0.78899997 0.56
6.2930002 -13.617 -0.82999998 0.17
5.5580001 -11.968 -0.70599997 0.57999998
6.3150001 -13.495 -0.82300001 0.34
6.3429999 -13.446 -0.82099998 0.61000001
5.7010002 -11.98 -0.71100003 0.25999999
5.7259998 -11.937 -0.70899999 0.28999999
5.7379999 -11.865 -0.70499998 0.60000002
5.7930002 -11.883 -0.70700002 0.31999999
5.8299999 -11.911 -0.70999998 0.46000001
5.8660002 -11.891 -0.70999998 0.5
5.0949998 -10.238 -0.58499998 0.36000001
5.1259999 -10.22 -0.58499998 0.31999999
5.151 -10.19 -0.583 0.52999997
5.29 -10.385 -0.60000002 0
5.2210002 -10.17 -0.58399999 0.13
5.289 -10.184 -0.58700001 0.36000001
5.3319998 -10.189 -0.58899999 0.50999999
5.4770002 -10.308 -0.60100001 0.38
7.2280002 -13.518 -0.85299999 0.38
5.4530001 -10.147 -0.58999997 0.47999999
5.5 -10.158 -0.59299999 0.19
5.5289998 -10.135 -0.59200001 0.56999999
5.533 -10.067 -0.588 0.19
5.5170002 -9.9619999 -0.58099997 0.58999997
5.533 -9.9169998 -0.579 0.23
5.5760002 -9.9589996 -0.583 0.47999999
5.5910001 -9.9119997 -0.58099997 0.5
5.717 -10.063 -0.59399998 0
5.8870001 -10.138 -0.60399997 0
23.302 -37.249001 -2.8210001 0
25.07 -39.799999 -3.0339999 0
24.698 -38.935001 -2.97 0.11
23.562 -36.886002 -2.809 0.19
23.646999 -36.890999 -2.813 0.20999999
23.676001 -36.681999 -2.802 0.2
23.615999 -36.338001 -2.78 0.20999999
23.722 -36.250999 -2.779 0.36000001
24.013 -36.445999 -2.8010001 0.14
24.141001 -36.389999 -2.802 0.41
24.15 -36.280998 -2.7969999 0.16
24.172001 -36.067001 -2.7850001 0.41999999
24.266001 -35.963001 -2.783 0.18000001
24.371 -35.875 -2.7820001 0.14
24.528 -35.862999 -2.7869999 0.17
24.709 -35.886002 -2.796 0.12
23.989 -34.722 -2.7019999 0.079999998
24.222 -34.825001 -2.717 0.13
24.263 -34.650002 -2.7079999 0.13
21.834999 -30.969999 -2.405 0
21.087 -29.709999 -2.3050001 0.07
21.288 -29.794001 -2.3169999 0.15000001
21.198999 -29.473 -2.296 0.16
21.298 -29.511999 -2.302 0.25
21.031 -28.948999 -2.26 0.16
21.649 -29.605 -2.3210001 0.23
21.490999 -29.195999 -2.2920001 0.20999999
21.266001 -28.700001 -2.256 0.28
21.448 -28.756001 -2.266 0.16
11.018 -14.655 -1.059 0.20999999
11.059 -14.662 -1.061 0.38999999
11.125 -14.653 -1.064 0.43000001
11.146 -14.586 -1.061 0.28
11.204 -14.567 -1.062 0.47
11.291 -14.585 -1.067 0.43000001
22.198999 -28.530001 -2.2850001 0.12
11.363 -14.489 -1.0650001 0.33000001
11.488 -14.601 -1.076 0.40000001
11.569 -14.609 -1.08 0.28
11.612 -14.569 -1.08 0.46000001
11.871 -14.799 -1.103 0.25
11.86 -14.69 -1.097 0.46000001
11.912 -14.661 -1.098 0.28
11.945 -14.654 -1.099 0.50999999
12.04 -14.677 -1.104 0.41
12.123 -14.684 -1.108 0.28999999
12.191 -14.672 -1.11 0.23999999
12.21 -14.601 -1.107 0.58999997
12.255 -14.561 -1.107 0.16
8.573 -10.142 -0.71200001 0.31999999
8.5699997 -10.073 -0.708 0.54000002
8.6540003 -10.109 -0.713 0.47999999
23.358999 -27.179001 -2.2639999 0.25
23.408001 -27.063999 -2.26 0.15000001
22.862 -26.264 -2.194 0.23
23.118999 -26.392 -2.2119999 0.20999999
23.316999 -26.534 -2.2279999 0.23
23.457001 -26.525 -2.234 0.16
23.034 -25.881001 -2.1819999 0.25
23.208 -25.913 -2.191 0.2
23.761999 -26.365 -2.24 0.25
24.136999 -26.613001 -2.27 0.13
23.988001 -26.281 -2.2460001 0.14
24.239 -26.473 -2.267 0.16
24.257 -26.327 -2.2609999 0.38999999
24.134001 -26.028 -2.24 0.12
23.863001 -25.573999 -2.204 0.44
24.072001 -25.636 -2.217 0.23
23.556 -24.927999 -2.158 0.28999999
23.694 -24.917 -2.164 0.16
23.768999 -24.917 -2.1670001 0.25999999
24.370001 -25.388 -2.2190001 0.2
24.472 -25.334 -2.221 0.20999999
24.216 -24.912001 -2.188 0.2
24.388 -24.931999 -2.197 0.30000001
24.277 -24.663 -2.1789999 0.2
24.316 -24.625 -2.1789999 0.23999999
24.66 -24.816999 -2.2049999 0.2
24.596001 -24.597 -2.191 0.25
24.848 -24.694 -2.2079999 0
28.603001 -27.9 -2.5469999 0.56
28.521999 -27.733999 -2.5350001 0.31
28.576 -27.612 -2.5320001 0.33000001
28.625 -27.486 -2.5280001 0.33000001
28.665001 -27.351999 -2.5239999 0.31999999
28.716 -27.229 -2.5209999 0.31999999
28.768 -27.107 -2.517 0.33000001
28.778 -27.030001 -2.5139999 0.33000001
28.819 -26.899 -2.51 0.33000001
28.868999 -26.777 -2.507 0.34
28.914 -26.65 -2.503 0.33000001
28.966 -26.530001 -2.5 0.33000001
29.017 -26.41 -2.497 0.34
29.056 -26.278 -2.493 0.33000001
29.063 -26.202 -2.49 0.34
29.114 -26.082001 -2.487 0.34
29.160999 -25.959999 -2.484 0.33000001
29.204 -25.834 -2.4809999 0.34
29.259001 -25.719999 -2.4779999 0.34999999
29.298 -25.591 -2.474 0.34
29.313999 -25.524 -2.4719999 0.34999999
29.358 -25.4 -2.4690001 0.34999999
29.403 -25.278 -2.4660001 0.34
29.452 -25.16 -2.4630001 0.34
29.507999 -25.048 -2.461 0.34999999
29.541 -24.916 -2.457 0.34
29.587 -24.796 -2.454 0.34999999
29.604 -24.732 -2.4519999 0.34
29.636999 -24.601999 -2.448 0.34999999
29.681 -24.481001 -2.4449999 0.34999999
29.736 -24.368999 -2.4430001 0.36000001
29.773001 -24.243999 -2.4400001 0.33000001
29.816999 -24.124001 -2.437 0.34
29.871 -24.013 -2.4349999 0.37
29.868 -23.934 -2.431 0.31999999
29.917999 -23.82 -2.4289999 0.31
29.976999 -23.712999 -2.428 0.49000001
7.9819999 -6.2490001 -0.495 0.16
8.0059996 -6.2270002 -0.49599999 0.44999999
8.007 -6.1880002 -0.49399999 0.30000001
7.9829998 -6.1490002 -0.491 0.37
30.158001 -23.17 -2.414 0.28
30.197001 -23.049999 -2.4119999 0.20999999
8.0679998 -6.0939999 -0.49399999 0.28999999
9.8959999 -7.434 -0.64899999 0.38
9.8459997 -7.348 -0.64300001 0.20999999
8.7629995 -6.494 -0.54799998 0.34
8.7720003 -6.4790001 -0.54799998 0.49000001
8.8310003 -6.4790001 -0.551 0.23
8.0159998 -5.8400002 -0.47999999 0.54000002
8.4680004 -6.1300001 -0.51700002 0.25999999
7.697 -5.5320001 -0.44999999 0.20999999
7.724 -5.5149999 -0.45100001 0.46000001
8.3079996 -5.915 -0.5 0.25999999
7.717 -5.4549999 -0.44800001 0.15000001
8.7069998 -6.118 -0.52999997 0.31
8.0010004 -5.5819998 -0.46900001 0.37
9.0089998 -6.2470002 -0.55199999 0.41
8.6529999 -5.9590001 -0.52100003 0.44
8.2189999 -5.6199999 -0.48300001 0.17
9.3339996 -6.3660002 -0.57499999 0.30000001
7.8800001 -5.3319998 -0.45199999 0.25
8.8629999 -5.961 -0.53299999 0.47999999
8.408 -5.6149998 -0.49399999 0.25999999
8.5019999 -5.6399999 -0.5 0.18000001
8.4469995 -5.5650001 -0.49399999 0.56
8.1470003 -5.3299999 -0.46799999 0.33000001
8.6280003 -5.6269999 -0.50700003 0.23
7.8709998 -5.0949998 -0.44299999 0.20999999
9.3870001 -6.04 -0.56599998 0.23999999
8.5229998 -5.4439998 -0.49399999 0.38
8.5349998 -5.414 -0.493 0.23
7.9899998 -5.0310001 -0.44800001 0.43000001
7.9899998 -5.013 -0.447 0.25999999
8.0310001 -5.0040002 -0.449 0.38999999
8.2209997 -5.0869999 -0.463 0.27000001
8.5019999 -5.2249999 -0.484 0.31
8.2989998 -5.0640001 -0.46700001 0.27000001
8.2329998 -4.9879999 -0.46000001 0.40000001
8.0620003 -4.849 -0.44499999 0.28999999
8.1669998 -4.895 -0.45300001 0.2
8.1639996 -4.8590002 -0.45199999 0.52999997
8.4449997 -4.9910002 -0.47299999 0.19
8.4490004 -4.9569998 -0.472 0.31999999
8.5019999 -4.9530001 -0.47499999 0.33000001
8.4870005 -4.908 -0.472 0.31999999
8.6630001 -4.993 -0.486 0.34
9.5539999 -5.4689999 -0.55500001 0.23999999
8.5909996 -4.8790002 -0.47799999 0.25
8.4619999 -4.77 -0.46599999 0.34999999
8.5080004 -4.7610002 -0.46900001 0.37
9.1339998 -5.0760002 -0.51700002 0.37
8.4890003 -4.6810002 -0.465 0.33000001
8.5819998 -4.7150002 -0.472 0.28999999
8.6859999 -4.7360001 -0.479 0.27000001
8.5869999 -4.6469998 -0.47 0.38
8.9119997 -4.7880001 -0.49399999 0.18000001
9.0240002 -4.8119998 -0.50199997 0.38
8.7919998 -4.652 -0.48199999 0.49000001
8.849 -4.6469998 -0.486 0.28999999
8.7559996 -4.5799999 -0.47799999 0.2
8.9809999 -4.6630001 -0.49399999 0.5
8.8780003 -4.5739999 -0.48500001 0.30000001
8.71 -4.4520001 -0.47099999 0.18000001
8.6099997 -4.3660002 -0.46200001 0.16
9.2950001 -4.6789999 -0.514 0.5
9.4890003 -4.7589998 -0.528 0.34
9.3190002 -4.6360002 -0.514 0.41
9.8529997 -4.8649998 -0.55400002 0.23999999
9.5100002 -4.658 -0.52600002 0.41999999
9.6129999 -4.671 -0.53299999 0.18000001
9.5469999 -4.6009998 -0.52700001 0.55000001
9.5270004 -4.5549998 -0.52399999 0.22
9.6529999 -4.5970001 -0.53299999 0.37
9.7729998 -4.6170001 -0.542 0.28999999
9.6470003 -4.52 -0.53100002 0.25
9.6049995 -4.4629998 -0.52700001 0.40000001
9.6859999 -4.4640002 -0.53200001 0.34999999
10.22 -4.6729999 -0.57099998 0.51999998
9.5839996 -4.362 -0.52200001 0.16
9.4390001 -4.2600002 -0.50999999 0.36000001
9.684 -4.335 -0.528 0.44999999
9.6969995 -4.3039999 -0.528 0.34999999
9.4770002 -4.1700001 -0.50999999 0.30000001
10.546 -4.6040001 -0.58999997 0.31
10.634 -4.6030002 -0.59500003 0.28999999
10.458 -4.507 -0.58099997 0.52999997
11.634 -4.974 -0.66799998 0.27000001
11.474 -4.862 -0.65499997 0.46000001
11.629 -4.8850002 -0.66600001 0.25
11.217 -4.6700001 -0.634 0.22
11.184 -4.6139998 -0.63 0.56
10.554 -4.3140001 -0.58200002 0.19
11.423 -4.651 -0.64600003 0.34
10.963 -4.4219999 -0.611 0.5
11.695 -4.677 -0.66399997 0.28999999
10.983 -4.3499999 -0.611 0.25
11.128 -4.368 -0.62 0.47999999
11.391 -4.4299998 -0.639 0.33000001
11.247 -4.3540001 -0.62800002 0.23999999
11.225 -4.3049998 -0.625 0.54000002
12.232 -4.6490002 -0.69800001 0.28999999
11.243 -4.23 -0.62400001 0.50999999
12.132 -4.5240002 -0.68900001 0.23999999
12.197 -4.5040002 -0.69199997 0.25999999
12.187 -4.4569998 -0.69099998 0.52999997
12.488 -4.546 -0.71200001 0.25999999
12.939 -4.665 -0.74400002 0.30000001
13.526 -4.8299999 -0.78600001 0.16
13.024 -4.6040001 -0.74800003 0.58999997
13.261 -4.6409998 -0.76499999 0.28999999
13.611 -4.7160001 -0.78899997 0.31
12.819 -4.4180002 -0.73100001 0.47999999
13.363 -4.559 -0.76899999 0.18000001
13.311 -4.4949999 -0.76499999 0.46000001
13.259 -4.4310002 -0.75999999 0.28999999
13.26 -4.3850002 -0.759 0.46000001
16.603001 -5.4390001 -1 0.18000001
15.347 -4.9720001 -0.90799999 0.33000001
16.972 -5.4720001 -1.025 0.28
17.162001 -5.474 -1.0369999 0.38999999
17.316 -5.4640002 -1.0470001 0.27000001
17.684 -5.5190001 -1.072 0.37
17.531 -5.4109998 -1.0599999 0.38
17.841999 -5.4460001 -1.081 0.38
17.691 -5.3390002 -1.069 0.41
17.792999 -5.3400002 -1.076 0.34
17.66 -5.2389998 -1.0650001 0.25999999
17.815001 -5.224 -1.075 0.44999999
17.743 -5.1430001 -1.069 0.33000001
17.872 -5.119 -1.077 0.36000001
17.976 -5.0879998 -1.0829999 0.34999999
18.069 -5.0840001 -1.089 0.36000001
18.16 -5.0479999 -1.095 0.41999999
18.521999 -5.0869999 -1.119 0.27000001
18.702999 -5.0739999 -1.131 0.30000001
18.549 -4.9689999 -1.119 0.30000001
18.565001 -4.9109998 -1.119 0.28999999
18.445 -4.8169999 -1.11 0.34
18.559 -4.816 -1.117 0.41
18.533001 -4.7470002 -1.114 0.31999999
18.6 -4.7020001 -1.118 0.34999999
18.921 -4.7199998 -1.14 0.31999999
18.927999 -4.6589999 -1.1390001 0.44999999
19.042999 -4.6240001 -1.146 0.28
19.025 -4.5560002 -1.1440001 0.27000001
19.000999 -4.5190001 -1.142 0.18000001
19.054001 -4.4679999 -1.1440001 0.2
19.069 -4.4089999 -1.145 0.44999999
19.072001 -4.3460002 -1.1440001 0.57999998
19.103001 -4.29 -1.145 0.19
19.134001 -4.2340002 -1.146 0.41999999
19.162001 -4.2090001 -1.148 0.23999999
19.173 -4.1479998 -1.148 0.18000001
19.216999 -4.0949998 -1.15 0.40000001
19.245001 -4.0380001 -1.151 0.23
19.243999 -3.974 -1.15 0.18000001
19.296 -3.9219999 -1.153 0.41
19.322001 -3.8640001 -1.154 0.23
19.316 -3.8310001 -1.153 0.19
19.363001 -3.777 -1.155 0.40000001
19.386999 -3.7190001 -1.156 0.25
19.414 -3.661 -1.1569999 0.23999999
19.419001 -3.599 -1.1569999 0.17
19.468 -3.5450001 -1.159 0.41999999
19.469999 -3.513 -1.159 0.25
19.49 -3.454 -1.16 0.25
19.521 -3.3959999 -1.161 0.25
19.541 -3.3369999 -1.1619999 0.27000001
19.555 -3.276 -1.1619999 0.27000001
19.593 -3.2190001 -1.164 0.27000001
19.607 -3.158 -1.164 0.27000001
19.634001 -3.131 -1.166 0.28
19.671 -3.073 -1.168 0.23999999
19.671 -3.01 -1.1670001 0.20999999
19.726 -2.9549999 -1.17 0.41
19.745001 -2.8940001 -1.171 0.23999999
19.74 -2.8299999 -1.17 0.19
19.799999 -2.776 -1.173 0.38999999
19.808001 -2.7449999 -1.174 0.23
19.801001 -2.681 -1.173 0.19
19.857 -2.625 -1.176 0.38999999
19.867001 -2.563 -1.176 0.23
19.871 -2.5 -1.176 0.18000001
19.906 -2.441 -1.178 0.41
19.931999 -2.4119999 -1.179 0.25
19.933001 -2.349 -1.179 0.19
19.957001 -2.2880001 -1.1799999 0.41
19.979 -2.227 -1.181 0.23999999
19.99 -2.165 -1.181 0.18000001
20.014999 -2.1040001 -1.183 0.40000001
20.037001 -2.043 -1.184 0.2
20.049999 -2.0120001 -1.184 0.33000001
20.076 -1.951 -1.186 0.11
20.125999 -1.892 -1.189 0.16
20.156 -1.831 -1.1900001 0.20999999
20.184999 -1.77 -1.192 0.17
20.202999 -1.707 -1.193 0.23999999
20.207001 -1.676 -1.193 0.2
20.233999 -1.614 -1.194 0.20999999
20.249001 -1.551 -1.1950001 0.18000001
20.26 -1.488 -1.196 0.28
20.257 -1.424 -1.1950001 0.18000001
20.289 -1.362 -1.197 0.16
20.219999 -1.294 -1.192 0.31999999
20.237 -1.263 -1.193 0.23999999
20.278999 -1.202 -1.196 0.25999999
20.277 -1.138 -1.1950001 0.18000001
20.302 -1.075 -1.197 0.44
20.313 -1.012 -1.197 0.25
20.34 -0.949 -1.199 0.25
20.358999 -0.88599998 -1.2 0.27000001
20.379 -0.85500002 -1.201 0.25
20.391001 -0.79100001 -1.202 0.2
20.423 -0.72799999 -1.204 0.41999999
20.440001 -0.66399997 -1.205 0.25
20.448 -0.60000002 -1.205 0.19
20.483 -0.537 -1.2079999 0.41
20.496 -0.505 -1.2079999 0.25
20.502001 -0.44100001 -1.209 0.19
20.545 -0.377 -1.212 0.40000001
20.548 -0.31299999 -1.212 0.22
20.565001 -0.248 -1.2130001 0.19
20.611 -0.184 -1.216 0.38999999
20.629999 -0.12 -1.217 0.23
20.638 -0.086999997 -1.2180001 0.17
20.676001 -0.023 -1.22 0.38999999
19.684 0.046 -1.249 0.28999999
19.701 0.108 -1.25 0.28999999
19.715 0.17 -1.251 0.28
19.716 0.23199999 -1.252 0.28
19.733 0.294 -1.253 0.28999999
19.729 0.32499999 -1.253 0.28999999
19.743999 0.38699999 -1.2539999 0.28999999
19.757999 0.44999999 -1.255 0.30000001
19.757 0.51200002 -1.255 0.28999999
19.761 0.574 -1.255 0.27000001
19.778999 0.63700002 -1.257 0.28999999
19.785999 0.66799998 -1.257 0.28999999
19.785999 0.73100001 -1.258 0.28999999
19.787001 0.79299998 -1.258 0.28999999
19.783001 0.85500002 -1.258 0.30000001
19.788 0.917 -1.258 0.30000001
19.799 0.98000002 -1.2589999 0.28999999
19.802 1.043 -1.26 0.31999999
19.816 1.075 -1.261 0.28
19.888 1.141 -1.267 0.28999999
19.903999 1.205 -1.268 0.22
19.806999 1.262 -1.261 0.34999999
19.66 1.314 -1.25 0.30000001
19.507999 1.365 -1.24 0.31999999
19.361 1.385 -1.229 0.33000001
19.211 1.4349999 -1.2180001 0.34
19.079 1.485 -1.209 0.34
18.916 1.5319999 -1.197 0.31
18.781 1.581 -1.187 0.34
18.655001 1.6289999 -1.178 0.38
18.507 1.674 -1.168 0.34
18.403 1.694 -1.16 0.31999999
18.354 1.748 -1.1569999 0.33000001
18.316999 1.802 -1.155 0.27000001
18.236 1.852 -1.149 0.47
18.218 1.908 -1.148 0.41999999
18.162001 1.96 -1.145 0.36000001
18.118 2.0120001 -1.142 0.31
18.139 2.0439999 -1.1440001 0.27000001
18.271 2.1170001 -1.154 0.34
18.292 2.178 -1.156 0.28999999
18.301001 2.237 -1.1569999 0.31999999
18.316999 2.2969999 -1.159 0.30000001
18.316 2.3559999 -1.159 0.34999999
18.337999 2.388 -1.161 0.31999999
18.315001 2.4430001 -1.16 0.34
18.337999 2.5050001 -1.1619999 0.34
18.341999 2.5650001 -1.163 0.33000001
18.337999 2.6229999 -1.164 0.31999999
18.354 2.684 -1.165 0.37
18.347 2.7420001 -1.166 0.30000001
18.354 2.7720001 -1.166 0.31
18.377001 2.835 -1.169 0.31999999
18.389999 2.8959999 -1.17 0.31999999
18.4 2.957 -1.1720001 0.31999999
18.422001 3.02 -1.174 0.34999999
18.440001 3.0829999 -1.176 0.30000001
18.458 3.145 -1.178 0.31
18.490999 3.181 -1.181 0.30000001
18.506001 3.243 -1.183 0.28
18.49 3.3 -1.183 0.28999999
18.476999 3.358 -1.182 0.40000001
18.52 3.4260001 -1.186 0.38999999
18.514999 3.4849999 -1.187 0.31999999
18.517 3.516 -1.187 0.36000001
18.541 3.5810001 -1.1900001 0.30000001
18.535999 3.6400001 -1.191 0.31
18.544001 3.7019999 -1.192 0.38
18.565001 3.767 -1.194 0.34
18.465 3.8069999 -1.188 0.34
18.504 3.8759999 -1.192 0.37
18.488001 3.9030001 -1.191 0.31999999
18.454 3.957 -1.189 0.31999999
18.422001 4.0100002 -1.188 0.38
18.382 4.0619998 -1.186 0.31
18.351999 4.1160002 -1.184 0.36000001
18.309999 4.1669998 -1.182 0.31999999
18.285 4.2220001 -1.181 0.36000001
18.242001 4.2420001 -1.179 0.31
18.197001 4.2919998 -1.176 0.31999999
18.17 4.3449998 -1.175 0.33000001
18.131001 4.3959999 -1.173 0.31999999
18.096001 4.448 -1.1720001 0.31999999
18.072001 4.5019999 -1.171 0.38999999
18.038 4.5240002 -1.169 0.30000001
17.993 4.573 -1.1670001 0.33000001
17.978001 4.6290002 -1.1670001 0.38999999
17.927 4.6760001 -1.164 0.31999999
17.916 4.7329998 -1.164 0.37
17.882 4.7839999 -1.163 0.31999999
17.857 4.8379998 -1.1619999 0.36000001
17.836 4.862 -1.161 0.31999999
17.802999 4.914 -1.159 0.33000001
17.771999 4.9650002 -1.158 0.33000001
17.743 5.0170002 -1.1569999 0.34
17.704 5.066 -1.156 0.33000001
17.671 5.1170001 -1.154 0.33000001
17.652 5.1409998 -1.153 0.33000001
17.622 5.1929998 -1.152 0.33000001
17.584999 5.2420001 -1.151 0.33000001
17.541 5.289 -1.149 0.33000001
17.497999 5.336 -1.147 0.31999999
17.466 5.3860002 -1.145 0.31999999
17.43 5.4349999 -1.1440001 0.33000001
17.403999 5.4569998 -1.143 0.31999999
17.365999 5.5050001 -1.141 0.31999999
17.337 5.5560002 -1.14 0.33000001
17.287001 5.5999999 -1.138 0.34
17.245001 5.6459999 -1.136 0.34999999
17.201 5.691 -1.1339999 0.31999999
17.16 5.7379999 -1.132 0.34999999
17.111 5.7509999 -1.1289999 0.40000001
17.061001 5.7940001 -1.126 0.34999999
17.025999 5.842 -1.125 0.36000001
16.972 5.8829999 -1.122 0.34
16.940001 5.9310002 -1.1210001 0.33000001
16.886999 5.9720001 -1.118 0.34999999
16.846001 5.987 -1.1160001 0.31999999
16.805 6.0320001 -1.114 0.34
16.761 6.0760002 -1.112 0.34
16.719999 6.1209998 -1.1109999 0.34999999
16.688999 6.1690001 -1.11 0.34
16.657 6.2160001 -1.109 0.34999999
16.598 6.2540002 -1.1059999 0.34999999
16.575001 6.2750001 -1.105 0.36000001
16.537001 6.3200002 -1.103 0.34999999
16.485001 6.3590002 -1.101 0.38
16.450001 6.4050002 -1.099 0.36000001
16.415001 6.4510002 -1.098 0.34999999
16.378 6.4959998 -1.097 0.33000001
16.347 6.5139999 -1.095 0.34
16.325001 6.5640001 -1.095 0.34999999
16.280001 6.6059999 -1.0930001 0.36000001
16.235001 6.6469998 -1.091 0.37
16.218 6.6989999 -1.092 0.37
16.174999 6.7410002 -1.09 0.36000001
16.141001 6.7870002 -1.089 0.34999999
16.117001 6.8060002 -1.0880001 0.36000001
16.073999 6.848 -1.086 0.33000001
16.032 6.8889999 -1.084 0.36000001
15.999 6.9349999 -1.0829999 0.34
15.946 6.9720001 -1.081 0.38999999
15.895 7.0089998 -1.079 0.31999999
11.175 4.9400001 -0.699 0.28999999
11.294 5.0349998 -0.70999998 0.33000001
11.316 5.0879998 -0.713 0.23999999
11.229 5.0910001 -0.70700002 0.60000002
15.706 7.1919999 -1.071 0.30000001
11.297 5.2080002 -0.71499997 0.18000001
11.255 5.2309999 -0.713 0.41
11.375 5.309 -0.72299999 0.40000001
11.374 5.3530002 -0.72500002 0.37
10.778 5.112 -0.67699999 0.38999999
11.1 5.3080001 -0.70499998 0.23
11.099 5.3509998 -0.70599997 0.49000001
11.002 5.3460002 -0.69999999 0.38
10.634 5.2080002 -0.671 0.28
10.517 5.171 -0.662 0.51999998
10.531 5.2189999 -0.66399997 0.28
10.646 5.3179998 -0.67500001 0.47999999
10.822 5.4489999 -0.69099998 0.38
10.414 5.2839999 -0.65899998 0.34999999
10.457 5.3470001 -0.66399997 0.28
10.217 5.244 -0.64499998 0.41999999
10.274 5.3150001 -0.65100002 0.68000001
10.447 5.4460001 -0.667 0.27000001
10.567 5.5510001 -0.67799997 0.31
9.96 5.2709999 -0.62900001 0.34
9.9399996 5.3000002 -0.62800002 0.56
9.9460001 5.3439999 -0.63 0.36000001
9.9650002 5.3740001 -0.63300002 0.5
9.8699999 5.3629999 -0.62599999 0.46000001
9.9049997 5.4219999 -0.63099998 0.28999999
9.7779999 5.3930001 -0.62099999 0.56
9.7460003 5.415 -0.62 0.30000001
10.299 5.7659998 -0.66799998 0.56999999
10.149 5.7030001 -0.65600002 0.33000001
9.7130003 5.4970002 -0.62099999 0.36000001
9.6750002 5.5149999 -0.61900002 0.27000001
9.5959997 5.5100002 -0.61400002 0.46000001
9.5200005 5.506 -0.60900003 0.40000001
9.6590004 5.6279998 -0.62199998 0.37
9.7790003 5.7389998 -0.634 0.40000001
9.526 5.6100001 -0.61299998 0.27000001
9.3809996 5.5640001 -0.602 0.41999999
9.4169998 5.6259999 -0.60699999 0.43000001
9.3940001 5.652 -0.60600001 0.43000001
9.4490004 5.7259998 -0.61299998 0.43000001
9.4259996 5.7529998 -0.61199999 0.46000001
9.2390003 5.658 -0.597 0.36000001
9.0769997 5.5970001 -0.58399999 0.41999999
9.026 5.605 -0.58099997 0.36000001
9.0059996 5.632 -0.58099997 0.30000001
9.0629997 5.7069998 -0.588 0.5
8.7069998 5.52 -0.55800003 0.37
8.6560001 5.526 -0.55500001 0.22
8.632 5.5300002 -0.55400002 0.41
8.7379999 5.6370001 -0.565 0.51999998
8.5179996 5.533 -0.54699999 0.41999999
8.4440002 5.5219998 -0.542 0.28999999
8.2360001 5.4219999 -0.52499998 0.38
8.5319996 5.6570001 -0.55299997 0.43000001
8.427 5.625 -0.54500002 0.36000001
8.1809998 5.4790001 -0.52399999 0.34
8.2250004 5.546 -0.52899998 0.37
8.2139997 5.5760002 -0.52999997 0.41
8.1619997 5.5780001 -0.52700001 0.34999999
8.1049995 5.5760002 -0.523 0.54000002
8.0190001 5.5539999 -0.51700002 0.31
7.8839998 5.4970002 -0.50700003 0.30000001
7.8639998 5.5009999 -0.50599998 0.58999997
8.4809999 5.9749999 -0.56300002 0.14
8.0179996 5.6849999 -0.523 0.5
8.0039997 5.7129998 -0.523 0.41
8.677 6.237 -0.58600003 0.23
8.1350002 5.8839998 -0.53799999 0.28
9.2530003 6.7199998 -0.64099997 0.55000001
9.177 6.7090001 -0.63599998 0.25
7.8779998 5.7930002 -0.51899999 0.22
9.2449999 6.849 -0.64600003 0.5
8.1210003 6.0510001 -0.54500002 0.17
8.0410004 6.0310001 -0.53899997 0.34
8.2180004 6.1849999 -0.55599999 0.51999998
8.7840004 6.6560001 -0.611 0.27000001
7.8559999 5.9889998 -0.52600002 0.38
7.8800001 6.046 -0.52999997 0.38999999
8.467 6.5419998 -0.58700001 0.37
8.4700003 6.5869999 -0.58899999 0.34
7.7470002 6.0609999 -0.523 0.31
7.8299999 6.1459999 -0.53200001 0.47999999
7.7309999 6.1069999 -0.52399999 0.22
8.5030003 6.7639999 -0.59899998 0.28999999
7.8629999 6.2930002 -0.54100001 0.38999999
7.0560002 5.6799998 -0.46599999 0.37
7.6799998 6.2249999 -0.52700001 0.34999999
8.4790001 6.921 -0.60500002 0.50999999
6.9510002 5.6859999 -0.46000001 0.20999999
7.171 5.9050002 -0.48300001 0.33000001
6.8759999 5.697 -0.456 0.31
6.9400001 5.7870002 -0.46399999 0.43000001
6.6350002 5.5669999 -0.43700001 0.31999999
6.823 5.7620001 -0.456 0.2
6.717 5.7090001 -0.44800001 0.38
6.678 5.6929998 -0.44499999 0.43000001
6.599 5.6620002 -0.43900001 0.41
6.7589998 5.8369999 -0.456 0.38999999
6.5500002 5.6919999 -0.43799999 0.23999999
6.6550002 5.8200002 -0.44999999 0.46000001
6.7639999 5.9530001 -0.46200001 0.33000001
6.592 5.8200002 -0.44600001 0.28999999
6.9050002 6.1370001 -0.479 0.40000001
7.2610002 6.4959998 -0.51599997 0.36000001
6.572 5.914 -0.44999999 0.25
6.5770001 5.9559999 -0.45199999 0.31999999
6.7319999 6.1350002 -0.47 0.47999999
6.927 6.3540001 -0.491 0.28999999
6.5050001 5.9840002 -0.44999999 0.30000001
6.3140001 5.8439999 -0.43200001 0.36000001
7.3379998 6.8410001 -0.53799999 0.37
6.6279998 6.2150002 -0.46799999 0.23999999
7.6230001 7.198 -0.57099998 0.20999999
6.7249999 6.3860002 -0.48199999 0.41999999
6.5650001 6.2729998 -0.46700001 0.30000001
6.5180001 6.2470002 -0.46399999 0.31999999
6.0700002 5.8520002 -0.41999999 0.20999999
6.277 6.092 -0.44299999 0.47999999
5.868 5.7280002 -0.403 0.33000001
6.3990002 6.289 -0.46000001 0.25
6.401 6.3309999 -0.46200001 0.23999999
7.3109999 7.2589998 -0.55800003 0.31
7.2870002 7.2810001 -0.55699998 0.5
5.9689999 5.9949999 -0.42199999 0.22
5.9419999 6.0050001 -0.421 0.25
5.75 5.8470001 -0.403 0.54000002
5.7150002 5.848 -0.40099999 0.23
5.7160001 5.8860002 -0.403 0.28999999
5.6929998 5.8800001 -0.40099999 0.36000001
5.5970001 5.8179998 -0.39300001 0.5
5.6129999 5.8709998 -0.39700001 0.28999999
5.4879999 5.776 -0.38499999 0.33000001
5.7930002 6.138 -0.41999999 0.19
5.7989998 6.1820002 -0.42300001 0.40000001
5.8460002 6.2529998 -0.42899999 0.38999999
