# .PCD v0.7 - Point Cloud Data file format
VERSION 0.7
FIELDS x y z intensity
SIZE 4 4 4 4
TYPE F F F F
COUNT 1 1 1 1
WIDTH 1395
HEIGHT 1
VIEWPOINT 0 0 0 1 0 0 0
POINTS 1395
DATA ascii
17.802 -38.415001 -0.12800001 0.18000001
17.885 -38.278999 -0.127 0.28
17.997 -38.203999 -0.127 0.30000001
18.070999 -38.051998 -0.126 0
32.206001 -67.314003 -0.382 0
32.084999 -66.791 -0.37799999 0
32.498001 -67.112 -0.382 0
32.832001 -67.263 -0.384 0
32.805 -66.675003 -0.38 0
32.637001 -65.809998 -0.373 0
33.327 -66.675003 -0.382 0
8.1490002 -16.069 0.064000003 0.23
8.3000002 -16.242001 0.061999999 0
32.905998 -64.058998 -0.36199999 0
33.187 -64.110001 -0.36300001 0
16.122999 -30.643 -0.067000002 0.14
16.118999 -30.403 -0.064999998 0
16.134001 -30.315001 -0.064999998 0.13
16.516001 -30.801001 -0.07 0.16
16.617001 -30.757 -0.07 0
28.997999 -53.312 -0.273 0.11
29.141001 -53.176998 -0.27200001 0.15000001
16.065001 -29.073999 -0.056000002 0.23999999
16.077 -28.988001 -0.055 0.25
16.176001 -28.952999 -0.056000002 0.44999999
16.294001 -28.948999 -0.056000002 0.23999999
24.334 -42.943001 -0.183 0.38
24.458 -42.848 -0.183 0.20999999
24.601 -42.785999 -0.183 0.33000001
24.797001 -42.813999 -0.184 0
34.354 -59.122002 -0.333 0
34.584999 -59.091 -0.33399999 0
34.710999 -58.880001 -0.333 0
35.237999 -59.348999 -0.338 0
35.526001 -59.408001 -0.34 0
34.646 -57.523998 -0.324 0
34.908001 -57.754002 -0.32600001 0
34.903999 -57.338001 -0.32300001 0
35.216 -57.445 -0.32499999 0
35.185001 -56.992001 -0.322 0
34.977001 -56.257 -0.31600001 0
35.459999 -56.637001 -0.32100001 0
35.183998 -55.805 -0.31400001 0
35.273998 -55.752998 -0.31400001 0
35.389 -55.549 -0.31299999 0
34.426998 -53.664001 -0.29699999 0
34.574001 -53.521999 -0.296 0
34.976002 -53.773998 -0.30000001 0
34.002998 -51.917999 -0.28299999 0
30.474001 -46.049999 -0.229 0.33000001
30.621 -45.958 -0.229 0
30.816 -45.938 -0.23 0
34.312 -50.807999 -0.27700001 0
34.349998 -50.521 -0.27599999 0
34.514 -50.421001 -0.27599999 0
34.352001 -50.014999 -0.27200001 0
34.504002 -49.898998 -0.27200001 0
35.193001 -50.556999 -0.28 0
34.608002 -49.382999 -0.27000001 0
34.800999 -49.327999 -0.27000001 0
35.237 -49.615002 -0.27399999 0
35.153999 -49.169998 -0.271 0
35.299 -49.209 -0.27200001 0.12
35.405998 -49.033001 -0.271 0.11
32.299999 -44.432999 -0.227 0.18000001
32.355999 -44.216 -0.226 0.2
32.438999 -44.039001 -0.22499999 0.18000001
12.988 -17.490999 0.034000002 0.18000001
24.899 -33.242001 -0.122 0.43000001
24.979 -33.132 -0.121 0.2
25.16 -33.154999 -0.122 0.30000001
25.348 -33.186001 -0.123 0.30000001
25.541 -33.222 -0.124 0.28999999
25.729 -33.249001 -0.126 0.28999999
25.862 -33.313 -0.127 0.30000001
26.066 -33.359001 -0.12800001 0.30000001
26.266001 -33.397999 -0.12899999 0.28999999
26.466 -33.436001 -0.13 0.28999999
26.657 -33.460999 -0.131 0.28999999
26.858 -33.497002 -0.133 0.28
27.066 -33.540001 -0.134 0.28
27.204 -33.603001 -0.13500001 0.30000001
27.408001 -33.639 -0.13600001 0.28999999
27.618 -33.679001 -0.13699999 0.28999999
27.823999 -33.714001 -0.139 0.28
28.02 -33.736 -0.14 0.28
28.238001 -33.780998 -0.141 0.28
28.445999 -33.814999 -0.142 0.27000001
28.605 -33.896 -0.14399999 0.27000001
28.827999 -33.943001 -0.145 0.27000001
29.038 -33.973999 -0.146 0.27000001
29.252001 -34.007 -0.148 0.25999999
29.479 -34.054001 -0.149 0.25999999
29.688 -34.078999 -0.15000001 0.25999999
29.861 -34.168999 -0.152 0.25999999
30.097 -34.221001 -0.153 0.23999999
30.302999 -34.238998 -0.155 0.17
30.538 -34.286999 -0.156 0.41999999
30.759001 -34.317001 -0.15700001 0.23999999
30.999001 -34.368 -0.15899999 0.2
31.171 -34.449001 -0.16 0.41
31.410999 -34.495998 -0.162 0.23999999
31.643999 -34.533001 -0.163 0.20999999
31.874001 -34.566002 -0.16500001 0.36000001
32.124001 -34.618 -0.16599999 0.2
32.356998 -34.650002 -0.168 0.23999999
32.589001 -34.68 -0.169 0.2
32.786999 -34.780998 -0.171 0.22
33.032001 -34.821999 -0.17200001 0.19
33.285999 -34.869999 -0.17399999 0.20999999
33.529999 -34.904999 -0.176 0.19
33.769001 -34.932999 -0.177 0.20999999
33.902 -34.852001 -0.177 0.11
27.462999 -28.049 -0.104 0.30000001
27.459999 -27.957001 -0.103 0.38
27.549999 -27.872999 -0.103 0.28
27.742001 -27.892 -0.104 0.14
33.765999 -33.743999 -0.17 0
35.5 -35.256001 -0.189 0.059999999
35.823002 -35.354 -0.191 0.11
34.173 -33.618 -0.17200001 0
36.314999 -35.504002 -0.19400001 0
36.609001 -35.566002 -0.19599999 0.12
36.897999 -35.624001 -0.198 0
33.84 -32.258999 -0.163 0
34.040001 -32.247002 -0.164 0
35.323002 -33.358002 -0.177 0
35.283001 -33.111 -0.176 0
35.297001 -32.916 -0.175 0.11
31.204 -28.912001 -0.12899999 0.2
31.256001 -28.778999 -0.12899999 0.36000001
31.316999 -28.653 -0.12899999 0.28999999
31.475 -28.708 -0.13 0.12
35.080002 -31.798 -0.167 0
34.990002 -31.516001 -0.16500001 0.07
35.265999 -31.565001 -0.167 0.11
35.299 -31.395 -0.167 0.14
35.348 -31.240999 -0.16599999 0
35.790001 -31.431999 -0.17 0
35.603001 -31.169001 -0.167 0
35.695 -31.051001 -0.167 0
35.404999 -30.604 -0.163 0
35.540001 -30.527 -0.163 0.1
11.584 -9.8009996 0.086000003 0.25999999
11.642 -9.7880001 0.086000003 0.83999997
11.59 -9.7130003 0.086999997 0.99000001
11.631 -9.6850004 0.086999997 0.99000001
11.668 -9.6540003 0.086999997 0.99000001
11.684 -9.6059999 0.086999997 0.99000001
11.697 -9.5550003 0.086999997 0.99000001
11.743 -9.5310001 0.086999997 0.99000001
11.756 -9.5109997 0.086999997 0.99000001
11.777 -9.4659996 0.086999997 0.99000001
11.813 -9.434 0.086999997 0.99000001
11.827 -9.3850002 0.086999997 0.99000001
11.861 -9.3509998 0.086999997 0.99000001
11.904 -9.3249998 0.086999997 0.99000001
11.916 -9.2740002 0.086999997 0.99000001
11.931 -9.2550001 0.086999997 0.99000001
11.961 -9.2189999 0.086999997 0.99000001
11.996 -9.1859999 0.086999997 0.99000001
12.017 -9.1429996 0.086999997 0.99000001
12.052 -9.1099997 0.086999997 0.99000001
12.079 -9.0710001 0.086999997 0.99000001
12.09 -9.0489998 0.086999997 0.99000001
12.124 -9.0150003 0.086999997 0.99000001
12.149 -8.974 0.086999997 0.99000001
12.18 -8.9379997 0.086999997 0.99000001
12.221 -8.9090004 0.086999997 0.99000001
12.236 -8.8620005 0.086999997 0.99000001
12.269 -8.8269997 0.086999997 0.99000001
12.295 -8.8170004 0.086999997 0.99000001
12.312 -8.7700005 0.086999997 0.99000001
12.344 -8.7349997 0.086999997 0.99000001
12.375 -8.698 0.086999997 0.99000001
12.392 -8.6520004 0.086999997 0.99000001
12.431 -8.6210003 0.086999997 0.99000001
12.454 -8.6090002 0.086999997 0.99000001
12.474 -8.5649996 0.086999997 0.99000001
12.498 -8.5229998 0.086999997 0.99000001
12.536 -8.4919996 0.086999997 0.99000001
12.568 -8.4560003 0.086999997 0.99000001
12.596 -8.4180002 0.086999997 0.99000001
12.629 -8.382 0.086000003 0.99000001
12.624 -8.3500004 0.086999997 0.99000001
12.618 -8.29 0.086999997 0.74000001
12.792 -8.3459997 0.086000003 0
12.751 -8.2629995 0.086000003 0
34.848999 -22.481001 -0.121 0
34.497002 -22.1 -0.117 0.07
35.165001 -22.372999 -0.123 0.14
35.535999 -22.531 -0.126 0.13
13.698 -8.4860001 0.079000004 0.60000002
13.801 -8.4910002 0.078000002 0.27000001
34.75 -21.274 -0.115 0.14
34.775002 -21.214001 -0.115 0.31999999
34.985001 -21.191999 -0.117 0
37.241001 -22.400999 -0.13699999 0
37.316002 -22.287001 -0.13699999 0.1
13.72 -8.059 0.081 0.19
35.661999 -20.844 -0.12 0.18000001
35.348999 -20.587 -0.117 0.12
34.452 -19.917999 -0.108 0.14
34.658001 -19.893 -0.109 0.28999999
34.465 -19.638 -0.107 0.11
34.351002 -19.43 -0.105 0.11
34.535 -19.392 -0.106 0.36000001
34.150002 -19.105 -0.103 0.2
34.261002 -19.025 -0.103 0.34
34.48 -19.006001 -0.104 0.16
34.516998 -18.885 -0.104 0.34999999
34.693001 -18.84 -0.105 0.15000001
34.499001 -18.594 -0.103 0.28
34.580002 -18.497999 -0.103 0.14
34.332001 -18.296 -0.101 0
34.743 -18.375 -0.104 0
35.285999 -18.521 -0.108 0.07
55.459999 -28.905001 -0.287 0.18000001
55.508999 -28.709999 -0.287 0.11
42.873001 -21.997 -0.17399999 0.15000001
42.956001 -21.868999 -0.17399999 0.12
55.598999 -28.205 -0.28600001 0
37.865002 -19.049999 -0.12800001 0.07
55.695 -27.815001 -0.285 0.14
55.751999 -27.624001 -0.285 0.20999999
55.714001 -27.388 -0.28400001 0.17
55.762001 -27.195 -0.28299999 0.18000001
55.764 -27.087 -0.28299999 0.11
37.041 -17.839001 -0.118 0.15000001
36.799 -17.58 -0.116 0
55.882999 -26.497 -0.28200001 0.1
36.636002 -17.219999 -0.113 0.27000001
36.674999 -17.098 -0.113 0.28999999
36.714001 -16.976 -0.113 0.23
18.552999 -8.5290003 0.045000002 0.30000001
18.896 -8.6160002 0.041999999 0.36000001
37.548 -17.004999 -0.119 0.15000001
16.257 -7.224 0.066 0.63999999
16.302 -7.1820002 0.066 0.49000001
37.035 -16.284 -0.113 0.23
56.382999 -24.594999 -0.27900001 0.23
56.358002 -24.374001 -0.278 0.17
37.650002 -16.132999 -0.117 0.34
56.441002 -23.99 -0.278 0.18000001
56.493 -23.802999 -0.27700001 0.36000001
56.514999 -23.603001 -0.27700001 0.18000001
56.537998 -23.507999 -0.27700001 0.37
56.574001 -23.315001 -0.27700001 0.2
56.633999 -23.132 -0.27599999 0.33000001
56.714001 -22.957001 -0.27599999 0.18000001
56.777 -22.775 -0.27599999 0.34999999
56.82 -22.586 -0.27599999 0.16
20.240999 -7.954 0.035 0.36000001
21.104 -8.1800003 0.028000001 0.41
21.056999 -8.085 0.028000001 0.37
21.089001 -8.0220003 0.028000001 0.36000001
20.997999 -7.9120002 0.028999999 0.18000001
21.229 -7.9229999 0.027000001 0.14
51.973 -19.344 -0.23100001 0.23
20.601 -7.5040002 0.033 0.23999999
20.587 -7.4260001 0.033 0.33000001
20.594 -7.355 0.034000002 0.28999999
20.601999 -7.2849998 0.034000002 0.61000001
20.822001 -7.29 0.032000002 0
58.377998 -20.384001 -0.28200001 0
37.273998 -12.874 -0.105 0
58.484001 -20.01 -0.28099999 0
36.683998 -12.412 -0.098999999 0
58.558998 -19.625 -0.28099999 0
58.585999 -19.43 -0.28099999 0.1
37.381001 -12.257 -0.104 0.15000001
37.354 -12.183 -0.104 0.23
37.493 -12.099 -0.105 0.30000001
37.252998 -11.892 -0.102 0.2
37.101002 -11.715 -0.101 0.12
37.136002 -11.598 -0.101 0.13
37.027 -11.436 -0.1 0.31999999
37.152 -11.411 -0.1 0
58.838001 -17.885 -0.27900001 0
37.278999 -11.194 -0.101 0.11
37.307999 -11.075 -0.101 0.14
37.182999 -10.911 -0.1 0.38
40.588001 -11.774 -0.127 0.19
40.513 -11.614 -0.126 0.14
37.703999 -10.743 -0.103 0.15000001
40.687 -11.457 -0.127 0.1
40.806999 -11.353 -0.12800001 0.11
37.875 -10.407 -0.104 0.28
40.285 -10.935 -0.123 0.17
37.700001 -10.104 -0.102 0.15000001
40.051998 -10.669 -0.121 0.15000001
40.009998 -10.523 -0.12 0.16
40.091 -10.41 -0.121 0.20999999
37.868999 -9.7049999 -0.102 0.14
37.953999 -9.6000004 -0.103 0.23
38.083 -9.5050001 -0.104 0.23
37.965 -9.349 -0.102 0.23
38.091999 -9.3170004 -0.103 0.28999999
33.959999 -8.1899996 -0.068999998 0.22
30.648001 -7.1849999 -0.041999999 0.19
38.021 -8.7939997 -0.102 0.15000001
37.974998 -8.658 -0.101 0.090000004
39.978001 -8.9840002 -0.117 0.14
34.549 -7.7030001 -0.072999999 0.25
32.546001 -7.1479998 -0.057 0.23999999
32.687 -7.072 -0.057999998 0.34999999
32.655998 -6.9580002 -0.057 0.36000001
32.658001 -6.8509998 -0.057 0.17
32.727001 -6.7579999 -0.057999998 0.31999999
30.534 -6.2529998 -0.039999999 0.19
30.555 -6.158 -0.039999999 0.27000001
32.922001 -6.5289998 -0.059 0.23999999
30.792999 -6.0050001 -0.041000001 0.20999999
32.459999 -6.2249999 -0.055 0.44999999
33 -6.2220001 -0.059 0.16
33.465 -6.2010002 -0.061999999 0.22
33.351002 -6.1259999 -0.061000001 0.41
33.323002 -6.013 -0.061000001 0.23
32.574001 -5.7709999 -0.055 0.27000001
32.462002 -5.6459999 -0.054000001 0.52999997
32.654999 -5.5739999 -0.055 0.2
32.791 -5.4910002 -0.056000002 0.14
32.874001 -5.4520001 -0.057 0.19
36.943001 -6.0110002 -0.089000002 0.14
37.053001 -5.9099998 -0.090000004 0.18000001
17.367001 -2.7 0.067000002 0.31999999
17.304001 -2.635 0.068000004 0.18000001
17.289 -2.5769999 0.068000004 0.47999999
17.285 -2.5209999 0.068000004 0.46000001
17.305 -2.4960001 0.068000004 0.38999999
17.33 -2.444 0.068000004 0.19
10.144 -1.387 0.125 0.5
10.168 -1.358 0.125 0
36.817001 -4.868 -0.086999997 0
36.568001 -4.7179999 -0.085000001 0.11
36.717999 -4.6789999 -0.086000003 0.12
36.985001 -4.5949998 -0.088 0.16
37.098 -4.4910002 -0.089000002 0.20999999
37.050999 -4.3670001 -0.088 0.19
36.846001 -4.2249999 -0.086000003 0.17
36.945999 -4.119 -0.086999997 0.28999999
39.206001 -4.2480001 -0.105 0.17
41.513 -4.434 -0.123 0.13
41.876999 -4.3400002 -0.126 0.11
39.636002 -3.98 -0.108 0.23
41.669998 -4.0539999 -0.124 0.12
42.049 -3.9579999 -0.127 0.14
39.419998 -3.5840001 -0.106 0.18000001
40.346001 -3.5409999 -0.113 0.19
51.002998 -4.402 -0.198 0.17
50.929001 -4.2340002 -0.197 0.20999999
50.868 -4.0679998 -0.19599999 0.28
42.323002 -3.247 -0.12899999 0.11
40.146 -2.825 -0.111 0.40000001
44.723 -3.079 -0.148 0.16
42.122002 -2.766 -0.127 0
77.022003 -4.836 -0.403 0
77.074997 -4.5960002 -0.403 0
77.114998 -4.355 -0.403 0
77.152 -4.1139998 -0.403 0
77.212997 -3.875 -0.40400001 0
77.259003 -3.7550001 -0.40400001 0
77.325996 -3.5150001 -0.40400001 0
77.369003 -3.273 -0.405 0
77.399002 -3.0309999 -0.405 0
77.444 -2.789 -0.405 0
77.486 -2.5469999 -0.405 0
58.705002 -1.739 -0.257 0
77.584999 -2.184 -0.40599999 0.050000001
58.521999 -1.457 -0.25600001 0
77.668999 -1.698 -0.40700001 0.07
77.711998 -1.455 -0.40700001 0.079999998
77.755997 -1.212 -0.40700001 0.079999998
31.643 -0.37799999 -0.044 0.14
31.596001 -0.32800001 -0.043000001 0.28
31.563999 -0.228 -0.043000001 0.22
31.641001 -0.13 -0.044 0.46000001
78.015999 -0.113 -0.40900001 0
78.013 0.086999997 -0.88800001 0.090000004
78.066002 0.33199999 -0.889 0.090000004
78.112 0.57800001 -0.889 0
78.178001 0.824 -0.88999999 0
78.259003 0.94800001 -0.89200002 0
78.265999 1.194 -0.89200002 0
78.317001 1.441 -0.89200002 0
78.386002 1.688 -0.89399999 0
53.466999 2.994 -0.54500002 0
53.332001 3.155 -0.54299998 0
53.330002 3.323 -0.54299998 0
74.292999 17.184 -0.86299998 0
72.320999 16.966999 -0.83600003 0
71.887001 17.103001 -0.82999998 0
71.566002 17.264 -0.82599998 0
71.261002 17.427999 -0.82300001 0
70.829002 17.558001 -0.81699997 0
70.804001 17.67 -0.81699997 0
70.678001 17.875 -0.81599998 0
69.325996 17.764 -0.79799998 0
61.129002 15.865 -0.68000001 0
60.801998 15.984 -0.676 0
60.325001 16.061001 -0.67000002 0
60.234001 16.139 -0.66900003 0
58.931999 15.988 -0.64999998 0
59.987999 16.476999 -0.667 0.029999999
39.924 11.092 -0.375 0.17
39.898998 11.22 -0.375 0.11
51.702 14.723 -0.54799998 0.079999998
51.460999 14.829 -0.54500002 0.14
51.261002 14.859 -0.54299998 0.1
49.111 14.402 -0.51200002 0
48.908001 14.509 -0.50999999 0.059999999
46.344002 13.906 -0.47299999 0.14
41.339001 12.543 -0.40000001 0.14
41.300999 12.673 -0.40000001 0.36000001
45.125 14.004 -0.45699999 0.19
40.794998 12.728 -0.39300001 0
40.754002 12.856 -0.39300001 0
41.813 13.335 -0.41 0
41.923 13.516 -0.412 0
42.889999 13.977 -0.42699999 0.11
43.393002 14.292 -0.435 0.12
38.762001 12.832 -0.36700001 0.16
39.035999 13.059 -0.37099999 0.22
37.077999 12.532 -0.34299999 0.14
37.055 12.654 -0.34299999 0.15000001
35.394001 12.21 -0.31900001 0.16
22.825001 7.9450002 -0.133 0.25
34.127998 11.953 -0.301 0.16
33.629002 11.896 -0.294 0.33000001
33.868 12.101 -0.29899999 0.19
33.507999 12.091 -0.294 0.25999999
33.334999 12.147 -0.292 0.20999999
33.518002 12.333 -0.29499999 0.31999999
33.479 12.438 -0.29499999 0.17
33.106998 12.359 -0.28999999 0.23999999
33.055 12.458 -0.28999999 0.31999999
33.061001 12.579 -0.28999999 0.30000001
23.976999 9.2010002 -0.154 0.14
23.858 9.2419996 -0.153 0.31
23.802999 9.3070002 -0.153 0.5
23.729 9.3640003 -0.152 0.33000001
23.731001 9.408 -0.152 0.23999999
23.778 9.5129995 -0.153 0.51999998
29.051001 11.735 -0.234 0.23999999
28.726999 11.709 -0.229 0.28999999
28.634001 11.776 -0.228 0.28
28.673 11.897 -0.23 0.31999999
28.684 11.955 -0.23 0.37
28.535999 11.998 -0.228 0.27000001
28.625999 12.142 -0.23 0.31
28.801001 12.324 -0.234 0.30000001
27.858 12.023 -0.22 0.28999999
27.836 12.117 -0.22 0.36000001
28.728001 12.614 -0.234 0.23
28.106001 12.393 -0.22499999 0.34
27.705999 12.32 -0.219 0.19
27.492001 12.328 -0.21699999 0.31
27.274 12.334 -0.214 0.31
27.33 12.463 -0.215 0.31999999
27.291 12.548 -0.215 0.38999999
27.200001 12.559 -0.214 0.17
27.271 12.696 -0.21600001 0.51999998
25.642 12.034 -0.191 0.2
25.556999 12.092 -0.191 0.18000001
25.402 12.116 -0.189 0.44
27.194 13.078 -0.21699999 0.16
25.068001 12.151 -0.185 0.38999999
27.159 13.219 -0.21799999 0.19
26.337 12.921 -0.206 0.31
26.326 13.018 -0.206 0.20999999
26.221001 13.069 -0.205 0.44999999
26.004999 13.063 -0.20200001 0.12
25.393 12.855 -0.193 0.25999999
25.351 12.884 -0.193 0.36000001
25.336 12.976 -0.193 0.54000002
25.441999 13.132 -0.19599999 0.2
26.325001 13.694 -0.20999999 0.14
22.33 11.701 -0.148 0.38
22.641001 11.955 -0.153 0.38999999
24.426001 12.998 -0.182 0.2
22.77 12.161 -0.156 0.25999999
22.476 12.095 -0.152 0.19
22.330999 12.107 -0.15099999 0.25
21.802 11.908 -0.14300001 0.38999999
21.981001 12.096 -0.146 0.36000001
22.032 12.215 -0.148 0.37
21.354 11.925 -0.13699999 0.18000001
21.176001 11.87 -0.13500001 0.56999999
21.544001 12.166 -0.141 0.20999999
21.082001 11.992 -0.134 0.34
17.712999 10.144 -0.081 0.23
17.566999 10.134 -0.079000004 0.56999999
19.658001 11.427 -0.113 0.19
18.082001 10.584 -0.088 0.43000001
18.011 10.58 -0.086999997 0.41
18.021999 10.663 -0.088 0.38
17.969 10.708 -0.088 0.5
17.110001 10.268 -0.074000001 0.19
17.063999 10.313 -0.074000001 0.44999999
17.055 10.381 -0.074000001 0.41
17.083 10.435 -0.075000003 0.44999999
17.532 10.786 -0.082999997 0.23
17.084 10.584 -0.075999998 0.47
17.127001 10.685 -0.077 0.28
17.458 10.969 -0.082999997 0.51999998
17.584 11.126 -0.086000003 0.16
16.830999 10.722 -0.074000001 0.55000001
16.902 10.805 -0.075999998 0.44999999
17.584999 11.321 -0.088 0.28
16.924 10.969 -0.077 0.31
17.492001 11.417 -0.086999997 0.30000001
17.605 11.57 -0.090000004 0.38999999
18.222 12.058 -0.101 0.34999999
17.726999 11.77 -0.093000002 0.36000001
17.871 11.947 -0.096000001 0.22
18 12.116 -0.098999999 0.44999999
17.313999 11.732 -0.088 0.47
17.287001 11.793 -0.088 0.34
17.184999 11.803 -0.086999997 0.31
17.198 11.891 -0.088 0.36000001
17.162001 11.907 -0.086999997 0.25
17.131001 11.965 -0.086999997 0.41999999
16.773001 11.793 -0.082000002 0.36000001
17.01 12.04 -0.086999997 0.41
17.466999 12.447 -0.094999999 0.37
17.09 12.259 -0.089000002 0.28999999
16.833 12.154 -0.085000001 0.2
16.716999 12.11 -0.083999999 0.57999998
16.659 12.148 -0.082999997 0.22
16.462 12.083 -0.081 0.34
16.406 12.122 -0.079999998 0.47999999
16.437 12.225 -0.082000002 0.31999999
16.457001 12.321 -0.082999997 0.5
16.658001 12.513 -0.086000003 0.25
16.577999 12.534 -0.086000003 0.49000001
16.610001 12.64 -0.086999997 0.43000001
16.605 12.719 -0.088 0.31
16.527 12.742 -0.086999997 0.23
16.445999 12.762 -0.086000003 0.54000002
16.594 12.961 -0.090000004 0.31999999
16.662001 13.057 -0.090999998 0.34
16.566 13.065 -0.090000004 0.40000001
16.473 13.076 -0.089000002 0.43000001
16.583 13.249 -0.092 0.31999999
16.514999 13.28 -0.090999998 0.5
16.534 13.381 -0.093000002 0.31
16.419001 13.373 -0.090999998 0.41
16.423 13.419 -0.092 0.38999999
16.336 13.434 -0.090999998 0.34
16.606001 13.744 -0.097000003 0.41
16.646999 13.867 -0.097999997 0.33000001
16.459999 13.798 -0.096000001 0.41
16.496 13.917 -0.097000003 0.25
16.452 13.925 -0.097000003 0.47999999
16.459 14.019 -0.097000003 0.27000001
16.318001 13.988 -0.096000001 0.49000001
16.257999 14.026 -0.094999999 0.43000001
21.827 18.962 -0.2 0.28999999
21.693001 18.964001 -0.198 0.25
21.547001 18.957001 -0.197 0.40000001
21.35 18.843 -0.19400001 0.25
21.111 18.75 -0.19 0.36000001
20.937 18.714001 -0.18799999 0.34999999
20.85 18.754 -0.18799999 0.38999999
20.726 18.76 -0.186 0.28999999
20.542999 18.712 -0.184 0.38999999
20.407 18.646999 -0.182 0.33000001
20.222 18.594 -0.18000001 0.37
20.124001 18.621 -0.17900001 0.38999999
20.003 18.625999 -0.178 0.34
19.951 18.695 -0.178 0.36000001
19.862 18.729 -0.177 0.34999999
19.794001 18.783001 -0.177 0.37
19.716 18.767 -0.176 0.37
19.652 18.825001 -0.176 0.34999999
19.568001 18.863001 -0.175 0.40000001
19.525 18.940001 -0.176 0.36000001
19.535 19.069 -0.177 0.38
19.472 19.128 -0.177 0.46000001
19.391001 19.167999 -0.177 0.25999999
19.160999 18.999001 -0.17299999 0.38999999
19.183001 19.142 -0.17399999 0.46000001
18.969 19.047001 -0.171 0.25999999
18.93 19.128 -0.17200001 0.38
18.905001 19.223 -0.17200001 0.37
17.08 17.473 -0.13699999 0.20999999
17.032 17.534 -0.13699999 0.30000001
16.975 17.530001 -0.13600001 0.34
16.788 17.445999 -0.134 0.36000001
16.773001 17.541 -0.13500001 0.38
16.934 17.820999 -0.139 0.28999999
17.191999 18.208 -0.145 0.43000001
17.263 18.399 -0.148 0.20999999
16.938 18.166 -0.14300001 0.40000001
16.884001 18.165001 -0.142 0.30000001
16.879999 18.275 -0.14300001 0.40000001
16.962999 18.481001 -0.146 0.23
16.857 18.483 -0.145 0.54000002
17.094 18.862 -0.15099999 0.23
16.966 18.837999 -0.15000001 0.41
17.070999 19.014999 -0.153 0.27000001
16.841 18.878 -0.149 0.28999999
16.649 18.781 -0.146 0.36000001
16.514 18.747 -0.145 0.25
16.368999 18.700001 -0.14300001 0.49000001
16.544001 19.021 -0.148 0.18000001
16.386999 18.959999 -0.146 0.41
16.271 18.885 -0.14399999 0.30000001
16.118 18.827 -0.142 0.40000001
16.318001 19.181999 -0.147 0.27000001
16.275 19.254999 -0.148 0.28999999
16.152 19.231001 -0.146 0.44999999
16.032 19.211 -0.145 0.18000001
20.4 24.534 -0.242 0.40000001
20.264 24.527 -0.23999999 0.34999999
19.997999 24.360001 -0.236 0.16
20.236 24.809 -0.243 0.22
20.135 24.844 -0.243 0.54000002
20.104 24.965 -0.244 0.20999999
19.975 24.966 -0.243 0.23
20.108 25.212999 -0.24699999 0.36000001
20.025 25.271 -0.24600001 0.22
19.941999 25.329 -0.24600001 0.47999999
20.371 26.044001 -0.25799999 0.19
20.01 25.747999 -0.252 0.17
19.781 25.618999 -0.248 0.28999999
19.73 25.719 -0.249 0.23
19.656 25.705999 -0.248 0.40000001
19.500999 25.67 -0.24600001 0.18000001
19.358 25.648001 -0.245 0.38
19.164 25.558001 -0.242 0.19
18.982 25.482 -0.23999999 0.16
18.83 25.443001 -0.23800001 0.34
18.674 25.399 -0.236 0.18000001
18.509001 25.257 -0.233 0.37
18.358 25.216999 -0.23199999 0.19
18.225 25.200001 -0.23 0.25999999
18.042 25.112 -0.228 0.20999999
17.837 24.993 -0.22499999 0.18000001
17.708 24.976999 -0.22400001 0.16
15.948 22.565001 -0.182 0.18000001
17.434999 24.839001 -0.22 0.2
17.252001 24.743 -0.21699999 0.38
17.129999 24.733 -0.21600001 0.23
17.000999 24.712 -0.215 0.18000001
17.09 25.01 -0.219 0
21.709999 31.999001 -0.336 0
21.719999 32.122002 -0.338 0
16.524 24.76 -0.212 0.28
16.382999 24.716999 -0.20999999 0.31999999
16.23 24.655001 -0.208 0.19
12.022 18.375 -0.102 0.33000001
11.954 18.396999 -0.102 0.19
11.871 18.332001 -0.101 0.5
11.714 18.215 -0.097999997 0.38
11.593 18.152 -0.096000001 0.40000001
11.433 18.024 -0.093999997 0.36000001
11.361 18.035999 -0.093000002 0.47999999
11.363 18.165001 -0.094999999 0.30000001
11.28 18.16 -0.093999997 0.37
11.398 18.414 -0.097999997 0.36000001
11.324 18.424 -0.097999997 0.43000001
11.373 18.636 -0.1 0.37
11.226 18.524 -0.097999997 0.23
11.101 18.448 -0.096000001 0.47999999
11.068 18.525999 -0.097000003 0.43000001
11.124 18.686001 -0.098999999 0.23999999
18.101999 30.66 -0.294 0.18000001
14.956 25.688999 -0.211 0.52999997
16.582001 28.695 -0.259 0.27000001
16.454 28.681 -0.25799999 0.47
16.337999 28.687 -0.257 0.31999999
16.232 28.606001 -0.255 0.27000001
16.093 28.57 -0.25400001 0.27000001
15.942 28.511 -0.252 0.28
15.795 28.457001 -0.25099999 0.28999999
15.646 28.398001 -0.249 0.30000001
15.512 28.365 -0.248 0.25999999
15.366 28.308001 -0.24600001 0.27000001
15.265 28.228001 -0.244 0.27000001
15.115 28.160999 -0.242 0.36000001
14.953 28.070999 -0.23999999 0.28999999
14.819 28.031 -0.23899999 0.27000001
14.677 27.975 -0.237 0.31
14.543 27.931999 -0.236 0.27000001
14.451 27.861 -0.234 0.28
14.315 27.813 -0.233 0.27000001
14.181 27.766001 -0.23100001 0.28
14.047 27.719 -0.23 0.28999999
13.921 27.684 -0.229 0.28999999
13.785 27.629 -0.227 0.31
13.645 27.565001 -0.226 0.25
13.556 27.495001 -0.22400001 0.30000001
13.423 27.440001 -0.223 0.25999999
13.3 27.407 -0.221 0.46000001
9.6309996 19.989 -0.105 0.14
9.6370001 20.166 -0.108 0.25
9.7360001 20.539 -0.113 0.27000001
9.7290001 20.691 -0.115 0.52999997
9.5790005 20.455999 -0.111 0.30000001
9.5290003 20.517 -0.112 0.25
9.5950003 20.83 -0.116 0.36000001
9.5129995 20.823999 -0.115 0.38999999
9.4320002 20.819 -0.115 0.31999999
9.3509998 20.813999 -0.114 0.34999999
9.3000002 20.875999 -0.115 0.28
9.3319998 21.037001 -0.117 0.5
12.143 27.629 -0.21699999 0.30000001
12.086 27.733999 -0.219 0.27000001
12.043 27.875 -0.22 0.33000001
11.986 27.983999 -0.221 0.30000001
11.928 28.094 -0.222 0.25
12.414 29.497 -0.243 0.40000001
12.404 29.604 -0.244 0.2
12.349 29.735001 -0.24600001 0.16
12.289 29.855 -0.24699999 0.1
12.221 29.955999 -0.248 0.16
12.157 30.070999 -0.249 0.1
12.1 30.201 -0.25099999 0.14
12.089 30.311001 -0.252 0.1
12.015 30.405001 -0.25299999 0.17
11.944 30.504 -0.25400001 0.22
11.895 30.665001 -0.255 0.1
11.837 30.801001 -0.257 0.15000001
11.779 30.941 -0.259 0.16
11.712 31.056 -0.25999999 0.23
11.693 31.155001 -0.26100001 0.11
11.625 31.271999 -0.26199999 0.16
11.545 31.358999 -0.26300001 0.13
11.486 31.504 -0.264 0
11.422 31.636 -0.266 0.12
14.232 39.832001 -0.38699999 0.22
11.836 33.444 -0.292 0.28999999
11.75 33.367001 -0.28999999 0.28999999
11.611 33.305 -0.289 0.34
11.481 33.268002 -0.28799999 0.28999999
11.345 33.213001 -0.28600001 0.34
11.21 33.157001 -0.285 0.28999999
11.068 33.080002 -0.28299999 0.31999999
10.991 33.02 -0.28200001 0.31
10.862 32.98 -0.28099999 0.34
10.732 32.93 -0.28 0.28
10.607 32.898998 -0.27900001 0.30000001
10.476 32.845001 -0.278 0.33000001
10.346 32.792 -0.27599999 0.30000001
10.221 32.752998 -0.27500001 0.34
10.131 32.645 -0.27399999 0.34
10.012 32.623001 -0.273 0.34
9.8889999 32.589001 -0.27200001 0.31999999
9.7550001 32.513 -0.27000001 0.31999999
9.6280003 32.459 -0.26899999 0.30000001
9.5179996 32.462002 -0.26899999 0.38999999
9.3900003 32.402 -0.26699999 0.19
6.2179999 21.68 -0.111 0.37
9.1999998 32.317001 -0.26499999 0.36000001
9.0799999 32.278 -0.264 0.36000001
8.9639997 32.255001 -0.264 0.18000001
5.9889998 21.782 -0.111 0.47999999
5.875 21.635 -0.109 0.34999999
8.6009998 32.117001 -0.26100001 0.31
5.8759999 22.049999 -0.114 0.31
8.415 32.026001 -0.259 0.20999999
5.652 21.754 -0.109 0.30000001
5.6079998 21.868 -0.111 0.25
5.5380001 21.879999 -0.111 0.56
7.9450002 31.858999 -0.255 0.18000001
2.516 10.152 0.059 0.34999999
2.477 10.063 0.059999999 0.31999999
2.434 10.022 0.061000001 0.43000001
2.391 9.9809999 0.061999999 0.47999999
2.348 9.9379997 0.061999999 0.49000001
2.3080001 9.908 0.063000001 0.5
2.27 9.8839998 0.063000001 0.55000001
2.25 9.8660002 0.064000003 0.60000002
2.21 9.8360004 0.064000003 0.60000002
2.1789999 9.8389997 0.064000003 0.63
2.1400001 9.809 0.064999998 0.62
2.105 9.7980003 0.064999998 0.62
2.073 9.8000002 0.064999998 0.63
2.0380001 9.7849998 0.064999998 0.64999998
2.02 9.7749996 0.066 0.66000003
1.988 9.7729998 0.066 0.68000001
1.955 9.7720003 0.066 0.68000001
1.921 9.7600002 0.066 0.69999999
1.89 9.7639999 0.066 0.69999999
1.858 9.7620001 0.066 0.70999998
1.8279999 9.7720003 0.066 0.70999998
1.813 9.7749996 0.066 0.72000003
1.781 9.7740002 0.066 0.72000003
1.751 9.7840004 0.066 0.70999998
1.721 9.7910004 0.066 0.73000002
1.6900001 9.7950001 0.066 0.70999998
1.661 9.8120003 0.066 0.70999998
1.631 9.8210001 0.066 0.67000002
1.615 9.8210001 0.066 0.67000002
1.586 9.8400002 0.066 0.68000001
1.557 9.8549995 0.066 0.67000002
1.528 9.8780003 0.064999998 0.64999998
1.499 9.8900003 0.064999998 0.63999999
1.471 9.9209995 0.064999998 0.60000002
1.442 9.9370003 0.064999998 0.60000002
1.429 9.9589996 0.064999998 0.61000001
1.401 9.9879999 0.064000003 0.58999997
1.372 10.01 0.064000003 0.57999998
1.34 10.012 0.064000003 0.63999999
1.313 10.052 0.063000001 0.52999997
1.284 10.074 0.063000001 0.25
1.2589999 10.133 0.061999999 0.19
1.253 10.219 0.061000001 0.56999999
1.225 10.258 0.061000001 0.2
1.204 10.358 0.059 0.23999999
2.0769999 18.552999 -0.056000002 0.23
2.0150001 18.528999 -0.056000002 0.47
1.955 18.518 -0.055 0.56
1.924 18.497 -0.055 0.46000001
1.862 18.471001 -0.055 0.51999998
1.802 18.451 -0.054000001 0.55000001
1.7410001 18.427999 -0.054000001 0.5
1.6799999 18.402 -0.052999999 0.5
1.62 18.377001 -0.052999999 0.5
1.5599999 18.360001 -0.052999999 0.47999999
1.53 18.341 -0.052000001 0.56999999
1.469 18.312 -0.052000001 0.51999998
1.411 18.308001 -0.052000001 0.55000001
1.351 18.273001 -0.050999999 0.57999998
1.291 18.245001 -0.050999999 0.47999999
1.233 18.233 -0.050999999 0.49000001
1.174 18.211 -0.050000001 0.54000002
1.1440001 18.184999 -0.050000001 0.51999998
1.085 18.156 -0.048999999 0.47999999
1.026 18.132 -0.048999999 0.52999997
0.96799999 18.117001 -0.048999999 0.43000001
0.91000003 18.091999 -0.048 0.43000001
0.852 18.066 -0.048 0.41
0.79500002 18.056999 -0.048 0.54000002
0.76599997 18.044001 -0.048 0.50999999
0.70700002 18.007 -0.046999998 0.43000001
0.64999998 17.985001 -0.046999998 0.44
0.59299999 17.975 -0.046999998 0.47
0.53600001 17.948999 -0.046 0.51999998
0.47799999 17.912001 -0.046 0.64999998
0.42399999 17.99 -0.046999998 0.73000002
0.39500001 17.959999 -0.046 0.30000001
0.345 18.351 -0.052000001 0.44
0.29100001 18.562 -0.055 0.31999999
0.235 18.761 -0.057 0.41999999
0.177 18.974001 -0.059999999 0.18000001
0.119 19.222 -0.064000003 0.44
0.089000002 19.202 -0.064000003 0.70999998
0.028000001 19.556 -0.068999998 0.27000001
-0.034000002 19.818001 -0.071999997 0.52999997
-0.093000002 19.309999 -0.064999998 0.2
-0.152 19.1 -0.061999999 0.38999999
-0.229 20.523001 -0.082000002 0.30000001
-0.29499999 20.604 -0.082999997 0.34999999
-0.333 20.940001 -0.088 0.38
-0.40400001 21.194 -0.092 0.27000001
-0.47799999 21.479 -0.096000001 0.25999999
-0.55299997 21.768999 -0.1 0.25
-0.62400001 21.858999 -0.101 0.67000002
-0.70499998 22.225 -0.106 0.30000001
-0.78500003 22.525999 -0.11 0.18000001
-0.833 22.853001 -0.115 0.30000001
-0.90700001 22.896 -0.116 0.63999999
-1.103 25.718 -0.155 0.25
-1.183 25.711 -0.155 0.34
-1.267 25.761 -0.156 0.30000001
-1.341 25.631001 -0.154 0.38999999
-1.426 25.709999 -0.155 0.34
-1.4579999 25.559999 -0.153 0.33000001
-1.539 25.57 -0.154 0.37
-1.619 25.555 -0.153 0.37
-1.702 25.591 -0.154 0.36000001
-1.7920001 25.725 -0.156 0.34
-1.883 25.857 -0.15800001 0.41
-1.9450001 26.132999 -0.162 0.36000001
-2.0639999 26.604 -0.168 0.36000001
-2.266 28.044001 -0.189 0.28999999
-2.362 28.132999 -0.19 0.38999999
-2.4749999 28.4 -0.19400001 0.25999999
-2.8540001 31.572001 -0.23899999 0.34999999
-2.947 31.497999 -0.23800001 0.28
-2.9990001 31.513 -0.23800001 0.28999999
-3.099 31.513 -0.23800001 0.47999999
-3.191 31.440001 -0.237 0.23999999
-3.2909999 31.437 -0.23800001 0.38
-3.3889999 31.424999 -0.23800001 0.28999999
-3.4909999 31.440001 -0.23800001 0.40000001
-3.6070001 31.576 -0.23999999 0.2
-3.6960001 31.912001 -0.245 0.47999999
-3.8640001 32.467999 -0.25299999 0.22
-4.1079998 33.609001 -0.26899999 0.28999999
-4.3239999 34.469002 -0.28099999 0.23999999
-4.513 35.080002 -0.28999999 0.23999999
-4.9099998 37.23 -0.32100001 0.30000001
-5.0430002 37.333 -0.32300001 0.17
-5.2150002 38.146 -0.33399999 0.16
-5.4699998 39.096001 -0.34799999 0.16
-5.6869998 39.729 -0.35699999 0.17
-5.8930001 40.266998 -0.36500001 0.31999999
-6.4559999 43.150002 -0.40599999 0.16
-6.6240001 43.345001 -0.40900001 0.38999999
-6.823 43.721001 -0.41499999 0.11
-7.0310001 44.592999 -0.42699999 0.16
-7.145 44.412998 -0.42500001 0
-7.5599999 46.058998 -0.449 0
-7.8150001 46.689999 -0.458 0.059999999
-8.915 52.236 -0.537 0
-13.319 76.522003 -0.88300002 0
-13.53 77.013 -0.89099997 0
-14.073 77.254997 -0.89499998 0
-14.36 77.448997 -0.89899999 0
-14.539 77.063004 -0.89399999 0
-14.793 77.082001 -0.89499998 0
-15.071 77.218002 -0.89700001 0
-15.343 77.955002 -0.90799999 0
-15.598 77.959 -0.90899998 0
-23.943001 73.022003 -0.87199998 0
-24.542999 72.535004 -0.86799997 0
-20.812 59.966999 -0.68400002 0
-25.382999 71.665001 -0.86000001 0
-26.952 74.598999 -0.90600002 0
-27.482 74.595001 -0.90899998 0
-25.879 69.242996 -0.83099997 0
-16.875 43.910999 -0.454 0
-25.556 65.846001 -0.78500003 0
-28.634001 72.750999 -0.88999999 0
-29.049999 73.132004 -0.898 0
-25.236 62.965 -0.745 0
-24.615999 60.318001 -0.708 0
-24.766001 60.146999 -0.70599997 0
-22.452999 51.970001 -0.588 0.17
-22.584999 51.827 -0.58700001 0.16
-22.639 51.728001 -0.58600003 0.14
-19.614 44.444 -0.47499999 0.11
-19.671 44.198002 -0.47299999 0.36000001
-19.768 44.042999 -0.47099999 0.22
-19.882 43.928001 -0.47 0.17
-20.033001 43.891998 -0.47099999 0.38999999
-20.193001 43.877998 -0.472 0.20999999
-20.306 43.941002 -0.47299999 0
-20.525 44.050999 -0.47600001 0
-33.175999 70.586998 -0.88800001 0
-33.382999 70.450996 -0.88700002 0
-32.446999 67.925003 -0.85000002 0
-32.486 67.461998 -0.84399998 0
-32.353001 66.650002 -0.833 0
-32.417999 66.517998 -0.83200002 0
-32.834999 66.838997 -0.838 0
-32.979 66.602997 -0.83600003 0
-33.272999 66.668999 -0.83899999 0
-30.636 60.909 -0.75 0
-30.193001 59.562 -0.73100001 0
-30.438 59.581001 -0.73199999 0
-30.572001 59.612999 -0.73400003 0
-30.936001 59.858002 -0.73900002 0
-30.652 58.855999 -0.72500002 0
-28.153999 53.652 -0.64399999 0
-28.212999 53.356998 -0.64099997 0
-28.382 53.271 -0.64099997 0
-28.393999 52.893002 -0.63599998 0
-28.683001 53.23 -0.64200002 0
-28.658001 52.785 -0.63599998 0
-28.028 51.242001 -0.61299998 0
-27.82 50.485001 -0.602 0
-27.898001 50.251999 -0.60000002 0
-28.084999 50.216999 -0.60100001 0
-27.486 48.786999 -0.579 0
-27.454 48.551998 -0.57599998 0
-27.559999 48.383999 -0.57499999 0
-26.891001 46.868 -0.55199999 0
-27.011999 46.738998 -0.551 0
-28.448999 48.867001 -0.58700001 0
-27.451 46.816002 -0.55500001 0
-26.934999 45.771999 -0.53899997 0
-27.047001 45.633999 -0.53799999 0
-27.23 45.616001 -0.53899997 0
-27.355 45.499001 -0.53899997 0.029999999
-27.055 44.682999 -0.52700001 0
-27.107 44.452 -0.52399999 0.059999999
-26.962999 43.907001 -0.51700002 0
-26.921 43.683998 -0.514 0.050000001
-26.690001 43.007 -0.50400001 0
-27.174999 43.481998 -0.51300001 0
-27.802 44.174999 -0.52600002 0
-27.586 43.528 -0.51700002 0
-27.263 42.722 -0.505 0
-27.164 42.273998 -0.49900001 0
-27.018999 41.903999 -0.493 0
-26.844999 41.348999 -0.486 0
-27.117001 41.481998 -0.48899999 0.079999998
-25.736 39.103001 -0.45100001 0.15000001
-25.837999 38.992001 -0.44999999 0
-25.368 38.021999 -0.435 0
-25.478001 37.929001 -0.435 0
-25.497 37.828999 -0.43399999 0.12
-25.690001 37.858002 -0.43599999 0
-25.823999 37.799 -0.43599999 0
-26.295 38.23 -0.44499999 0.13
-25.988001 37.530998 -0.43399999 0.11
-24.872 35.681 -0.40400001 0.14
-24.742001 35.375999 -0.40000001 0.31
-24.995001 35.5 -0.403 0.12
-17.125999 24.176001 -0.20999999 0.27000001
-17.156 24.059 -0.20900001 0.37
-17.232 24.004999 -0.20900001 0.36000001
-17.291 23.927999 -0.208 0.25999999
-17.379999 23.893 -0.20900001 0.38
-17.448999 23.909 -0.20900001 0.31999999
-17.561001 23.903999 -0.20999999 0.27000001
-24.514999 33.132999 -0.37200001 0.38999999
-24.65 33.098 -0.373 0.19
-24.499001 32.681 -0.36700001 0.25
-24.601 32.604 -0.36700001 0.18000001
-24.511 32.272999 -0.36300001 0.25
-24.648001 32.348 -0.36500001 0
-24.726 32.240002 -0.36399999 0.13
-24.518999 31.764 -0.35699999 0.16
-24.617001 31.683001 -0.35699999 0.41999999
-24.796 31.708 -0.359 0.19
-24.886 31.617001 -0.35800001 0.18000001
-22.288 28.139 -0.29800001 0.20999999
-22.243999 27.993 -0.296 0.28999999
-22.322001 27.910999 -0.29499999 0.18000001
-25.205999 31.309 -0.35800001 0
-26.832001 33.113998 -0.39199999 0
-25.955999 31.829 -0.37 0
-27.093 33.008999 -0.39300001 0.12
-25.629 31.028999 -0.359 0.23
-26.514999 31.997999 -0.377 0.20999999
-26.662001 31.969999 -0.37799999 0.16
-26.653999 31.757 -0.37599999 0.31999999
-26.804001 31.733 -0.377 0.31
-26.983999 31.743 -0.37799999 0
-27.197001 31.790001 -0.38100001 0.090000004
-27.18 31.57 -0.37799999 0.25
-27.205999 31.5 -0.37799999 0.30000001
-24.278 27.934999 -0.31299999 0.17
-24.355 27.847 -0.31299999 0.43000001
-24.454 27.784 -0.31299999 0.25
-24.556 27.723 -0.31400001 0.16
-12.431 13.965 -0.057 0.25
-12.465 13.916 -0.056000002 0.50999999
-24.219999 26.916 -0.30199999 0.23
-24.378 26.921 -0.30399999 0.30000001
-24.527 26.915001 -0.30500001 0.28999999
-25.208 27.488001 -0.317 0.12
-25.105 27.202999 -0.31299999 0.16
-24.872999 26.783001 -0.30700001 0
-26.190001 28.111 -0.333 0.13
-25.181 26.858999 -0.31099999 0.12
-24.599001 26.075001 -0.29699999 0.1
-24.492001 25.799 -0.29300001 0.23999999
-24.693001 25.847 -0.296 0.44999999
-24.688999 25.681999 -0.294 0.25
-24.591999 25.42 -0.28999999 0.2
-23.398001 24.113001 -0.26499999 0.14
-24.598 25.188 -0.28799999 0.5
-24.662001 25.094999 -0.28799999 0.23
-24.759001 25.035999 -0.28799999 0.16
-24.74 24.861 -0.28600001 0.30000001
-24.778 24.743 -0.285 0.14
-23.878 23.697001 -0.266 0.22
-23.927999 23.672001 -0.266 0.41999999
-24.084999 23.677999 -0.26800001 0.2
-24.039 23.485001 -0.266 0.19
-24.639999 23.92 -0.27599999 0.50999999
-24.694 23.822001 -0.27500001 0.23999999
-25.267 24.221001 -0.285 0.13
-25.211 24.016001 -0.28299999 0.41
-25.202999 23.934 -0.28200001 0.20999999
-24.554001 23.172001 -0.26800001 0.14
-24.403 22.885 -0.26300001 0.28
-24.542 22.871 -0.26499999 0.31999999
-24.701 22.874001 -0.266 0.31
-24.799999 22.822001 -0.26699999 0.41
-24.818001 22.767 -0.26699999 0.28999999
-24.754999 22.566 -0.264 0.23999999
-24.75 22.42 -0.26300001 0.28
-24.819 22.341 -0.26300001 0.19
-24.989 22.351999 -0.264 0.54000002
-25.42 22.593 -0.271 0.2
-25.443001 22.471001 -0.27000001 0.30000001
-25.417999 22.378 -0.26899999 0.30000001
-25.497 22.306 -0.26899999 0.36000001
-27.795 24.159 -0.31099999 0.31
-24.315001 21.004999 -0.245 0.20999999
-24.362 20.913 -0.245 0.30000001
-22.672001 19.341 -0.212 0.19
-22.753 19.287001 -0.213 0.38
-25.013 21.132 -0.25299999 0.27000001
-24.975 20.966 -0.252 0.2
-25.024 20.874001 -0.25099999 0.44
-24.923 20.657 -0.248 0.20999999
-23.281 19.174999 -0.21699999 0.31999999
-23.318001 19.083 -0.21699999 0.27000001
-23.299 18.945999 -0.215 0.31
-23.268999 18.861 -0.214 0.25
-22.879999 18.427 -0.206 0.27000001
-26.034 20.829 -0.26199999 0.30000001
-25.023001 19.893 -0.243 0.31
-23.306999 18.410999 -0.211 0.17
-22.854 17.938 -0.20200001 0.28999999
-22.815001 17.849001 -0.2 0.27000001
-22.773001 17.702 -0.199 0.38
-22.77 17.584999 -0.198 0.30000001
-22.847 17.530001 -0.198 0.23
-23.235001 17.712 -0.204 0.19
-24.93 18.878 -0.233 0.16
-24.906 18.737 -0.23100001 0.23
-22.639999 16.98 -0.191 0.22
-22.547001 16.799999 -0.189 0.28999999
-22.608 16.735001 -0.189 0.38999999
-22.620001 16.634001 -0.18799999 0.23
-22.639999 16.539 -0.18700001 0.40000001
-22.649 16.438 -0.18700001 0.31999999
-22.809999 16.445 -0.189 0.41
-24.319 17.473 -0.214 0.20999999
-22.872 16.327 -0.18799999 0.30000001
-22.917 16.25 -0.18799999 0.38999999
-22.906 16.134001 -0.18700001 0.30000001
-22.917 16.035 -0.18700001 0.19
-23.110001 16.062 -0.189 0.50999999
-23.211 16.024 -0.19 0.22
-29.641001 20.386 -0.29899999 0.14
-23.259001 15.896 -0.189 0.44
-23.299 15.816 -0.189 0.17
-30.122 20.301001 -0.30399999 0.49000001
-23.183001 15.526 -0.186 0.19
-24.469999 16.275 -0.206 0.20999999
-23.292999 15.441 -0.186 0.46000001
-23.353001 15.375 -0.186 0.20999999
-23.419001 15.314 -0.18700001 0.28999999
-23.563 15.302 -0.18799999 0.36000001
-24.521 15.813 -0.20299999 0.36000001
-24.565001 15.733 -0.20299999 0.23
-23.986 15.257 -0.193 0.27000001
-24.068001 15.256 -0.19400001 0.36000001
-24.025999 15.124 -0.192 0.23999999
-23.958 14.976 -0.19 0.38999999
-24.028999 14.916 -0.191 0.25
-23.955999 14.767 -0.189 0.23
-24.042999 14.716 -0.19 0.38999999
-24.173 14.692 -0.191 0.25
-24.299 14.716 -0.193 0.34
-24.396 14.67 -0.193 0.40000001
-24.673 14.731 -0.197 0.28999999
-24.975 14.805 -0.20100001 0.30000001
-25.035 14.734 -0.20200001 0.40000001
-25.040001 14.631 -0.20100001 0.27000001
-24.903999 14.5 -0.198 0.2
-24.761999 14.313 -0.19499999 0.25999999
-24.695999 14.172 -0.19400001 0.36000001
-25.049999 14.27 -0.199 0.15000001
-25.153 14.12 -0.199 0.57999998
-25.101 13.988 -0.197 0.25
-25.382999 14.04 -0.20100001 0.22
-25.312 13.949 -0.2 0.25999999
-25.334999 13.858 -0.199 0.40000001
-25.625999 13.913 -0.20299999 0.28999999
-25.68 13.838 -0.20299999 0.34
-25.874001 13.837 -0.206 0.23999999
-25.721001 13.652 -0.20299999 0.30000001
-25.809999 13.647 -0.204 0.38999999
-25.955 13.62 -0.205 0.27000001
-26.040001 13.56 -0.206 0.33000001
-26.083 13.478 -0.206 0.37
-26.209999 13.44 -0.207 0.19
-26.149 13.305 -0.206 0.49000001
-26.622999 13.441 -0.212 0.18000001
-26.549 13.351 -0.211 0.30000001
-26.761 13.352 -0.214 0.30000001
-26.832001 13.282 -0.214 0.38999999
-26.882 13.203 -0.214 0.25
-26.907 13.11 -0.214 0.40000001
-27.073 13.085 -0.21600001 0.23
-27.09 12.989 -0.21600001 0.28999999
-27.059999 12.922 -0.215 0.28999999
-27.113001 12.843 -0.215 0.20999999
-28.645 13.458 -0.23800001 0.20999999
-27.212 12.681 -0.215 0.22
-28.844 13.33 -0.23999999 0.27000001
-27.249001 12.491 -0.215 0.14
-30.790001 14.052 -0.26899999 0.28
-29.535999 13.369 -0.249 0.13
-31.597 14.18 -0.28 0.15000001
-31.517 14.026 -0.278 0.14
-32.386002 14.29 -0.29100001 0.31
-32.668999 14.292 -0.294 0.18000001
-32.630001 14.153 -0.29300001 0.27000001
-33.452 14.447 -0.30500001 0.22
-33.612 14.391 -0.30700001 0.25
-33.669998 14.29 -0.30700001 0.12
-33.689999 14.174 -0.30700001 0.38999999
-33.755001 14.077 -0.30700001 0.17
-33.938 14.028 -0.30899999 0.38
-33.909 13.892 -0.308 0.2
-33.748001 13.764 -0.30500001 0
-34.598 13.983 -0.31799999 0.07
-34.075001 13.648 -0.30899999 0.14
-34.327999 13.624 -0.31200001 0
-34.478001 13.559 -0.31400001 0
-38.853001 15.134 -0.37900001 0
-33.785 13.103 -0.30199999 0.07
-35.363998 13.587 -0.32600001 0.12
-35.691002 13.583 -0.33000001 0.13
-34.687 13.078 -0.31400001 0.14
-33.797001 12.622 -0.30000001 0
-35.810001 13.244 -0.33000001 0
-36.042999 13.201 -0.333 0.059999999
-36.094002 13.091 -0.333 0
-34.880001 12.59 -0.31400001 0
-34.493999 12.329 -0.308 0.14
-34.479 12.201 -0.30700001 0.25999999
-34.546001 12.103 -0.308 0.25
-34.701 12.035 -0.30899999 0.25
-34.751999 11.93 -0.30899999 0.2
-34.837002 11.898 -0.31 0.25999999
-35.014 11.836 -0.31299999 0.25999999
-35.159 11.762 -0.31400001 0.23
-35.122002 11.627 -0.31299999 0.19
-35.146999 11.513 -0.31299999 0.44
-35.194 11.406 -0.31299999 0.23
-35.407001 11.352 -0.31600001 0.25
-35.448002 11.304 -0.31600001 0.18000001
-35.639999 11.242 -0.31799999 0.18000001
-34.951 10.905 -0.308 0.17
-36.337002 11.211 -0.32699999 0.17
-36.390999 11.102 -0.32800001 0.16
-36.366001 10.97 -0.32699999 0.23999999
-36.247002 10.872 -0.32499999 0.2
-36.237 10.745 -0.324 0.22
-37.842999 11.091 -0.347 0.16
-37.964001 10.997 -0.34799999 0.17
-37.828999 10.829 -0.34599999 0.34
-37.960999 10.738 -0.347 0.25
-37.810001 10.567 -0.345 0.2
-38.109001 10.586 -0.34900001 0.15000001
-38.241001 10.493 -0.34999999 0
-38.425999 10.415 -0.35299999 0
-42.541 11.384 -0.412 0
-42.548 11.242 -0.41100001 0
-41.650002 10.866 -0.398 0
-41.032001 10.499 -0.38800001 0.36000001
-41.081001 10.374 -0.38800001 0.20999999
-41.220001 10.271 -0.38999999 0.17
-41.550999 10.215 -0.39399999 0
-41.689999 10.11 -0.396 0.11
-43.432999 10.388 -0.41999999 0.090000004
-42.717999 10.075 -0.41 0
-42.451 9.9420004 -0.40599999 0.090000004
-40.257 9.2959995 -0.37400001 0.18000001
-40.428001 9.2019997 -0.37599999 0.25999999
-40.362999 9.0539999 -0.37400001 0.15000001
-42.587002 9.4110003 -0.40599999 0.14
-33.889999 7.3829999 -0.28099999 0
-43.876999 9.4069996 -0.42300001 0.13
-44.161999 9.3950005 -0.42699999 0
-44.637001 9.349 -0.43399999 0.079999998
-45.033001 9.2840004 -0.43900001 0
-45.433998 9.2180004 -0.44400001 0
-44.268002 8.8380003 -0.42699999 0.16
-44.549 8.7480001 -0.43099999 0.19
-44.645 8.6210003 -0.43200001 0.090000004
-44.952999 8.6070004 -0.43599999 0.11
-44.743999 8.4219999 -0.433 0
-44.966999 8.3179998 -0.435 0
-44.832001 8.1470003 -0.433 0
-44.749001 7.987 -0.43200001 0.090000004
-44.734001 7.8390002 -0.43099999 0
-56.345001 9.776 -0.59600002 0
-51.905998 8.8400002 -0.53299999 0
-52.637001 8.7939997 -0.54299998 0
-49.035 8.0360003 -0.491 0
-49.157001 7.8969998 -0.49200001 0
-48.806 7.684 -0.48699999 0
-48.714001 7.513 -0.48500001 0
-48.821999 7.4510002 -0.48699999 0
-48.660999 7.27 -0.484 0
-48.709999 7.1209998 -0.48500001 0
-48.762001 6.9720001 -0.48500001 0
-49.293999 6.8899999 -0.49200001 0
-50.133999 6.8460002 -0.50400001 0
-51.083 6.8119998 -0.51700002 0
-49.577 6.533 -0.495 0
-49.901001 6.4159999 -0.5 0
-50.367001 6.3150001 -0.50599998 0
-51.412998 6.2820001 -0.52100003 0
-52.459 6.2420001 -0.53500003 0
-51.400002 5.9520001 -0.51999998 0
-51.48 5.7979999 -0.52100003 0
-51.641998 5.7340002 -0.523 0
-51.466999 5.5510001 -0.51999998 0
-51.355 5.3759999 -0.51800001 0
-53.331001 5.4120002 -0.546 0
-52.507999 5.1630001 -0.53399998 0
-52.594002 5.0040002 -0.53500003 0
-51.964001 4.862 -0.52600002 0
-54.355 4.9130001 -0.56 0
-54.518002 4.7550001 -0.56199998 0
-54.471001 4.5780001 -0.56099999 0
-54.071999 4.3740001 -0.55500001 0
-53.896 4.1890001 -0.55199999 0
-67.026001 4.9920001 -0.73699999 0
-67.094002 4.8909998 -0.73699999 0
-66.953003 4.6690001 -0.73500001 0
-66.981003 4.46 -0.73500001 0
-67.459 4.1719999 -0.74199998 0
-67.489998 3.961 -0.74199998 0
-77.186996 3.6760001 -0.87800002 0
-76.929001 2.816 -0.87400001 0
-78.105003 2.6129999 -0.88999999 0
-79.054001 2.3959999 -0.903 0
-79.141998 -1.954 -0.90399998 0
-49.456001 -1.522 -0.48800001 0
-49.344002 -1.829 -0.48699999 0.090000004
-49.881001 -2.006 -0.49399999 0
-49.846001 -2.0829999 -0.49399999 0
-36.521 -1.749 -0.30700001 0
-36.525002 -1.865 -0.30700001 0
-36.589001 -2.098 -0.308 0.17
-36.560001 -2.2119999 -0.308 0.2
-36.588001 -2.2709999 -0.308 0.2
-36.542999 -2.3840001 -0.308 0
-36.845001 -2.869 -0.31200001 0.16
-36.886002 -2.931 -0.31299999 0.19
-38.397999 -3.1730001 -0.33500001 0.13
-38.459 -3.3 -0.336 0.41
-38.410999 -3.418 -0.33500001 0.23
-38.651001 -3.5610001 -0.33899999 0.25
-34.992001 -3.3329999 -0.287 0.11
-34.986 -3.4430001 -0.287 0.30000001
-34.734001 -3.473 -0.28400001 0.19
-39.727001 -4.1020002 -0.354 0
-40.150002 -4.401 -0.361 0.17
-40.085999 -4.5219998 -0.36000001 0.2
-26.902 -3.112 -0.17399999 0.23
-26.9 -3.197 -0.17399999 0.41
-26.504 -3.1919999 -0.169 0.28
-26.474001 -3.273 -0.168 0.28
-26.555 -3.368 -0.17 0.43000001
-26.752001 -3.4779999 -0.17299999 0.25
-26.724001 -3.5599999 -0.17200001 0.28999999
-26.722 -3.645 -0.17200001 0.44999999
-26.867001 -3.7079999 -0.175 0.34
-27.011999 -3.8150001 -0.177 0.28999999
-26.222 -3.786 -0.16599999 0.31999999
-26.275 -3.8789999 -0.167 0.34
-26.263 -3.961 -0.167 0.33000001
-26.305 -4.052 -0.168 0.41
-26.433001 -4.1570001 -0.17 0.27000001
-26.452 -4.2030001 -0.17 0.31999999
-26.34 -4.27 -0.168 0.30000001
-26.253 -4.3400002 -0.167 0.40000001
-26.462 -4.46 -0.171 0.20999999
-26.289 -4.5159998 -0.168 0.23
-26.343 -4.6110001 -0.169 0.38999999
-26.325001 -4.6929998 -0.169 0.28999999
-26.229 -4.7179999 -0.168 0.30000001
-26.186001 -4.7950001 -0.168 0.36000001
-26.153 -4.8740001 -0.167 0.28
-25.971001 -4.9239998 -0.16500001 0.34999999
-26.094999 -5.033 -0.167 0
-29.610001 -5.8109999 -0.21699999 0
-29.542999 -5.8940001 -0.21699999 0.050000001
-25.943001 -5.2150002 -0.16500001 0.11
-26.476999 -5.4099998 -0.17299999 0.18000001
-25.896 -5.375 -0.16500001 0.38999999
-25.853001 -5.4510002 -0.16500001 0.36000001
-25.818001 -5.5289998 -0.16500001 0.31
-25.867001 -5.6240001 -0.16599999 0.5
-25.809 -5.6960001 -0.16500001 0.28
-25.253 -5.6149998 -0.15700001 0.18000001
-24.878 -5.6129999 -0.152 0.46000001
-24.728001 -5.6609998 -0.15000001 0.31
-24.847 -5.77 -0.152 0.25
-24.898001 -5.8649998 -0.153 0.37
-24.816 -5.928 -0.152 0.34
-24.834999 -5.974 -0.153 0.38
-24.855 -6.0609999 -0.153 0.20999999
-25.132999 -6.2129998 -0.15700001 0.50999999
-25.319 -6.3439999 -0.16 0.25
-25.174999 -6.3920002 -0.15899999 0.28999999
-25.174 -6.4759998 -0.15899999 0.31
-25.051001 -6.5279999 -0.15700001 0.50999999
-25.177999 -6.6030002 -0.15899999 0.18000001
-25.621 -6.8060002 -0.16599999 0.27000001
-25.617001 -6.8909998 -0.16599999 0.36000001
-28.608 -7.796 -0.20999999 0.11
-24.844999 -6.8499999 -0.156 0.36000001
-25.509001 -7.1209998 -0.16599999 0.2
-25.413 -7.1799998 -0.16500001 0.40000001
-25.448 -7.2329998 -0.16500001 0.34
-25.427 -7.3130002 -0.16500001 0.23999999
-25.237 -7.3449998 -0.163 0.44999999
