# .PCD v0.7 - Point Cloud Data file format
VERSION 0.7
FIELDS x y z intensity
SIZE 4 4 4 4
TYPE F F F F
COUNT 1 1 1 1
WIDTH 1323
HEIGHT 1
VIEWPOINT 0 0 0 1 0 0 0
POINTS 1323
DATA ascii
12.909 10.229 0.76599997 0.31999999
12.912 10.265 0.76700002 0.27000001
12.908 10.328 0.76800001 0.31
12.897 10.386 0.76899999 0.28999999
12.76 10.408 0.76599997 0.60000002
12.717 10.439 0.76499999 0.34
12.655 10.455 0.764 0.47
12.565 10.447 0.76200002 0.44999999
12.519 10.443 0.75999999 0.47
12.517 10.508 0.76200002 0.46000001
12.515 10.573 0.76300001 0.46000001
12.518 10.643 0.76499999 0.44999999
12.524 10.716 0.76599997 0.46000001
12.519 10.781 0.76800001 0.44999999
12.526 10.855 0.76999998 0.46000001
12.531 10.895 0.77100003 0.44
12.528 10.962 0.77200001 0.44999999
12.534 11.037 0.77399999 0.44999999
12.531 11.104 0.77499998 0.44
12.527 11.171 0.77700001 0.46000001
12.528 11.243 0.778 0.44999999
12.519 11.306 0.77999997 0.46000001
12.541 11.362 0.78100002 0.44999999
12.532 11.426 0.78299999 0.46000001
12.524 11.491 0.78399998 0.44999999
12.527 11.567 0.78600001 0.43000001
12.532 11.644 0.78799999 0.44999999
12.523 11.709 0.78899997 0.44999999
12.528 11.788 0.79100001 0.43000001
12.545 11.841 0.792 0.44999999
12.542 11.914 0.79400003 0.44
12.538 11.985 0.796 0.44
12.536 12.059 0.79699999 0.44
12.52 12.119 0.79799998 0.55000001
12.527 12.203 0.80000001 0.40000001
12.525 12.277 0.80199999 0.41
12.535 12.326 0.80400002 0.55000001
12.545 12.414 0.80599999 0.40000001
12.542 12.49 0.80800003 0.44
12.534 12.56 0.80900002 0.61000001
12.804 12.912 0.824 0.38
12.781 12.971 0.82499999 0.27000001
12.803 13.075 0.82800001 0.37
12.818 13.131 0.82999998 0.31999999
12.811 13.207 0.83099997 0.28999999
12.808 13.288 0.833 0.36000001
12.809 13.373 0.83499998 0.31999999
12.814 13.462 0.838 0.40000001
12.803 13.536 0.83899999 0.23999999
12.763 13.579 0.83899999 0.31999999
12.761 13.663 0.84100002 0.20999999
12.703 13.643 0.83899999 0.46000001
12.63 13.651 0.838 0.58999997
12.556 13.657 0.83600003 0.40000001
12.532 13.717 0.83700001 0.47999999
12.533 13.805 0.83999997 0.38
12.525 13.883 0.84100002 0.64999998
12.513 13.958 0.84299999 0.2
6.4640002 7.2150002 0.537 0.40000001
6.428 7.2199998 0.53600001 0.41
6.3909998 7.223 0.53500003 0.43000001
6.3559999 7.23 0.53500003 0.41999999
6.3039999 7.2150002 0.53299999 0.66000003
6.2989998 7.256 0.53399998 0.30000001
6.2480001 7.243 0.53299999 0.41999999
6.2259998 7.2399998 0.53200001 0.44
6.1929998 7.2480001 0.53100002 0.44999999
6.1539998 7.2490001 0.53100002 0.5
6.1149998 7.2480001 0.52999997 0.49000001
6.0809999 7.2529998 0.52899998 0.47999999
6.0450001 7.257 0.52899998 0.47999999
5.9959998 7.244 0.52700001 0.47
5.9780002 7.2449999 0.52700001 0.47999999
5.9390001 7.244 0.52600002 0.47
5.902 7.2449999 0.52499998 0.49000001
5.8670001 7.2480001 0.52399999 0.47999999
5.835 7.256 0.52399999 0.47999999
5.7909999 7.2470002 0.523 0.47999999
5.7610002 7.256 0.52200001 0.47
5.7329998 7.2449999 0.52200001 0.47999999
5.697 7.2459998 0.52100003 0.49000001
5.6620002 7.2480001 0.51999998 0.49000001
5.625 7.2459998 0.51899999 0.47999999
5.5869999 7.2449999 0.51800001 0.49000001
5.5539999 7.2480001 0.51800001 0.47999999
5.5240002 7.256 0.51700002 0.47999999
5.487 7.256 0.51700002 0.47
5.4679999 7.2529998 0.51599997 0.47999999
5.427 7.2459998 0.51499999 0.46000001
5.395 7.25 0.51499999 0.47999999
5.3660002 7.2589998 0.514 0.5
5.3249998 7.2519999 0.51300001 0.47999999
5.2940001 7.257 0.51300001 0.49000001
5.2589998 7.256 0.51200002 0.46000001
5.2459998 7.263 0.51200002 0.47999999
5.1999998 7.2470002 0.51099998 0.47999999
5.1729999 7.256 0.50999999 0.47999999
5.1360002 7.2529998 0.50999999 0.47999999
5.1059999 7.2589998 0.509 0.49000001
5.072 7.2589998 0.509 0.47999999
5.052 7.2540002 0.50800002 0.47999999
5.0180001 7.2529998 0.50700003 0.46000001
4.9879999 7.2589998 0.50700003 0.47
4.9520001 7.2550001 0.50599998 0.47999999
4.921 7.2579999 0.50599998 0.47999999
4.8860002 7.256 0.505 0.47
4.8449998 7.244 0.50400001 0.58999997
4.8379998 7.283 0.505 0.40000001
4.8429999 7.3150001 0.50599998 0.49000001
4.8460002 7.3709998 0.50700003 0.5
4.823 7.3860002 0.50700003 0.25
4.8639998 7.5 0.51099998 0.64999998
4.7709999 7.408 0.50700003 0.28999999
4.7509999 7.428 0.50700003 0.37
4.7519999 7.4819999 0.509 0.47
4.7309999 7.474 0.50800002 0.37
4.6919999 7.4629998 0.50700003 0.30000001
4.6659999 7.474 0.50700003 0.34999999
4.6360002 7.4790001 0.50700003 0.31999999
4.5949998 7.4640002 0.50599998 0.31999999
4.5650001 7.4689999 0.505 0.31999999
4.5359998 7.473 0.505 0.33000001
4.5170002 7.4679999 0.50400001 0.31999999
4.4850001 7.4679999 0.50400001 0.34
4.4619999 7.4819999 0.50400001 0.31999999
4.4200001 7.4650002 0.50199997 0.31999999
4.3930001 7.474 0.50199997 0.38
4.3600001 7.4699998 0.50199997 0.31
4.3280001 7.4699998 0.50099999 0.31999999
4.2979999 7.4710002 0.50099999 0.31999999
4.2729998 7.4559999 0.5 0.33000001
4.25 7.4689999 0.5 0.28999999
4.1890001 7.4159999 0.49700001 0.25
4.1409998 7.3839998 0.495 0.41
4.1079998 7.3790002 0.495 0.40000001
4.0760002 7.3759999 0.49399999 0.44999999
4.0510001 7.3860002 0.49399999 0.37
4.0300002 7.3740001 0.493 0.38999999
4.0100002 7.3940001 0.49399999 0.47999999
4.0040002 7.4380002 0.495 0.46000001
3.9760001 7.4419999 0.49399999 0.34999999
3.947 7.4439998 0.49399999 0.33000001
3.925 7.46 0.49399999 0.33000001
3.8889999 7.447 0.493 0.33000001
3.8710001 7.441 0.493 0.33000001
3.842 7.4419999 0.49200001 0.33000001
3.813 7.4439998 0.49200001 0.33000001
3.783 7.441 0.491 0.33000001
3.756 7.448 0.491 0.33000001
3.7309999 7.4559999 0.491 0.34
3.7030001 7.4569998 0.491 0.33000001
3.668 7.4450002 0.49000001 0.33000001
3.652 7.4419999 0.48899999 0.34
3.6240001 7.4439998 0.48899999 0.34
3.596 7.447 0.48899999 0.34
3.5680001 7.4489999 0.48800001 0.33000001
3.539 7.448 0.48800001 0.33000001
3.5109999 7.4499998 0.48800001 0.33000001
3.4860001 7.4569998 0.48699999 0.34999999
3.47 7.4520001 0.48699999 0.33000001
3.437 7.4419999 0.486 0.33000001
3.414 7.4549999 0.486 0.34
3.3889999 7.46 0.486 0.34
3.358 7.454 0.486 0.33000001
3.3299999 7.4559999 0.48500001 0.34
3.3 7.4520001 0.48500001 0.34
3.29 7.46 0.48500001 0.34
3.256 7.447 0.484 0.31999999
3.2309999 7.4520001 0.484 0.38
3.2049999 7.4559999 0.484 0.34999999
3.175 7.4510002 0.48300001 0.34
3.152 7.461 0.48300001 0.36000001
3.1270001 7.4679999 0.48300001 0.36000001
3.1070001 7.454 0.48199999 0.34999999
3.0799999 7.4530001 0.48199999 0.34999999
3.0550001 7.4590001 0.48199999 0.34999999
3.027 7.4590001 0.48100001 0.34999999
3.0020001 7.4629998 0.48100001 0.31999999
2.9760001 7.467 0.48100001 0.37
2.947 7.461 0.47999999 0.36000001
2.934 7.4619999 0.47999999 0.36000001
2.9070001 7.4619999 0.47999999 0.36000001
2.882 7.467 0.47999999 0.33000001
2.8570001 7.474 0.47999999 0.34
2.826 7.4629998 0.479 0.34
2.8 7.4640002 0.479 0.34
2.7780001 7.4759998 0.479 0.34
2.7479999 7.4660001 0.47799999 0.34
2.7409999 7.4840002 0.479 0.18000001
2.691 7.4190001 0.47600001 0.44
2.6589999 7.4050002 0.47499999 0.38
2.599 7.3080001 0.47099999 0.41
2.5769999 7.3189998 0.472 0.41
2.5510001 7.3179998 0.47099999 0.41
2.526 7.3200002 0.47099999 0.41999999
2.5109999 7.3150001 0.47099999 0.41
2.49 7.3280001 0.47099999 0.41
2.4619999 7.3189998 0.47 0.41999999
2.4389999 7.3270001 0.47 0.41999999
2.4100001 7.3169999 0.47 0.41999999
2.3870001 7.3249998 0.47 0.41999999
2.3610001 7.323 0.46900001 0.43000001
2.345 7.3130002 0.46900001 0.43000001
2.323 7.322 0.46900001 0.43000001
2.2950001 7.3140001 0.46799999 0.43000001
2.273 7.323 0.46799999 0.41
2.25 7.3319998 0.46799999 0.41999999
2.223 7.3239999 0.46799999 0.43000001
2.194 7.3119998 0.46700001 0.41999999
2.184 7.3210001 0.46700001 0.43000001
2.161 7.3280001 0.46700001 0.41999999
2.135 7.323 0.46700001 0.41
2.1099999 7.3239999 0.46700001 0.41
2.0869999 7.329 0.46700001 0.41
2.062 7.3309999 0.46700001 0.41
2.0380001 7.3340001 0.46700001 0.41999999
2.0109999 7.3249998 0.46599999 0.41
1.998 7.322 0.46599999 0.43000001
1.976 7.3319998 0.46599999 0.43000001
1.95 7.329 0.46599999 0.41999999
1.926 7.3309999 0.465 0.41999999
1.901 7.329 0.465 0.43000001
1.878 7.3330002 0.465 0.41
1.851 7.3260002 0.465 0.41
1.839 7.3270001 0.465 0.41999999
1.8150001 7.3249998 0.46399999 0.44
1.79 7.3239999 0.46399999 0.43000001
1.768 7.3340001 0.46399999 0.44
1.742 7.3260002 0.46399999 0.41999999
1.717 7.3249998 0.46399999 0.43000001
1.6950001 7.335 0.46399999 0.41999999
1.681 7.3260002 0.463 0.43000001
1.656 7.323 0.463 0.43000001
1.633 7.3260002 0.463 0.43000001
1.61 7.3309999 0.463 0.43000001
1.584 7.3210001 0.46200001 0.41999999
1.561 7.3299999 0.463 0.41999999
1.5369999 7.3270001 0.46200001 0.41
1.527 7.3369999 0.463 0.43000001
1.5 7.3239999 0.46200001 0.41
1.476 7.3249998 0.46200001 0.41999999
1.451 7.3200002 0.461 0.41
1.431 7.336 0.46200001 0.41
1.405 7.3270001 0.461 0.41999999
1.383 7.3369999 0.46200001 0.41999999
1.358 7.3270001 0.461 0.43000001
1.345 7.3239999 0.461 0.52999997
1.322 7.3280001 0.461 0.40000001
1.299 7.3299999 0.461 0.41
1.275 7.3280001 0.461 0.41999999
1.251 7.3280001 0.461 0.41999999
1.226 7.322 0.46000001 0.43000001
1.204 7.3319998 0.46000001 0.41
1.193 7.3340001 0.46000001 0.41999999
1.168 7.3299999 0.46000001 0.41999999
1.1440001 7.323 0.46000001 0.43000001
1.1210001 7.3249998 0.46000001 0.43000001
1.098 7.3280001 0.46000001 0.41999999
1.076 7.3400002 0.46000001 0.41
1.051 7.329 0.45899999 0.43000001
1.038 7.3210001 0.45899999 0.41999999
1.016 7.3340001 0.45899999 0.41999999
0.99299997 7.335 0.45899999 0.43000001
0.96899998 7.3299999 0.45899999 0.41999999
0.94499999 7.3309999 0.45899999 0.43000001
0.92199999 7.3319998 0.45899999 0.41999999
0.89899999 7.335 0.45899999 0.41
0.88599998 7.3270001 0.45899999 0.44
0.86500001 7.3410001 0.45899999 0.43000001
0.84100002 7.3340001 0.45899999 0.43000001
0.81699997 7.335 0.45899999 0.43000001
0.79400003 7.3330002 0.45899999 0.41999999
0.76999998 7.3319998 0.458 0.41
0.74699998 7.3340001 0.458 0.43000001
0.72399998 7.329 0.458 0.41
0.71200001 7.3319998 0.458 0.41999999
0.69 7.3379998 0.458 0.41
0.667 7.3400002 0.458 0.41999999
0.64300001 7.3400002 0.458 0.43000001
0.62 7.3340001 0.458 0.43000001
0.59600002 7.3299999 0.458 0.41
0.57300001 7.3299999 0.458 0.41999999
0.56199998 7.3449998 0.458 0.41
0.53899997 7.342 0.458 0.43000001
0.51599997 7.342 0.458 0.41999999
0.49200001 7.3340001 0.458 0.41
0.47 7.3470001 0.458 0.41
0.44600001 7.3309999 0.45699999 0.41
0.42300001 7.3319998 0.45699999 0.41
0.412 7.3410001 0.458 0.41
0.38800001 7.3239999 0.45699999 0.50999999
0.366 7.3649998 0.458 0.37
0.34900001 7.4959998 0.463 0.83999997
0.32600001 7.5009999 0.463 0.70999998
0.30199999 7.5159998 0.463 0.73000002
0.27900001 7.507 0.463 0.33000001
0.26800001 7.5570002 0.465 0.38
0.244 7.552 0.465 0.38
0.22 7.5450001 0.46399999 0.38
0.197 7.5469999 0.46399999 0.38
0.17299999 7.5500002 0.46399999 0.38
0.15000001 7.5609999 0.465 0.38
0.126 7.5469999 0.46399999 0.37
0.102 7.5489998 0.46399999 0.38999999
0.090000004 7.5500002 0.46399999 0.38
0.066 7.5479999 0.46399999 0.38
0.043000001 7.5580001 0.465 0.44999999
0.018999999 7.552 0.46399999 0.36000001
-0.0049999999 7.5560002 0.465 0.38
-0.028999999 7.5599999 0.465 0.38999999
-0.052000001 7.5679998 0.465 0.38
-0.064000003 7.5619998 0.465 0.38
-0.088 7.5640001 0.465 0.38
-0.112 7.5549998 0.465 0.38999999
-0.13500001 7.559 0.465 0.38
-0.15899999 7.5619998 0.465 0.38999999
-0.183 7.5640001 0.465 0.38
-0.206 7.5510001 0.465 0.44
-0.219 7.5710001 0.465 0.31999999
-0.243 7.5640001 0.465 0.5
-0.26699999 7.5749998 0.465 0.2
-0.289 7.5289998 0.46399999 0.64999998
-0.31299999 7.5320001 0.46399999 0.64999998
-0.33399999 7.4790001 0.46200001 0.81
-0.35699999 7.4840002 0.46200001 0.81999999
-0.382 7.494 0.463 0.82999998
-0.39300001 7.4840002 0.463 0.81999999
-0.41600001 7.4850001 0.463 0.81
-0.44 7.4850001 0.463 0.81999999
-0.463 7.4819999 0.463 0.61000001
-0.49000001 7.5279999 0.46399999 0.40000001
-0.51300001 7.5170002 0.46399999 0.38999999
-0.537 7.5110002 0.46399999 0.38
-0.54799998 7.506 0.46399999 0.38
-0.57300001 7.526 0.46399999 0.38
-0.59600002 7.5079999 0.46399999 0.38999999
-0.62 7.5149999 0.46399999 0.38
-0.64399999 7.5219998 0.46399999 0.38
-0.66799998 7.5180001 0.46399999 0.38999999
-0.69199997 7.52 0.46399999 0.38
-0.704 7.527 0.465 0.38999999
-0.72799999 7.5209999 0.465 0.38999999
-0.75099999 7.5190001 0.465 0.38
-0.77600002 7.5279999 0.465 0.38
-0.80000001 7.5240002 0.465 0.38
-0.82200003 7.513 0.465 0.37
-0.847 7.5170002 0.465 0.38
-0.85900003 7.5209999 0.465 0.36000001
-0.884 7.526 0.465 0.37
-0.90799999 7.5289998 0.46599999 0.38
-0.93199998 7.527 0.46599999 0.36000001
-0.95599997 7.5300002 0.46599999 0.36000001
-0.97899997 7.5209999 0.46599999 0.36000001
-1.0039999 7.527 0.46599999 0.34999999
-1.029 7.5300002 0.46599999 0.36000001
-1.0420001 7.5380001 0.46599999 0.36000001
-1.066 7.539 0.46700001 0.36000001
-1.09 7.5359998 0.46700001 0.36000001
-1.115 7.5440001 0.46700001 0.36000001
-1.138 7.5370002 0.46700001 0.38999999
-1.1619999 7.533 0.46700001 0.34999999
-1.189 7.5510001 0.46799999 0.34999999
-1.199 7.5370002 0.46700001 0.34999999
-1.223 7.5370002 0.46700001 0.40000001
-1.249 7.5430002 0.46799999 0.34
-1.271 7.533 0.46700001 0.34999999
-1.299 7.553 0.46799999 0.36000001
-1.322 7.5430002 0.46799999 0.38999999
-1.346 7.5430002 0.46799999 0.34999999
-1.3609999 7.5560002 0.46900001 0.36000001
-1.383 7.5440001 0.46799999 0.38999999
-1.409 7.552 0.46900001 0.34
-1.432 7.5450001 0.46900001 0.38999999
-1.4579999 7.552 0.46900001 0.34
-1.484 7.5560002 0.46900001 0.34999999
-1.5089999 7.5570002 0.47 0.34999999
-1.52 7.5510001 0.47 0.38999999
-1.546 7.559 0.47 0.38
-1.572 7.5619998 0.47 0.37
-1.595 7.553 0.47 0.38
-1.62 7.5580001 0.47099999 0.37
-1.6440001 7.5510001 0.47 0.37
-1.671 7.5599999 0.47099999 0.37
-1.694 7.5539999 0.47099999 0.36000001
-1.707 7.5549998 0.47099999 0.37
-1.734 7.5640001 0.472 0.38
-1.767 7.5970001 0.47299999 0.16
-1.775 7.527 0.47099999 0.62
-1.803 7.539 0.47099999 0.67000002
-1.825 7.526 0.47099999 0.55000001
-1.845 7.5050001 0.47 0.69999999
-1.8430001 7.4489999 0.46900001 0.31999999
-1.858 7.4109998 0.46700001 0.43000001
-1.882 7.4070001 0.46799999 0.44999999
-1.904 7.3969998 0.46700001 0.43000001
-1.932 7.4060001 0.46799999 0.43000001
-1.956 7.402 0.46799999 0.44
-1.983 7.4109998 0.46900001 0.41999999
-1.997 7.4180002 0.46900001 0.41
-2.0190001 7.4060001 0.46900001 0.41
-2.0439999 7.4070001 0.46900001 0.41999999
-2.0699999 7.4099998 0.46900001 0.43000001
-2.096 7.4109998 0.47 0.43000001
-2.119 7.4050002 0.47 0.43000001
-2.1459999 7.4099998 0.47 0.43000001
-2.158 7.4099998 0.47 0.43000001
-2.1900001 7.4299998 0.47099999 0.43000001
-2.211 7.415 0.47099999 0.43000001
-2.2360001 7.414 0.47099999 0.43000001
-2.2609999 7.4130001 0.47099999 0.43000001
-2.289 7.421 0.472 0.44
-2.312 7.4120002 0.472 0.41999999
-2.3380001 7.414 0.472 0.43000001
-2.352 7.4180002 0.472 0.43000001
-2.3770001 7.414 0.472 0.44999999
-2.402 7.414 0.47299999 0.43000001
-2.4289999 7.4180002 0.47299999 0.44999999
-2.4549999 7.4159999 0.47299999 0.44999999
-2.4779999 7.4099998 0.47299999 0.44999999
-2.5039999 7.408 0.47400001 0.44999999
-2.5209999 7.4190001 0.47400001 0.46000001
-2.5469999 7.421 0.47400001 0.46000001
-2.5739999 7.4219999 0.47499999 0.44999999
-2.5969999 7.414 0.47499999 0.46000001
-2.622 7.4099998 0.47499999 0.46000001
-2.6500001 7.4169998 0.47499999 0.44
-2.6760001 7.4159999 0.47600001 0.44
-2.6919999 7.4229999 0.47600001 0.44999999
-2.711 7.4029999 0.47600001 0.44999999
-2.744 7.421 0.477 0.44
-2.7750001 7.4330001 0.477 0.46000001
-2.8010001 7.4289999 0.47799999 0.46000001
-2.825 7.4219999 0.47799999 0.46000001
-2.8510001 7.421 0.47799999 0.44999999
-2.869 7.4330001 0.479 0.46000001
-2.8900001 7.4190001 0.47799999 0.47
-2.9200001 7.4260001 0.479 0.46000001
-2.944 7.4190001 0.479 0.5
-2.974 7.4260001 0.47999999 0.63999999
-2.9809999 7.3109999 0.47600001 0.69999999
-2.987 7.2589998 0.47499999 0.31999999
-3.096 7.4239998 0.48100001 0.44
-3.1210001 7.4180002 0.48100001 0.44999999
-3.148 7.4169998 0.48199999 0.43000001
-3.1789999 7.4239998 0.48199999 0.46000001
-3.2030001 7.4159999 0.48199999 0.46000001
-3.23 7.415 0.48300001 0.46000001
-3.253 7.4349999 0.484 0.47
-3.2880001 7.4510002 0.48500001 0.58999997
-3.306 7.4289999 0.484 0.67000002
-3.286 7.322 0.48100001 0.17
-3.312 7.3189998 0.48100001 0.47
-3.4289999 7.4510002 0.486 0.49000001
-3.4419999 7.4489999 0.48699999 0.5
-3.471 7.4489999 0.48699999 0.50999999
-3.503 7.4580002 0.48800001 0.54000002
-3.527 7.447 0.48800001 0.52999997
-3.5610001 7.4569998 0.48899999 0.56
-3.585 7.448 0.48899999 0.56
-3.6170001 7.454 0.48899999 0.54000002
-3.635 7.461 0.49000001 0.54000002
-3.678 7.4889998 0.491 0.52999997
-3.7019999 7.4790001 0.491 0.52999997
-3.7309999 7.4780002 0.49200001 0.54000002
-3.7609999 7.4790001 0.49200001 0.54000002
-3.79 7.4780002 0.493 0.55000001
-3.8180001 7.4749999 0.493 0.55000001
-3.852 7.4819999 0.49399999 0.55000001
-3.8659999 7.4819999 0.49399999 0.56
-3.8929999 7.4770002 0.49399999 0.55000001
-3.924 7.4780002 0.495 0.55000001
-3.9590001 7.487 0.49599999 0.55000001
-3.9860001 7.4819999 0.49599999 0.55000001
-4.0149999 7.48 0.49599999 0.54000002
-4.0450001 7.4780002 0.49700001 0.54000002
-4.0679998 7.4920001 0.49700001 0.54000002
-4.0949998 7.487 0.498 0.55000001
-4.1209998 7.4770002 0.498 0.54000002
-4.1560001 7.4850001 0.49900001 0.55000001
-4.1869998 7.4860001 0.49900001 0.56
-4.2150002 7.48 0.49900001 0.56
-4.2519999 7.4910002 0.5 0.55000001
-4.2659998 7.4879999 0.50099999 0.56
-4.2989998 7.4910002 0.50099999 0.54000002
-4.3239999 7.48 0.50099999 0.55000001
-4.3579998 7.4850001 0.50199997 0.52999997
-4.3909998 7.487 0.50300002 0.55000001
-4.4219999 7.4850001 0.50300002 0.56
-4.4520001 7.4829998 0.50400001 0.55000001
-4.473 7.4910002 0.50400001 0.56
-4.5029998 7.4879999 0.505 0.56
-4.5359998 7.4889998 0.505 0.55000001
-4.5710001 7.493 0.50599998 0.54000002
-4.598 7.4840002 0.50599998 0.52999997
-4.6329999 7.4879999 0.50700003 0.52999997
-4.6700001 7.4959998 0.50800002 0.54000002
-4.7010002 7.493 0.50800002 0.55000001
-4.7189999 7.4949999 0.509 0.56
-4.75 7.4920001 0.509 0.55000001
-4.7880001 7.4990001 0.50999999 0.55000001
-4.8150001 7.4889998 0.50999999 0.54000002
-4.8509998 7.494 0.51099998 0.55000001
-4.8839998 7.4920001 0.51200002 0.55000001
-4.9169998 7.4920001 0.51200002 0.54000002
-4.9359999 7.4959998 0.51300001 0.55000001
-4.973 7.5 0.51300001 0.56999999
-5.0040002 7.494 0.514 0.55000001
-5.04 7.4990001 0.51499999 0.55000001
-5.072 7.494 0.51499999 0.56
-5.0970001 7.48 0.51499999 0.51999998
-5.1680002 7.533 0.51800001 0.56999999
-5.131 7.454 0.51499999 0.56999999
-5.5580001 8.0170002 0.53899997 0.2
-5.598 8.0209999 0.54000002 0.1
-5.6490002 8.0410004 0.54100001 0.16
-5.6919999 8.0469999 0.542 0.1
-5.756 8.0830002 0.54500002 0.16
-5.7579999 8.0319996 0.54299998 0.28999999
-5.7779999 8.0349998 0.54400003 0.20999999
-5.8189998 8.0369997 0.54500002 0.18000001
-5.8429999 8.0179996 0.54500002 0.1
-5.8930001 8.033 0.546 0.16
-5.9349999 8.0369997 0.54699999 0.1
-5.9879999 8.0550003 0.54900002 0.15000001
-6.0149999 8.0389996 0.54900002 0.1
-6.0500002 8.033 0.54900002 0.14
-6.0830002 8.0509996 0.55000001 0.28
-6.1240001 8.052 0.551 0.27000001
-6.1739998 8.0649996 0.55299997 0.25
-6.2160001 8.0670004 0.55400002 0.23999999
-6.2540002 8.0629997 0.55400002 0.25
-6.3070002 8.0780001 0.55599999 0.23999999
-6.3460002 8.0760002 0.55599999 0.11
-6.3569999 8.0640001 0.55599999 0.17
-6.4060001 8.0740004 0.55800003 0.28999999
-6.4330001 8.0550003 0.55800003 0.11
-6.4780002 8.0600004 0.55900002 0.15000001
-6.5349998 8.0780001 0.56 0.17
-6.5799999 8.0819998 0.56199998 0.18000001
-6.618 8.0769997 0.56199998 0.18000001
-6.6490002 8.0880003 0.56300002 0.15000001
-6.539 7.9039998 0.55599999 0.13
-6.3969998 7.6849999 0.54699999 0.25999999
-6.3940001 7.632 0.546 0.41
-6.4419999 7.6409998 0.54699999 0.31999999
-6.4530001 7.6059999 0.546 0.47999999
-6.5089998 7.6220002 0.54799998 0.33000001
-6.526 7.618 0.54799998 0.61000001
-5.6789999 6.5929999 0.50300002 0.30000001
-5.9400001 6.8499999 0.51599997 0.19
-7.072 8.0970001 0.57300001 0.14
-7.118 8.0979996 0.574 0.23
-7.1479998 8.0799999 0.574 0.23
-6.0100002 6.757 0.51499999 0.2
-5.8639998 6.553 0.50599998 0.18000001
-7.2690001 8.0880003 0.57700002 0.15000001
-5.875 6.4619999 0.50400001 0.56
-7.408 8.0880003 0.57999998 0.23999999
-7.4359999 8.0679998 0.57999998 0.11
-7.4770002 8.0600004 0.58099997 0.15000001
-7.4050002 7.9330001 0.57599998 0.2
-7.3730001 7.875 0.574 0.14
-7.2620001 7.7080002 0.56699997 0.27000001
-7.2480001 7.645 0.565 0.44
-7.29 7.6409998 0.56599998 0.38
-7.323 7.6279998 0.56699997 0.58999997
-7.3649998 7.6240001 0.56800002 0.27000001
-7.388 7.599 0.56800002 0.50999999
-7.3959999 7.5599999 0.56699997 0.47
-7.4000001 7.54 0.56599998 0.46000001
-7.4520001 7.5450001 0.56800002 0.47999999
-7.4809999 7.527 0.56800002 0.67000002
-7.5359998 7.5349998 0.56900001 0.16
-7.5830002 7.5349998 0.57099998 0.41999999
-7.6409998 7.5450001 0.57200003 0.51999998
-7.6750002 7.5539999 0.57300001 0.50999999
-7.7280002 7.559 0.57499999 0.50999999
-7.7680001 7.5500002 0.57499999 0.55000001
-7.8150001 7.5469999 0.57599998 0.54000002
-7.8629999 7.546 0.57800001 0.52999997
-7.9130001 7.546 0.579 0.55000001
-7.954 7.5380001 0.57999998 0.5
-8.0059996 7.54 0.58099997 0.47999999
-8.0459995 7.553 0.58200002 0.51999998
-8.0930004 7.5500002 0.583 0.51999998
-8.1490002 7.5539999 0.58499998 0.52999997
-8.1990004 7.553 0.58600003 0.52999997
-8.2530003 7.5539999 0.58700001 0.54000002
-8.3030005 7.552 0.58899999 0.52999997
-8.3559999 7.553 0.58999997 0.52999997
-8.3999996 7.5679998 0.59100002 0.55000001
-8.4499998 7.5650001 0.59299999 0.54000002
-8.5039997 7.5650001 0.59399998 0.51999998
-8.5550003 7.5619998 0.59500003 0.54000002
-8.6129999 7.566 0.597 0.54000002
-8.6610003 7.559 0.59799999 0.50999999
-8.7150002 7.5580001 0.59899998 0.51999998
-8.7600002 7.573 0.60100001 0.52999997
-8.8030005 7.5630002 0.602 0.70999998
-8.6990004 7.4260001 0.59600002 0.38
-9.4309998 7.9970002 0.62699997 0.23
-9.5860004 8.0769997 0.63300002 0.27000001
-9.6619997 8.0889997 0.63499999 0.11
-9.7200003 8.085 0.63700002 0.16
-9.7729998 8.1029997 0.63800001 0.17
-9.8570004 8.1199999 0.64099997 0.16
-9.9130001 8.1149998 0.64200002 0.17
-9.9680004 8.1070004 0.64399999 0.16
-10.03 8.1049995 0.64499998 0.16
-10.094 8.1049995 0.64700001 0.16
-10.165 8.1090002 0.64899999 0.16
-10.247 8.1210003 0.65100002 0.16
-10.307 8.1420002 0.653 0.17
-10.365 8.1359997 0.65499997 0.17
-10.438 8.1400003 0.65700001 0.1
-10.405 8.0620003 0.65399998 0.17
-10.221 7.869 0.64499998 0.12
-10.16 7.7709999 0.64200002 0.31
-10.314 7.8629999 0.648 0.38
-10.226 7.7459998 0.64300001 0.22
-10.219 7.6900001 0.64200002 0.54000002
-10.448 7.8109999 0.64999998 0.19
-10.823 8.0369997 0.66500002 0.090000004
-11.053 8.1529999 0.67400002 0.15000001
-11.119 8.1479998 0.67500001 0.090000004
-11.185 8.1420002 0.67699999 0.15000001
-11.259 8.1689997 0.68000001 0.22
-11.276 8.1280003 0.67900002 0.25
-11.157 7.9889998 0.67299998 0.22
-11.156 7.9359999 0.67199999 0.18000001
-11.112 7.8520002 0.66900003 0.16
-11.029 7.7420001 0.66500002 0.38
-11.076 7.723 0.66600001 0.34999999
-11.1 7.7129998 0.66600001 0.49000001
-11.142 7.691 0.667 0.31999999
-11.161 7.6529999 0.667 0.49000001
-11.187 7.619 0.667 0.44
-11.257 7.6149998 0.66900003 0.44999999
-11.337 7.6170001 0.671 0.47999999
-11.411 7.6149998 0.67299998 0.47
-11.471 7.6290002 0.67500001 0.47999999
-11.544 7.6240001 0.67699999 0.5
-11.628 7.6279998 0.67900002 0.47999999
-11.7 7.6230001 0.68099999 0.5
-11.783 7.6240001 0.68400002 0.46000001
-11.856 7.618 0.68599999 0.51999998
-11.946 7.6220002 0.68800002 0.64999998
-9.5059996 6.0510001 0.58999997 0.23999999
-9.5139999 6.0139999 0.58999997 0.41
-9.5279999 5.9809999 0.58999997 0.27000001
-12.248 7.6259999 0.69700003 0.31999999
-12.352 7.6370001 0.69999999 0.34
-12.43 7.632 0.70200002 0.46000001
-12.524 7.6350002 0.70499998 0.44999999
-12.601 7.6279998 0.70700002 0.55000001
-12.63 7.618 0.708 0.47999999
-12.724 7.6209998 0.71100003 0.46000001
-12.81 7.6170001 0.713 0.46000001
-12.905 7.618 0.71600002 0.50999999
-12.987 7.612 0.71799999 0.63999999
-22.495001 13.068 1.089 0.37
-22.844 13.175 1.101 0.28999999
-23.129999 13.291 1.1109999 0.31999999
-23.084999 13.169 1.108 0.31
-22.728001 12.871 1.092 0.18000001
-22.718 12.771 1.09 0.36000001
-22.908001 12.783 1.096 0.30000001
-22.958 12.717 1.097 0.36000001
-22.903999 12.593 1.0930001 0.23999999
-24.448 13.39 1.152 0.33000001
-24.458 13.296 1.15 0.33000001
-25.115999 13.551 1.174 0.28
-25.181 13.484 1.175 0.18000001
-24.995001 13.284 1.166 0.50999999
-24.954 13.162 1.163 0.22
-23.868 12.495 1.12 0.27000001
-25.139999 13.109 1.168 0.28999999
-25.277 13.079 1.171 0.33000001
-25.247999 12.964 1.169 0.33000001
-25.323 12.902 1.17 0.30000001
-25.41 12.846 1.1720001 0.28999999
-25.379999 12.731 1.169 0.28999999
-25.469999 12.676 1.171 0.30000001
-25.4 12.592 1.168 0.28
-25.514999 12.549 1.171 0.37
-25.562 12.472 1.171 0.25
-25.643999 12.413 1.173 0.31999999
-25.721001 12.35 1.174 0.36000001
-25.823999 12.3 1.176 0.28
-25.754 12.168 1.1720001 0.34
-25.740999 12.112 1.171 0.27000001
-25.839001 12.059 1.173 0.19
-27.355 12.661 1.228 0.38999999
-27.353001 12.556 1.227 0.36000001
-27.365 12.457 1.226 0.38
-27.365999 12.354 1.224 0.37
-27.377001 12.256 1.223 0.38
-27.344999 12.19 1.222 0.37
-27.354 12.091 1.22 0.38
-27.361 11.991 1.219 0.38
-27.362 11.889 1.2180001 0.38
-27.364 11.788 1.217 0.38
-27.357 11.684 1.215 0.38
-27.355 11.581 1.214 0.38999999
-27.362 11.483 1.2130001 0.38
-27.35 11.428 1.211 0.38
-27.347 11.326 1.21 0.38
-27.351 11.227 1.209 0.38999999
-27.356001 11.129 1.2079999 0.38
-27.356001 11.029 1.207 0.37
-27.363001 10.932 1.205 0.38
-27.360001 10.831 1.204 0.38999999
-27.341 10.774 1.2029999 0.38999999
-27.349001 10.678 1.202 0.38
-27.364 10.585 1.201 0.38999999
-27.351999 10.482 1.2 0.38999999
-27.351 10.383 1.198 0.38999999
-27.367001 10.291 1.198 0.38999999
-27.358 10.189 1.196 0.38
-27.348 10.136 1.1950001 0.40000001
-27.357 10.042 1.1950001 0.38999999
-27.344999 9.941 1.193 0.38999999
-27.351999 9.8459997 1.192 0.38999999
-27.354 9.75 1.191 0.38999999
-27.354 9.6529999 1.1900001 0.40000001
-27.358 9.5579996 1.189 0.41
-27.33 9.5 1.188 0.40000001
-27.341999 9.408 1.187 0.41
-27.347 9.3140001 1.186 0.38999999
-27.354 9.2200003 1.1849999 0.41
-27.354 9.125 1.184 0.41
-27.351999 9.0290003 1.183 0.41
-27.348 8.9320002 1.182 0.41
-27.341 8.8830004 1.181 0.41
-27.346001 8.7889996 1.1799999 0.41
-27.344999 8.6940002 1.179 0.41
-27.34 8.5979996 1.178 0.41
-27.341999 8.5050001 1.177 0.41
-27.361 8.4160004 1.177 0.41
-27.344999 8.3179998 1.176 0.41
-27.334999 8.2679996 1.175 0.41
-27.344 8.177 1.174 0.34
-27.337 8.0810003 1.173 0.41999999
-27.337 7.9879999 1.1720001 0.41
-27.35 7.8990002 1.1720001 0.46000001
-27.559999 7.8649998 1.178 0.37
-27.868999 7.8590002 1.188 0.38
-28.153 7.8909998 1.198 0.37
-28.448999 7.8769999 1.207 0.36000001
-28.773001 7.869 1.2180001 0.31999999
-29.091 7.8579998 1.228 0.50999999
-29.33 7.823 1.2359999 0
-29.721001 7.8280001 1.248 0
-30.575001 7.8470001 1.277 0.23999999
-30.893999 7.8769999 1.2869999 0.31
-31.287001 7.8720002 1.3 0.37
-31.686001 7.8660002 1.313 0.30000001
-32.091 7.8590002 1.326 0.36000001
-32.506001 7.8530002 1.34 0.34
-32.890999 7.836 1.352 0.38
-33.321999 7.8280001 1.367 0.28
-33.765999 7.8759999 1.382 0.25
-34.243 7.8730001 1.397 0.25
-34.708 7.8649998 1.413 0.34
-35.181 7.8559999 1.428 0.34
-35.59 7.8299999 1.441 0.28
-42.637001 9.2340002 1.684 0.2
-42.650002 9.0970001 1.684 0.37
-42.620998 9.0209999 1.682 0.31
-42.624001 8.882 1.681 0.25999999
-42.540001 8.7250004 1.678 0.36000001
-42.641998 8.6059999 1.6799999 0.2
-34.657001 6.8860002 1.404 0.25
-34.403 6.724 1.3940001 0.28
-34.289001 6.5900002 1.39 0.27000001
-34.34 6.5440001 1.391 0.27000001
-34.428001 6.448 1.3940001 0.28999999
-34.359001 6.3239999 1.39 0.16
-34.384998 6.217 1.391 0.47999999
-34.365002 6.1020002 1.3890001 0.23
-34.366001 5.9910002 1.3890001 0.31999999
-34.571999 5.915 1.395 0.25
-34.349998 5.7659998 1.387 0.25999999
-34.365002 5.7129998 1.387 0.33000001
-34.389999 5.6059999 1.387 0.28999999
-34.487 5.5110002 1.39 0.31999999
-34.790001 5.447 1.4 0.25
-34.736 5.3270001 1.397 0
-50.994999 7.6440001 1.9529999 0
-52.480999 7.698 2.003 0.11
-53.07 7.6989999 2.0220001 0.11
-54.345001 7.7090001 2.0650001 0.15000001
-56.222 7.7940001 2.128 0.14
-56.553001 7.6589999 2.1389999 0
-58.766998 7.77 2.214 0
-72.848999 -4.8559999 2.678 0
-71.712997 -5.006 2.6400001 0
-68.958 -5.0300002 2.5469999 0
-65.792 -5.006 2.4400001 0
-63.216 -4.9089999 2.3529999 0
-61.890999 -5.0009999 2.309 0
-59.152 -4.9660001 2.2160001 0.039999999
-58.369999 -5.0840001 2.1900001 0
-56.167999 -5.0689998 2.1159999 0
-53.443001 -5.1609998 2.0250001 0
-51.511002 -5.0549998 1.959 0.1
-50.542999 -5.1199999 1.927 0.23
-50.509998 -5.277 1.926 0.28999999
-50.501999 -5.4369998 1.927 0.28999999
-50.348999 -5.5799999 1.9220001 0
-44.301998 -5.0479999 1.717 0
-42.919998 -5.026 1.67 0
-41.976002 -4.9819999 1.638 0
-40.723999 -4.9619999 1.596 0
-39.456001 -4.9330001 1.554 0
-38.299 -4.9099998 1.515 0
-36.417 -4.783 1.451 0
-35.777 -4.8130002 1.4299999 0
-35.226002 -4.9640002 1.4119999 0.1
-34.627998 -4.9349999 1.392 0.16
-34.033001 -4.9590001 1.372 0.1
-34.147999 -5.085 1.377 0.19
-33.842999 -5.1490002 1.367 0.18000001
-33.339001 -5.1789999 1.35 0.28999999
-32.741001 -5.191 1.33 0.30000001
-32.130001 -5.197 1.3099999 0.31999999
-31.563999 -5.1560001 1.291 0.28999999
-31.014999 -5.1659999 1.272 0.31
-30.462999 -5.1719999 1.2539999 0.33000001
-29.952 -5.1820002 1.237 0.28
-29.469 -5.1929998 1.221 0.34999999
-28.981001 -5.1999998 1.205 0.27000001
-28.577 -5.2199998 1.191 0.34
-28.565001 -5.2639999 1.191 0.40000001
-28.566 -5.3569999 1.192 0.34
-28.563999 -5.4499998 1.192 0.41
-28.552999 -5.5409999 1.193 0.36000001
-28.570999 -5.638 1.194 0.41999999
-28.563 -5.7290001 1.194 0.36000001
-28.549 -5.8200002 1.194 0.41
-28.563 -5.8699999 1.1950001 0.34
-28.556 -5.9619999 1.196 0.41
-28.561001 -6.0560002 1.196 0.34999999
-28.549 -6.1479998 1.197 0.41
-28.547001 -6.2410002 1.197 0.40000001
-28.552999 -6.3369999 1.198 0.36000001
-28.545 -6.4289999 1.199 0.41
-28.559999 -6.48 1.199 0.34999999
-28.552999 -6.572 1.2 0.41
-28.554001 -6.6669998 1.201 0.38
-22.195 -5.25 0.98000002 0.36000001
-21.914 -5.256 0.97100002 0.37
-21.622 -5.257 0.96200001 0.38
-21.344999 -5.2610002 0.95200002 0.38
-21.055 -5.2589998 0.94300002 0.38
-20.797001 -5.2290001 0.93400002 0.33000001
-20.542 -5.2340002 0.926 0.43000001
-20.280001 -5.2340002 0.917 0.41
-20.07 -5.2470002 0.91100001 0.40000001
-19.934 -5.2779999 0.90600002 0.44
-19.892 -5.3340001 0.90600002 0.41
-19.819 -5.381 0.90399998 0.31999999
-19.610001 -5.3569999 0.89700001 0.22
-18.950001 -5.2399998 0.87400001 0.30000001
-18.76 -5.2509999 0.86799997 0.38
-18.538 -5.2509999 0.861 0.47
-18.360001 -5.263 0.85500002 0.31999999
-18.139999 -5.2610002 0.84799999 0.5
-17.957001 -5.2690001 0.84200001 0.31999999
-17.749001 -5.2379999 0.83499998 0.51999998
-17.587 -5.25 0.82999998 0.31999999
-17.386999 -5.25 0.82300001 0.41
-17.357 -5.3000002 0.82300001 0.54000002
-17.372 -5.3649998 0.824 0.68000001
-17.198999 -5.3699999 0.81800002 0.31999999
-17.024 -5.3740001 0.81300002 0.34999999
-16.872999 -5.355 0.80800003 0.36000001
-16.715 -5.3629999 0.80299997 0.38
-16.561001 -5.3709998 0.79799998 0.25
-16.424999 -5.3829999 0.79400003 0.37
-16.212 -5.3699999 0.787 0.33000001
-16.049999 -5.3720002 0.78100002 0.36000001
-15.734 -5.3210001 0.77100003 0.18000001
-15.441 -5.2480001 0.76099998 0.47999999
-15.304 -5.2550001 0.75599998 0.38
-15.148 -5.2540002 0.75099999 0.49000001
-15.007 -5.2579999 0.74699998 0.38999999
-14.873 -5.2639999 0.74299997 0.41
-14.729 -5.2649999 0.73799998 0.51999998
-14.331 -5.1719999 0.72399998 0.34999999
-14.229 -5.1609998 0.72100002 0.66000003
-14.241 -5.2160001 0.722 0.57999998
-14.269 -5.277 0.72399998 0.40000001
-14.14 -5.2800002 0.72000003 0.41
-14.011 -5.2820001 0.71499997 0.41
-13.894 -5.2870002 0.71200001 0.43000001
-13.771 -5.29 0.708 0.41999999
-13.641 -5.289 0.704 0.41
-13.53 -5.27 0.69999999 0.41999999
-13.426 -5.2779999 0.69700003 0.44
-13.303 -5.2779999 0.69300002 0.44
-13.19 -5.2810001 0.69 0.43000001
-13.155 -5.3150001 0.68900001 0.64999998
-13.142 -5.3579998 0.68900001 0.67000002
-13.144 -5.4060001 0.69 0.55000001
-13.109 -5.4159999 0.68900001 0.69999999
-13.052 -5.4400001 0.68699998 0.34999999
-13.182 -5.5440001 0.69300002 0.38999999
-13.117 -5.5650001 0.69099998 0.5
-12.985 -5.5570002 0.68699998 0.20999999
-13.124 -5.665 0.69199997 0.47999999
-12.694 -5.526 0.67699999 0.2
-14.112 -6.1729999 0.73000002 0.52999997
-12.543 -5.5310001 0.67299998 0.15000001
-12.205 -5.427 0.66100001 0.15000001
-12.073 -5.4130001 0.65700001 0.41999999
-12.032 -5.4400001 0.65600002 0.68000001
-11.991 -5.467 0.65499997 0.20999999
-12.829 -5.9000001 0.68699998 0.46000001
-11.321 -5.2680001 0.63099998 0.43000001
-11.243 -5.2750001 0.62900001 0.43000001
-11.155 -5.276 0.62599999 0.44
-11.078 -5.2820001 0.62400001 0.43000001
-10.979 -5.277 0.62099999 0.46000001
-10.901 -5.2820001 0.61900002 0.46000001
-10.823 -5.2649999 0.616 0.47
-10.747 -5.2690001 0.61400002 0.46000001
-10.666 -5.2709999 0.611 0.47
-10.598 -5.2789998 0.60900003 0.47
-10.501 -5.2709999 0.60600001 0.47
-10.436 -5.2800002 0.60500002 0.46000001
-10.362 -5.2839999 0.602 0.46000001
-10.277 -5.2800002 0.60000002 0.47999999
-10.22 -5.2719998 0.59799999 0.46000001
-10.142 -5.2709999 0.59600002 0.5
-10.065 -5.2709999 0.59299999 0.47999999
-9.9949999 -5.2750001 0.59100002 0.47
-9.9280005 -5.2789998 0.58899999 0.47
-9.8579998 -5.2820001 0.58700001 0.47
-9.7849998 -5.2820001 0.58499998 0.49000001
-9.717 -5.2649999 0.583 0.47
-9.6569996 -5.2709999 0.58099997 0.47999999
-9.5950003 -5.277 0.579 0.47999999
-9.5220003 -5.276 0.57700002 0.47
-9.448 -5.2729998 0.57499999 0.47
-9.3900003 -5.2789998 0.57300001 0.47999999
-9.3319998 -5.2849998 0.57200003 0.47
-9.2589998 -5.263 0.56900001 0.46000001
-9.2030001 -5.2690001 0.56800002 0.52999997
-9.198 -5.3049998 0.56800002 0.63999999
-9.1990004 -5.3439999 0.56900001 0.66000003
-9.1990004 -5.3829999 0.56999999 0.54000002
-9.1960001 -5.4200001 0.56999999 0.61000001
-9.1260004 -5.4169998 0.56800002 0.69
-9.1049995 -5.4239998 0.56800002 0.40000001
-9.2419996 -5.546 0.574 0.27000001
-9.2349997 -5.5809999 0.574 0.5
-9.2390003 -5.6230001 0.57499999 0.33000001
-9.2220001 -5.652 0.57499999 0.56999999
-9.2449999 -5.7069998 0.57599998 0.23999999
-10.242 -6.3699999 0.61699998 0.62
-9.309 -5.8070002 0.57999998 0.30000001
-9.2440004 -5.8070002 0.57800001 0.36000001
-9.1850004 -5.8099999 0.57700002 0.18000001
-8.5050001 -5.415 0.55000001 0.37
-8.441 -5.4120002 0.54799998 0.41
-8.3999996 -5.4229999 0.54699999 0.63
-8.3549995 -5.4310002 0.546 0.67000002
-8.3339996 -5.4549999 0.546 0.25999999
-8.8310003 -5.802 0.56599998 0.27000001
-8.8100004 -5.8270001 0.56599998 0.37
-8.7629995 -5.836 0.565 0.31
-8.6999998 -5.8330002 0.56300002 0.36000001
-8.6269999 -5.823 0.56099999 0.34
-8.566 -5.8210001 0.55900002 0.27000001
-8.5469999 -5.8280001 0.55900002 0.23999999
-8.4890003 -5.8270001 0.55699998 0.54000002
-8.4200001 -5.8189998 0.55500001 0.30000001
-8.3769999 -5.8280001 0.55400002 0.25
-8.3290005 -5.8330002 0.55299997 0.5
-8.2659998 -5.8280001 0.551 0.28
-8.2250004 -5.8379998 0.55000001 0.14
-7.3740001 -5.2659998 0.51599997 0.41
-7.348 -5.2639999 0.51499999 0.44999999
-7.3010001 -5.2649999 0.51300001 0.46000001
-7.2659998 -5.2750001 0.51300001 0.44
-7.224 -5.2789998 0.51200002 0.44
-7.178 -5.2800002 0.50999999 0.44
-7.1279998 -5.2779999 0.509 0.44999999
-7.0890002 -5.283 0.50800002 0.44
-7.059 -5.277 0.50700003 0.43000001
-7.0100002 -5.276 0.50599998 0.44999999
-6.9660001 -5.277 0.505 0.46000001
-6.9229999 -5.2779999 0.50300002 0.44
-6.8940001 -5.29 0.50300002 0.43000001
-6.8410001 -5.283 0.50099999 0.43000001
-6.7919998 -5.2800002 0.5 0.44
-6.7620001 -5.2740002 0.49900001 0.44
-6.7220001 -5.276 0.498 0.44999999
-6.6799998 -5.277 0.49700001 0.41999999
-6.6479998 -5.2859998 0.49599999 0.41999999
-6.5939999 -5.277 0.495 0.43000001
-6.5539999 -5.2789998 0.49399999 0.44999999
-6.5139999 -5.2800002 0.493 0.43000001
-6.4860001 -5.2740002 0.49200001 0.43000001
-6.4489999 -5.2779999 0.491 0.43000001
-6.408 -5.2779999 0.49000001 0.43000001
-6.3649998 -5.276 0.48899999 0.41999999
-6.3260002 -5.277 0.48800001 0.43000001
-6.2940001 -5.2839999 0.48699999 0.41999999
-6.2509999 -5.2810001 0.486 0.41999999
-6.2280002 -5.2779999 0.48500001 0.43000001
-6.1810002 -5.2719998 0.484 0.41999999
-6.1570001 -5.2849998 0.48300001 0.54000002
-6.1479998 -5.3099999 0.484 0.47999999
-6.1490002 -5.3449998 0.48500001 0.5
-6.1529999 -5.3829999 0.486 0.5
-6.1389999 -5.4050002 0.486 0.49000001
-6.1589999 -5.4400001 0.48699999 0.47999999
-6.1529999 -5.4689999 0.48699999 0.5
-6.152 -5.5029998 0.48800001 0.50999999
-6.1459999 -5.533 0.48899999 0.5
-6.151 -5.572 0.49000001 0.5
-6.145 -5.6020002 0.49000001 0.5
-6.151 -5.6430001 0.491 0.47999999
-6.1570001 -5.6669998 0.49200001 0.5
-6.1479998 -5.6939998 0.49200001 0.49000001
-6.152 -5.7340002 0.493 0.50999999
-6.1500001 -5.7680001 0.49399999 0.51999998
-6.1399999 -5.796 0.495 0.49000001
-6.1440001 -5.836 0.49599999 0.50999999
-6.1469998 -5.8759999 0.49700001 0.47999999
-6.1399999 -5.9060001 0.49700001 0.49000001
-6.145 -5.9299998 0.498 0.49000001
-6.1589999 -5.9809999 0.49900001 0.51999998
-6.1399999 -6.0009999 0.49900001 0.5
-6.1469998 -6.0450001 0.50099999 0.51999998
-6.151 -6.0869999 0.50199997 0.47999999
-6.1479998 -6.1230001 0.50300002 0.51999998
-6.1459999 -6.1599998 0.50300002 0.51999998
-6.1560001 -6.1890001 0.50400001 0.50999999
-6.1529999 -6.2249999 0.505 0.50999999
-6.1550002 -6.2659998 0.50599998 0.51999998
-6.1479998 -6.2979999 0.50700003 0.49000001
-6.1440001 -6.335 0.50800002 0.5
-6.1440001 -6.3740001 0.50800002 0.51999998
-6.1459999 -6.4169998 0.50999999 0.50999999
-6.152 -6.4439998 0.50999999 0.50999999
-6.158 -6.4910002 0.51200002 0.49000001
-6.1500001 -6.5229998 0.51200002 0.50999999
-6.1469998 -6.5619998 0.51300001 0.54000002
-6.1469998 -6.6030002 0.514 0.51999998
-6.1459999 -6.6440001 0.51499999 0.5
-6.1440001 -6.684 0.51599997 0.51999998
-6.1500001 -6.7119999 0.51700002 0.50999999
-6.152 -6.756 0.51800001 0.51999998
-6.1479998 -6.7950001 0.51899999 0.52999997
-6.1500001 -6.8410001 0.51999998 0.54000002
-6.145 -6.8779998 0.52100003 0.51999998
-6.1389999 -6.915 0.52200001 0.50999999
-6.138 -6.9590001 0.523 0.57999998
-6.1409998 -6.9829998 0.52399999 0.66000003
-6.1269999 -7.0120001 0.52399999 0.20999999
-4.145 -4.7610002 0.42300001 0.33000001
-4.1430001 -4.789 0.42300001 0.36000001
-6.1300001 -7.151 0.528 0.38
-4.276 -5.0079999 0.43200001 0.40000001
-4.2680001 -5.0300002 0.43200001 0.41
-4.2389998 -5.0120001 0.43099999 0.2
-6.1479998 -7.335 0.53299999 0.49000001
-6.1459999 -7.3790002 0.53399998 0.54000002
-6.1479998 -7.4289999 0.53500003 0.68000001
-6.1279998 -7.4530001 0.53500003 0.33000001
-3.8080001 -4.645 0.412 0.36000001
-3.802 -4.6680002 0.41299999 0.38999999
-3.9760001 -4.8979998 0.42199999 0.31999999
-4.059 -5.0339999 0.428 0.44
-3.8540001 -4.809 0.41800001 0.25999999
-6.125 -7.7179999 0.542 0.2
-6.1389999 -7.7849998 0.54400003 0.37
-6.1529999 -7.8540001 0.546 0.64999998
-3.8570001 -4.9390001 0.421 0.22
-3.767 -4.855 0.417 0.38999999
-3.7590001 -4.8610001 0.417 0.38999999
-3.7160001 -4.836 0.41499999 0.28999999
-3.618 -4.7379999 0.41100001 0.36000001
-6.1350002 -8.1169996 0.55299997 0.34999999
-6.1170001 -8.1459999 0.55400002 0.30000001
-3.641 -4.8629999 0.41499999 0.2
-6.138 -8.2819996 0.55800003 0.43000001
-6.1399999 -8.3129997 0.55900002 0.66000003
-6.1430001 -8.3719997 0.56 0.25
-6.131 -8.4110003 0.56099999 0.61000001
-3.5739999 -4.9169998 0.41499999 0.28999999
-6.1490002 -8.5489998 0.565 0.23
-6.1459999 -8.6020002 0.56699997 0.47
-6.1529999 -8.6689997 0.56900001 0.51999998
-6.1360002 -8.6730003 0.56800002 0.62
-3.648 -5.1739998 0.42300001 0.31
-6.1500001 -8.8100004 0.57200003 0.22
-6.1500001 -8.8710003 0.574 0.51999998
-6.1490002 -8.9300003 0.57599998 0.5
-6.1469998 -8.9870005 0.57700002 0.49000001
-6.1440001 -9.0430002 0.579 0.49000001
-6.1560001 -9.092 0.57999998 0.50999999
-6.158 -9.1560001 0.58200002 0.50999999
-6.1550002 -9.2150002 0.58399999 0.51999998
-6.1459999 -9.2650003 0.58499998 0.61000001
-6.1360002 -9.3120003 0.58600003 0.47999999
-3.563 -5.4250002 0.42899999 0.50999999
-3.527 -5.4060001 0.42699999 0.25
-3.5020001 -5.3860002 0.426 0.34
-3.4679999 -5.3709998 0.42500001 0.25999999
-6.132 -9.6009998 0.59399998 0.33000001
-3.427 -5.382 0.42500001 0.31
-3.4100001 -5.3930001 0.42500001 0.20999999
-6.263 -10.014 0.60900003 0.38999999
-3.427 -5.4959998 0.428 0.1
-3.286 -5.2870002 0.41999999 0.1
-3.402 -5.5139999 0.428 0.33000001
-3.3570001 -5.4780002 0.426 0.23999999
-3.4189999 -5.6199999 0.43200001 0.18000001
-3.418 -5.6589999 0.433 0.51999998
-3.392 -5.6550002 0.43200001 0.38999999
-3.345 -5.6160002 0.43000001 0.33000001
-3.3329999 -5.6160002 0.43000001 0.28999999
-3.332 -5.6560001 0.43099999 0.27000001
-3.266 -5.5830002 0.428 0.31999999
-3.1849999 -5.4829998 0.42399999 0.50999999
-3.184 -5.5219998 0.42500001 0.27000001
-3.2060001 -5.5999999 0.42699999 0.41999999
-3.131 -5.5089998 0.42300001 0.22
-3.109 -5.4899998 0.42199999 0.41999999
-3.108 -5.5289998 0.42399999 0.20999999
-3.0910001 -5.539 0.42399999 0.52999997
-3.073 -5.5479999 0.42399999 0.23
-3.0680001 -5.5809999 0.42399999 0.36000001
-3.0480001 -5.585 0.42399999 0.40000001
-3.063 -5.6560001 0.42699999 0.36000001
-3.026 -5.6079998 0.42500001 0.47
-3.086 -5.7639999 0.43000001 0.30000001
-3.0309999 -5.7030001 0.428 0.27000001
-2.9809999 -5.6529999 0.42500001 0.46000001
-3.0179999 -5.7670002 0.42899999 0.25999999
-3.0539999 -5.881 0.433 0.34999999
-3.0650001 -5.9489999 0.435 0.37
-3.0439999 -5.954 0.435 0.36000001
-3.0369999 -5.9640002 0.435 0.37
-3.0280001 -5.993 0.43599999 0.44
-3.0190001 -6.0219998 0.43700001 0.28
-3.132 -6.2989998 0.447 0.28999999
-3.138 -6.362 0.449 0.43000001
-3.1389999 -6.415 0.45100001 0.25999999
-3.085 -6.3530002 0.44800001 0.46000001
-3.1240001 -6.461 0.45199999 0.38
-3.151 -6.5700002 0.456 0.33000001
-2.9579999 -6.2140002 0.442 0.28999999
-2.9489999 -6.2470002 0.44299999 0.44999999
-3.1170001 -6.6609998 0.458 0.33000001
-3.079 -6.632 0.456 0.28999999
-3.069 -6.6680002 0.45699999 0.33000001
-3.0810001 -6.7220001 0.45899999 0.5
-3.0539999 -6.717 0.45899999 0.33000001
-3.118 -6.9180002 0.46599999 0.30000001
-3.062 -6.8509998 0.463 0.46000001
-3.0880001 -6.9679999 0.46700001 0.40000001
-3.073 -6.9949999 0.46700001 0.33000001
-3.0869999 -7.0869999 0.47099999 0.38999999
-3.1010001 -7.1500001 0.47299999 0.38
-3.109 -7.2319999 0.47499999 0.49000001
-3.1140001 -7.3060002 0.47799999 0.23999999
-3.0780001 -7.2839999 0.477 0.28
-3.0599999 -7.3070002 0.477 0.44999999
-3.138 -7.5619998 0.486 0.25
-3.1010001 -7.539 0.48500001 0.41
-3.0910001 -7.5469999 0.48500001 0.41
-3.0699999 -7.5640001 0.48500001 0.44999999
-3.0510001 -7.5869999 0.486 0.44999999
-3.086 -7.7449999 0.491 0.41999999
-3.069 -7.7740002 0.49200001 0.36000001
-3.052 -7.802 0.49200001 0.31999999
-3.197 -8.2539997 0.50800002 0.30000001
-3.086 -8.0010004 0.49900001 0.51999998
-3.1229999 -8.1750002 0.505 0.34
-3.122 -8.25 0.50700003 0.31
-3.1300001 -8.3520002 0.51099998 0.30000001
-3.105 -8.3660002 0.51099998 0.43000001
-3.1140001 -8.4729996 0.514 0.50999999
-3.1010001 -8.5179996 0.51599997 0.30000001
-3.191 -8.8109999 0.52600002 0.30000001
-3.217 -8.974 0.53100002 0.25999999
-3.221 -9.0760002 0.53500003 0.40000001
-3.1860001 -9.0649996 0.53399998 0.41
-3.1559999 -9.0740004 0.53399998 0.41
-3.119 -9.0570002 0.53299999 0.46000001
-3.0880001 -9.059 0.53299999 0.34
-3.0639999 -9.0360003 0.53200001 0.67000002
-3.0339999 -9.0389996 0.53200001 0.38
-3.003 -9.0430002 0.53100002 0.34
-2.961 -9.0089998 0.52999997 0.34
-2.921 -8.9840002 0.52899998 0.52999997
-2.944 -9.1529999 0.53399998 0.33000001
-2.855 -8.9720001 0.52700001 0.30000001
-2.865 -9.0500002 0.52999997 0.47999999
-2.9719999 -9.4969997 0.546 0.25
-2.862 -9.2460003 0.53600001 0.47999999
-3.04 -9.9379997 0.56099999 0.34
-3.075 -10.168 0.56800002 0.41
-2.9990001 -10.03 0.56300002 0.30000001
-3.1489999 -10.659 0.58499998 0.38999999
-3.1830001 -10.838 0.59100002 0.41
-3.1919999 -10.998 0.59600002 0.34
-3.1570001 -11.004 0.59600002 0.31999999
-3.1259999 -11.029 0.597 0.49000001
-3.128 -11.168 0.60100001 0.28
-4.776 -17.316 0.81699997 0.38999999
-4.7329998 -17.372999 0.81800002 0.43000001
-3.181 -11.717 0.62 0.22
-3.346 -12.484 0.64600003 0.2
-3.279 -12.392 0.64300001 0.51999998
-3.2420001 -12.408 0.64300001 0.28999999
-3.2060001 -12.43 0.64300001 0.54000002
-4.29 -16.889999 0.79799998 0.22
-4.2459998 -16.938 0.80000001 0.37
-4.2220001 -16.957001 0.80000001 0.46000001
-4.158 -16.927 0.79900002 0.22
-4.0869999 -16.864 0.796 0.44
-4.04 -16.902 0.79699999 0.37
-3.9590001 -16.798 0.79299998 0.41
-3.9300001 -16.914 0.796 0.27000001
-3.8659999 -16.875 0.79500002 0.46000001
-3.8429999 -16.896999 0.79500002 0.31999999
-3.802 -16.964001 0.79699999 0.55000001
-3.7149999 -16.823 0.792 0.25999999
-3.6730001 -16.886 0.79299998 0.54000002
-3.632 -16.954 0.79500002 0.25
-3.5840001 -16.989 0.796 0.51999998
-3.5369999 -17.033001 0.79699999 0.30000001
-3.526 -17.113001 0.80000001 0.40000001
-3.45 -17.014 0.796 0.50999999
-3.404 -17.063999 0.79799998 0.30000001
-3.3369999 -17.004 0.79500002 0.44999999
-3.2939999 -17.070999 0.79699999 0.36000001
-3.2060001 -16.895 0.79100001 0.47999999
-3.1830001 -17.068001 0.796 0.36000001
-3.1500001 -17.044001 0.79500002 0.41999999
-3.1199999 -17.183001 0.80000001 0.38
-3.086 -17.302999 0.80299997 0.28
-3.03 -17.302999 0.80299997 0.56
-2.9579999 -17.209999 0.80000001 0.36000001
-2.924 -17.341999 0.80400002 0.40000001
-2.8859999 -17.451 0.80699998 0.36000001
-2.8329999 -17.468 0.80800003 0.40000001
-2.816 -17.542 0.81 0.44999999
-2.7479999 -17.465 0.80699998 0.36000001
-2.7030001 -17.541 0.80900002 0.47999999
-2.6570001 -17.611 0.81099999 0.28999999
-2.631 -17.819 0.81800002 0.52999997
-2.5969999 -17.983 0.824 0.30000001
-2.539 -17.976 0.82300001 0.28999999
-2.487 -17.806999 0.81699997 0.40000001
-2.448 -17.944 0.82200003 0.58999997
-2.391 -17.947001 0.82099998 0.31999999
-3.1110001 -23.99 1.027 0.25
-3.0239999 -23.912001 1.024 0.38
-2.947 -23.902 1.023 0.28
-2.8599999 -23.812 1.02 0.28999999
-2.8210001 -23.802 1.02 0.28999999
-2.74 -23.757 1.018 0.36000001
-2.6719999 -23.827 1.02 0.40000001
-2.6140001 -23.995001 1.025 0.22
-2.6059999 -24.645 1.0470001 0.33000001
-2.5450001 -24.812 1.053 0.15000001
-2.4189999 -24.33 1.036 0.52999997
-2.5409999 -25.997999 1.092 0.19
-2.4159999 -25.535999 1.076 0.14
-2.503 -27.395 1.1390001 0.19
-2.368 -26.841 1.12 0.15000001
-2.263 -26.603001 1.112 0.19
-2.2119999 -27.011999 1.126 0.25999999
-2.1659999 -27.518999 1.143 0.28999999
-2.132 -27.643999 1.147 0.34
-2.3710001 -32.112999 1.298 0.27000001
-2.098 -29.653 1.214 0.27000001
-2.1900001 -32.436001 1.308 0.17
-2.033 -31.580999 1.279 0.37
-1.972 -32.222 1.301 0.22
-1.582 -27.183001 1.13 0.17
-1.538 -27.160999 1.1289999 0.30000001
-1.45 -27.118 1.127 0.44999999
-1.381 -27.436001 1.138 0
-1.285 -27.242001 1.131 0.07
-2.2509999 -51.653999 1.957 0
-2.0910001 -51.715 1.959 0.090000004
-1.916 -51.390999 1.948 0.1
-1.836 -51.408001 1.949 0
-1.669 -51.256001 1.943 0
-0.14300001 -5.1630001 0.384 0.34999999
-0.127 -5.1700001 0.384 0.34999999
-0.111 -5.1719999 0.384 0.36000001
-0.102 -5.1739998 0.384 0.34999999
-0.086000003 -5.177 0.384 0.38
-0.07 -5.1789999 0.384 0.43000001
-0.055 -5.3990002 0.39199999 0
-0.037 -5.171 0.384 0.090000004
-0.0060000001 -4.9759998 0.377 0.56
0.003 -5.1009998 0.382 0.19
0.035999998 -5.171 0.384 0.28999999
0.052000001 -5.1849999 0.384 0.41999999
0.068000004 -5.171 0.384 0.38
0.085000001 -5.1810002 0.384 0.38
0.101 -5.1799998 0.384 0.34
0.109 -5.178 0.384 0.36000001
0.125 -5.1739998 0.384 0.34999999
0.141 -5.1589999 0.384 0.34999999
0.15800001 -5.1690001 0.384 0.36000001
0.17399999 -5.1739998 0.384 0.36000001
0.19 -5.1739998 0.384 0.37
0.206 -5.1669998 0.384 0.38
0.215 -5.1750002 0.384 0.37
0.23 -5.164 0.384 0.38
0.24699999 -5.1719999 0.384 0.36000001
0.264 -5.1789999 0.384 0.38
