# .PCD v0.7 - Point Cloud Data file format
VERSION 0.7
FIELDS x y z intensity
SIZE 4 4 4 4
TYPE F F F F
COUNT 1 1 1 1
WIDTH 1400
HEIGHT 1
VIEWPOINT 0 0 0 1 0 0 0
POINTS 1400
DATA ascii
-15.015 -14.535 -0.233 0.37
-15.015 -14.626 -0.234 0.31
-15.012 -14.715 -0.236 0.38
-15.001 -14.797 -0.237 0.31
-15.009 -14.898 -0.23800001 0.37
-15.003 -14.986 -0.23999999 0.31999999
-15.016 -15.046 -0.241 0.31999999
-15.015 -15.14 -0.242 0.36000001
-15.007 -15.227 -0.243 0.28999999
-15.012 -15.328 -0.245 0.34999999
-15.007 -15.42 -0.24600001 0.34
-14.999 -15.509 -0.24699999 0.28999999
-15 -15.607 -0.249 0.34999999
-15.023 -15.68 -0.25 0.34
-15.015 -15.77 -0.25099999 0.30000001
-15.015 -15.87 -0.25299999 0.36000001
-15.017 -15.972 -0.255 0.34
-15.006 -16.062 -0.25600001 0.34
-14.999 -16.156 -0.257 0.34
-15.006 -16.264 -0.259 0.31999999
-15.022 -16.333 -0.25999999 0.34
-15.025 -16.438999 -0.26199999 0.34
-15.019 -16.537001 -0.26300001 0.34
-15.007 -16.628 -0.26499999 0.34
-15.009 -16.736 -0.266 0.31999999
-15.01 -16.843 -0.26800001 0.34
-15.006 -16.945999 -0.27000001 0.34
-15.013 -17.007 -0.271 0.27000001
-14.281 -16.282 -0.249 0.30000001
-14.203 -16.296 -0.248 0.31999999
-14.08 -16.257999 -0.24600001 0.38999999
-15.017 -17.448 -0.278 0.25999999
-15.016 -17.558001 -0.27900001 0.30000001
-15.04 -17.642 -0.28099999 0.30000001
-15.045 -17.761 -0.28299999 0.31
-15.037 -17.864 -0.285 0.30000001
-15.04 -17.982 -0.28600001 0.33000001
-15.036 -18.091999 -0.28799999 0.28999999
-14.263 -17.274 -0.26499999 0.23999999
-14.194 -17.301001 -0.264 0.38
-14.101 -17.298 -0.26300001 0.38
-14.082 -17.330999 -0.26300001 0.34
-15.037 -18.622 -0.29699999 0.31
-15.031 -18.733999 -0.29899999 0.28999999
-15.024 -18.847 -0.30000001 0.33000001
-15.015 -18.957001 -0.30199999 0.31999999
-15.009 -19.073 -0.30399999 0.30000001
-15.031 -19.162001 -0.30599999 0.30000001
-15.035 -19.292 -0.308 0.31
-15.038 -19.421 -0.31 0.31
-15.023 -19.528 -0.31200001 0.30000001
-15.011 -19.639 -0.31299999 0.30000001
-15.023 -19.783001 -0.31600001 0.30000001
-15.014 -19.9 -0.31799999 0.30000001
-15.038 -19.997 -0.31999999 0.28999999
-15.036 -20.125999 -0.322 0.30000001
-15.031 -20.252001 -0.324 0.30000001
-15.021 -20.371 -0.32600001 0.28999999
-15.027 -20.513 -0.32800001 0.30000001
-15.009 -20.625 -0.33000001 0.28999999
-15.019 -20.775999 -0.33199999 0.31999999
-15.045 -20.879999 -0.33500001 0.28
-15.037 -21.007 -0.33700001 0.28999999
-15.031 -21.139 -0.33899999 0.28999999
-15.034 -21.284 -0.34099999 0.31
-15.022 -21.41 -0.34299999 0.30000001
-15.017 -21.545 -0.34599999 0.28999999
-15.025 -21.702 -0.34799999 0.30000001
-15.046 -21.805 -0.34999999 0.28999999
-15.038 -21.941 -0.35299999 0.27000001
-14.328 -21.048 -0.329 0.28
-14.246 -21.07 -0.32800001 0.34
-14.133 -21.045 -0.32600001 0.37
-12.072 -18.106001 -0.25099999 0.33000001
-12.009 -18.132999 -0.25099999 0.11
-12.095 -18.326 -0.255 0.13
-12.055 -18.389999 -0.25600001 0.13
-12.159 -18.676001 -0.26199999 0.15000001
-12.165 -18.815001 -0.26499999 0.090000004
-11.847 -18.451 -0.255 0.079999998
-11.65 -18.271 -0.249 0.079999998
-11.594 -18.309 -0.249 0.079999998
-11.536 -18.282 -0.248 0.14
-11.433 -18.245001 -0.24600001 0.31
-11.395 -18.311001 -0.24699999 0
-11.372 -18.403 -0.249 0
-11.248 -18.330999 -0.24600001 0
-11.173 -18.337999 -0.245 0
-11.097 -18.344 -0.244 0
-11.063 -18.351999 -0.244 0.13
-10.945 -18.285999 -0.242 0.11
-10.897 -18.336 -0.242 0.12
-10.855 -18.396999 -0.243 0.31999999
-10.722 -18.302 -0.23999999 0.19
-10.55 -18.139999 -0.235 0
-10.742 -18.603001 -0.245 0
-10.512 -18.405001 -0.23899999 0.28999999
-10.515 -18.546 -0.242 0.25
-10.457 -18.579 -0.242 0.34999999
-10.31 -18.454 -0.23800001 0.19
-10.263 -18.506001 -0.23899999 0.50999999
-10.114 -18.372999 -0.235 0.23999999
-9.9230003 -18.094999 -0.228 0.17
-9.8739996 -18.139999 -0.228 0.28999999
-9.8210001 -18.177999 -0.228 0.19
-9.757 -18.334999 -0.23 0.38999999
-9.7510004 -18.462 -0.233 0.40000001
-9.7510004 -18.603001 -0.235 0.34999999
-9.7779999 -18.726 -0.23800001 0.47999999
-9.79 -18.893 -0.241 0.34
-9.7889996 -19.035999 -0.244 0.30000001
-9.7889996 -19.184 -0.24600001 0.31999999
-9.7849998 -19.325001 -0.249 0.30000001
-9.7819996 -19.472 -0.252 0.30000001
-9.7939997 -19.570999 -0.25400001 0.16
-9.776 -19.690001 -0.25600001 0.36000001
-9.7749996 -19.844 -0.259 0.34999999
-9.7709999 -19.993 -0.26199999 0.34999999
-9.7690001 -20.15 -0.264 0.36000001
-9.7559996 -20.285 -0.26699999 0.34
-9.7539997 -20.443001 -0.27000001 0.38
-9.7469997 -20.594999 -0.273 0.36000001
-9.7770004 -20.742001 -0.27599999 0.36000001
-9.7729998 -20.903 -0.27900001 0.34
-9.7620001 -21.051001 -0.28099999 0.37
-9.7639999 -21.229 -0.285 0.37
-9.7489996 -21.374001 -0.28799999 0.22
-9.7480001 -21.549999 -0.29100001 0.46000001
-9.776 -21.702 -0.294 0.14
-9.7860003 -21.908001 -0.29800001 0.28999999
-9.7790003 -22.077999 -0.301 0.38
-9.776 -22.257999 -0.30500001 0.31999999
-9.7729998 -22.443001 -0.308 0.38999999
-9.7650003 -22.618 -0.31099999 0.31
-9.7620001 -22.806999 -0.315 0.36000001
-9.7939997 -22.98 -0.31900001 0.34
-9.79 -23.173 -0.322 0.34
-9.7889996 -23.372999 -0.32600001 0.34999999
-9.7770004 -23.552 -0.33000001 0.31999999
-9.776 -23.76 -0.33399999 0.31
-9.7709999 -23.961 -0.33700001 0.31
-9.7650003 -24.164 -0.34099999 0.31
-9.8059998 -24.374001 -0.34599999 0.34
-9.8030005 -24.587999 -0.34999999 0.31999999
-9.7919998 -24.788 -0.354 0.31999999
-9.7880001 -25.007 -0.35800001 0.31999999
-9.7910004 -25.246 -0.36300001 0.30000001
-9.7880001 -25.474001 -0.36700001 0.31999999
-9.7810001 -25.697001 -0.37099999 0.30000001
-9.8170004 -25.915001 -0.37599999 0.28999999
-9.8109999 -26.145 -0.38 0.28999999
-9.802 -26.371 -0.38499999 0.25999999
-9.7880001 -26.589001 -0.389 0.25999999
-9.8540001 -27.028999 -0.398 0
-10.046 -27.825001 -0.41499999 0
-9.8120003 -27.582001 -0.40900001 0.27000001
-9.8120003 -27.860001 -0.414 0.25
-9.8199997 -28.162001 -0.41999999 0.27000001
-9.8059998 -28.409 -0.42500001 0.2
-9.8079996 -28.705999 -0.43099999 0.41999999
-9.802 -28.987 -0.43700001 0.25
-9.7950001 -29.268 -0.442 0.22
-9.835 -29.541 -0.44800001 0
-14.969 -45.393002 -0.79699999 0
-14.776 -45.284 -0.79400003 0.12
-14.659 -45.408001 -0.79500002 0.17
-14.437 -45.206001 -0.79000002 0
-14.155 -44.811001 -0.77999997 0
-14.192 -45.424 -0.79299998 0.11
-14.449 -46.5 -0.81599998 0.18000001
-14.254 -46.384998 -0.81199998 0.090000004
-14.177 -46.654999 -0.81699997 0.14
-14.083 -46.875 -0.82099998 0.1
-14.072 -47.376999 -0.83099997 0.15000001
-14 -47.683998 -0.83700001 0.1
-13.931 -48.006001 -0.84299999 0.090000004
-13.906 -48.202999 -0.847 0
-13.82 -48.473 -0.852 0
-13.747 -48.797001 -0.85799998 0
-13.694 -49.201 -0.866 0
-13.675 -49.737 -0.87699997 0
-13.644 -50.241001 -0.88700002 0
-13.575 -50.612999 -0.89399999 0
-13.492 -50.623001 -0.89300001 0
-13.31 -50.577999 -0.89200002 0
-13.147 -50.604 -0.89099997 0
-12.959 -50.528999 -0.889 0
-12.791 -50.535 -0.88800001 0
-12.629 -50.561001 -0.88800001 0
-12.46 -50.560001 -0.88700002 0
-12.372 -50.543999 -0.88599998 0
-12.206 -50.556 -0.88499999 0
-12.046 -50.585999 -0.88499999 0
-11.861 -50.514999 -0.88300002 0
-11.719 -50.624001 -0.884 0
-11.549 -50.616001 -0.884 0
-11.473 -50.645 -0.884 0
-11.31 -50.667 -0.88300002 0
-11.149 -50.695 -0.88300002 0
-10.99 -50.728001 -0.88300002 0
-10.824 -50.730999 -0.88300002 0
-10.652 -50.706001 -0.88099998 0
-10.492 -50.738998 -0.88099998 0
-10.395 -50.667 -0.87900001 0
-10.236 -50.702 -0.87900001 0
-10.078 -50.743 -0.88 0
-9.9110003 -50.736 -0.87900001 0
-9.7530003 -50.771999 -0.87900001 0
-9.5830002 -50.748001 -0.87800002 0
-9.4259996 -50.792999 -0.87800002 0
-9.3389997 -50.764999 -0.87699997 0
-9.1630001 -50.707001 -0.875 0
-8.9989996 -50.708 -0.875 0
-8.8319998 -50.688999 -0.87400001 0
-8.6709995 -50.709 -0.87400001 0
-8.5059996 -50.702 -0.87300003 0
-8.3389997 -50.681 -0.87199998 0
-8.2399998 -50.574001 -0.86900002 0
-8.066 -50.508999 -0.86699998 0
-7.8979998 -50.472 -0.866 0
-7.7290001 -50.431999 -0.86500001 0
-7.566 -50.422001 -0.86400002 0
-7.3959999 -50.370998 -0.86199999 0
-7.2290001 -50.332001 -0.861 0
-7.1500001 -50.346001 -0.861 0
-6.9790001 -50.278999 -0.85900003 0
-6.8189998 -50.278 -0.85900003 0
-6.6550002 -50.259998 -0.85799998 0
-6.5009999 -50.310001 -0.85900003 0
-6.3369999 -50.280998 -0.85799998 0
-6.1820002 -50.324001 -0.85799998 0
-6.1040001 -50.348 -0.85799998 0
-5.9429998 -50.341 -0.85799998 0
-5.7870002 -50.376999 -0.85799998 0
-5.6199999 -50.32 -0.85699999 0
-5.4660001 -50.376999 -0.85699999 0
-5.3070002 -50.386002 -0.85699999 0
-5.152 -50.428001 -0.85799998 0
-5.0700002 -50.414001 -0.85699999 0
-4.9070001 -50.382 -0.85600001 0
-4.7529998 -50.437 -0.85699999 0
-4.5929999 -50.439999 -0.85699999 0
-4.4359999 -50.473999 -0.85699999 0
-4.277 -50.473999 -0.85699999 0
-4.2020001 -50.542 -0.85799998 0
-4.04 -50.507 -0.85699999 0
-3.8840001 -50.554001 -0.85799998 0
-3.721 -50.52 -0.85699999 0
-3.563 -50.530998 -0.85699999 0
-3.402 -50.506001 -0.85600001 0
-3.2449999 -50.549 -0.85699999 0
-3.161 -50.476002 -0.85500002 0
-3.003 -50.493999 -0.85600001 0
-2.8399999 -50.441002 -0.85399997 0
-2.677 -50.354 -0.852 0
-2.513 -50.248001 -0.85000002 0
-2.332 -49.77 -0.83999997 0
-2.1570001 -49.352001 -0.83099997 0
-2.0739999 -49.243 -0.82800001 0
-1.918 -49.212002 -0.82800001 0
-1.763 -49.210999 -0.82700002 0
-1.609 -49.215 -0.82700002 0
-1.454 -49.222 -0.82700002 0
-1.299 -49.212002 -0.82700002 0
-1.1440001 -49.209999 -0.82700002 0
-1.067 -49.209999 -0.82700002 0
-0.912 -49.199001 -0.82700002 0
-0.75800002 -49.205002 -0.82700002 0
-0.60299999 -49.215 -0.82700002 0
-0.035999998 -9.6120005 0.0040000002 0.17
-0.0060000001 -9.6099997 0.0040000002 0.27000001
0.0089999996 -9.5819998 0.0040000002 0
0.039000001 -9.5979996 0.0040000002 0
0.40000001 -48.938 -0.82099998 0
0.55299997 -48.888 -0.81999999 0
0.70700002 -48.93 -0.82099998 0
0.86000001 -48.897999 -0.81999999 0
0.93699998 -48.888 -0.81999999 0.029999999
1.024 -45.835999 -0.75599998 0
1.238 -48.626999 -0.815 0
1.306 -45.592999 -0.75099999 0
1.5369999 -48.421001 -0.81099999 0
1.689 -48.396 -0.81 0
1.839 -48.344002 -0.80900002 0
1.9119999 -48.255001 -0.80800003 0
2.0580001 -48.139 -0.80500001 0
2.2049999 -48.041 -0.80299997 0
2.355 -48.001999 -0.80299997 0
2.5020001 -47.916 -0.801 0
2.648 -47.834 -0.79900002 0
2.727 -46.596001 -0.77399999 0
2.8069999 -46.705002 -0.77600002 0
2.9579999 -46.765999 -0.77700001 0
3.165 -47.661999 -0.79699999 0
3.313 -47.638 -0.796 0
3.457 -47.549999 -0.79500002 0
3.608 -47.556999 -0.79500002 0
3.7490001 -47.431999 -0.79299998 0
3.1400001 -37.414001 -0.58200002 0
3.2460001 -37.277 -0.579 0
2.859 -31.634001 -0.461 0.1
2.9579999 -31.622999 -0.461 0.15000001
3.589 -37.154999 -0.57800001 0.23999999
3.645 -37.129002 -0.57700002 0.23
3.763 -37.129002 -0.57700002 0.34
3.881 -37.131001 -0.57800001 0.44999999
2.8740001 -26.617001 -0.35600001 0.30000001
2.9630001 -26.652 -0.35699999 0.23999999
3.0179999 -26.389999 -0.352 0
4.527 -37.095001 -0.57800001 0.19
4.645 -37.094002 -0.579 0.46000001
4.7639999 -37.103001 -0.579 0.36000001
4.8829999 -37.102001 -0.57999998 0.36000001
5.0019999 -37.104 -0.57999998 0.34
5.1220002 -37.112 -0.57999998 0.34
5.1799998 -37.108002 -0.58099997 0.31999999
5.2989998 -37.103001 -0.58099997 0.31999999
5.4180002 -37.108002 -0.58099997 0.34
5.5380001 -37.112999 -0.58200002 0.34
5.658 -37.118999 -0.58200002 0.28999999
5.7779999 -37.120998 -0.583 0.31
5.8940001 -37.102001 -0.583 0.30000001
5.9580002 -37.126999 -0.583 0.33000001
6.0809999 -37.143002 -0.58399999 0.31999999
6.1989999 -37.138 -0.58399999 0.31999999
6.3189998 -37.136002 -0.58499998 0.31999999
6.4400001 -37.137001 -0.58499998 0.25
6.5580001 -37.125 -0.58499998 0.17
6.6799998 -37.139999 -0.58600003 0.55000001
6.7779999 -37.342999 -0.59100002 0
6.868 -37.175999 -0.588 0
6.9899998 -37.18 -0.588 0
7.1170001 -37.213001 -0.58899999 0
7.2319999 -37.182999 -0.58899999 0
7.4749999 -37.183998 -0.58999997 0.19
7.539 -37.196999 -0.59100002 0
7.658 -37.187 -0.59100002 0
7.7919998 -37.244999 -0.59299999 0
9.4519997 -44.507 -0.74900001 0
9.5760002 -44.401001 -0.74699998 0
9.7130003 -44.359001 -0.74699998 0
9.7659998 -44.268002 -0.745 0
9.8990002 -44.209 -0.745 0
10.032 -44.153 -0.74400002 0
10.162 -44.085999 -0.74400002 0
10.286 -43.991001 -0.74199998 0
10.416 -43.922001 -0.741 0
10.544 -43.848 -0.741 0
10.678 -43.799 -0.74000001 0
10.729 -43.713001 -0.73900002 0
10.853 -43.624001 -0.73799998 0
10.977 -43.537998 -0.736 0
11.113 -43.500999 -0.736 0
11.236 -43.414001 -0.73500001 0
11.374 -43.382 -0.73500001 0
11.432 -43.327 -0.73400003 0
11.549 -43.217999 -0.73299998 0
11.676 -43.152 -0.73199999 0
11.8 -43.070999 -0.73100001 0
11.923 -42.988998 -0.73000002 0
12.05 -42.924999 -0.73000002 0
12.178 -42.863998 -0.72899997 0
12.236 -42.810001 -0.72799999 0
12.361 -42.737999 -0.72799999 0
12.484 -42.662998 -0.727 0
12.618 -42.624001 -0.727 0
12.743 -42.553001 -0.72600001 0
12.872 -42.497002 -0.72600001 0
12.989 -42.401001 -0.72500002 0
13.042 -42.337002 -0.72399998 0
13.174 -42.293999 -0.72399998 0
13.3 -42.229 -0.72299999 0
13.426 -42.166 -0.72299999 0
13.556 -42.118 -0.72299999 0
13.669 -42.016998 -0.72100002 0
13.806 -41.988998 -0.722 0
13.856 -41.917999 -0.72100002 0
13.972 -41.827999 -0.72000003 0
14.104 -41.784 -0.72000003 0
14.244 -41.765999 -0.72000003 0
14.364 -41.688999 -0.71899998 0
14.465 -41.556999 -0.71799999 0
14.512 -41.483002 -0.71600002 0
14.642 -41.437 -0.71600002 0
14.771 -41.387001 -0.71600002 0
14.882 -41.287998 -0.71499997 0
15.002 -41.215 -0.71499997 0
15.11 -41.106998 -0.713 0
15.219 -41.007 -0.71200001 0
15.295 -41.014999 -0.713 0
15.397 -40.896 -0.71100003 0
15.258 -39.764 -0.68800002 0
15.397 -39.752998 -0.68900001 0
15.843 -40.528 -0.70700002 0
14.934 -37.845001 -0.648 0
14.997 -37.831001 -0.648 0
16.157 -40.390999 -0.70700002 0
16.263 -40.287998 -0.70599997 0
15.91 -38.710999 -0.67199999 0
16.066 -38.742001 -0.67400002 0
15.901 -37.181999 -0.64300001 0
16.099001 -37.320999 -0.64700001 0
16.243 -37.330002 -0.64899999 0.079999998
17.23 -39.265999 -0.69400001 0.13
17.256001 -38.991001 -0.68900001 0
17.399 -39.147999 -0.69300002 0
17.629999 -39.334 -0.699 0
17.735001 -39.238998 -0.69800001 0
17.863001 -39.194 -0.69800001 0
17.969 -39.098999 -0.69700003 0
18.091999 -39.042 -0.69700003 0
18.208 -38.973 -0.69700003 0
18.271 -38.948002 -0.69700003 0
18.388 -38.879002 -0.69700003 0
18.500999 -38.800999 -0.69599998 0
18.593 -38.681999 -0.69499999 0
18.767 -38.730999 -0.69700003 0
18.905001 -38.706001 -0.69800001 0
18.959999 -38.664001 -0.69800001 0
18.622999 -37.380001 -0.671 0
18.766001 -37.372002 -0.67199999 0
19.388 -38.312 -0.69499999 0
19.538 -38.310001 -0.69700003 0
19.681999 -38.292999 -0.69800001 0
19.747999 -38.273998 -0.69800001 0
19.877001 -38.23 -0.69800001 0
20.006001 -38.182999 -0.699 0
20.139 -38.145 -0.699 0
20.266001 -38.095001 -0.69999999 0
20.421 -38.098 -0.70099998 0
20.58 -38.105999 -0.70300001 0
20.697001 -38.035999 -0.70300001 0
20.767 -38.022999 -0.70300001 0
20.909 -38 -0.704 0
21.035999 -37.948002 -0.70499998 0
21.184 -37.931999 -0.70599997 0
21.337 -37.375 -0.69700003 0
21.690001 -37.855 -0.70999998 0
21.839001 -37.838001 -0.71100003 0
21.966 -37.785 -0.71100003 0
22.141001 -37.811001 -0.71399999 0
22.290001 -37.792999 -0.71499997 0
22.441999 -37.778999 -0.71600002 0
22.525999 -37.785 -0.71700001 0
22.709999 -37.824001 -0.72000003 0
19.414 -32.097 -0.58099997 0
17.903 -29.18 -0.51300001 0
17.944 -29.042 -0.51099998 0
17.926001 -28.809 -0.50599998 0
18.195999 -29.142 -0.51499999 0
17.903999 -28.473 -0.5 0
16.181999 -25.198999 -0.42300001 0.20999999
16.195999 -25.047001 -0.41999999 0.38999999
16.207001 -24.892 -0.41800001 0.69999999
16.267 -24.899 -0.419 0
16.169001 -24.58 -0.412 0
16.187 -24.438999 -0.41 0
16.223 -24.326 -0.40799999 0
16.261999 -24.219999 -0.40700001 0
16.336 -24.166 -0.40700001 0
16.398001 -24.094999 -0.40599999 0
16.440001 -24.073999 -0.40599999 0
16.521999 -24.032 -0.40599999 0
16.636999 -24.037001 -0.40799999 0
16.74 -24.024 -0.40900001 0
16.806 -23.959 -0.40900001 0
16.922001 -23.962999 -0.41 0
17.110001 -24.069 -0.414 0
17.087 -23.955999 -0.412 0
17.193001 -23.945999 -0.41299999 0
17.312 -23.952 -0.41499999 0.059999999
17.517 -23.919001 -0.417 0.28999999
17.639999 -23.927999 -0.41800001 0.37
17.711 -23.945 -0.419 0.36000001
17.82 -23.936001 -0.421 0.33000001
17.927999 -23.923 -0.42199999 0.37
18.044001 -23.921 -0.42300001 0.34999999
18.16 -23.919001 -0.42500001 0.33000001
18.266001 -23.903 -0.426 0.34
18.375999 -23.889999 -0.42699999 0.31
18.455 -23.915001 -0.428 0.34
18.568001 -23.905001 -0.43000001 0.34
18.683001 -23.899 -0.43099999 0.38
18.796 -23.889 -0.43200001 0.38
18.91 -23.878 -0.43399999 0.34999999
19.025999 -23.871 -0.435 0.34
19.129999 -23.847 -0.43599999 0.22
19.226999 -23.891001 -0.43799999 0.44999999
19.35 -23.889999 -0.44 0.19
7.54 -9.224 -0.045000002 0.25
7.9070001 -9.6129999 -0.056000002 0
7.7810001 -9.3389997 -0.050000001 0
19.893 -23.787001 -0.44499999 0
19.938999 -23.767 -0.44499999 0
20.072001 -23.773001 -0.447 0.12
20.18 -23.749001 -0.44800001 0
20.386999 -23.841 -0.45300001 0
20.488001 -23.806999 -0.45300001 0
8.0380001 -9.198 -0.050999999 0.23
7.7379999 -8.8249998 -0.041000001 0.30000001
8.158 -9.2469997 -0.052999999 0.34999999
8.0819998 -9.1029997 -0.050000001 0.38999999
7.9390001 -8.8850002 -0.045000002 0.23
7.6719999 -8.5310001 -0.035 0.38
7.5469999 -8.3369999 -0.030999999 0.27000001
7.5869999 -8.3299999 -0.030999999 0.38999999
7.6370001 -8.3579998 -0.032000002 0.28999999
7.6680002 -8.3400002 -0.032000002 0.31
7.6269999 -8.2419996 -0.029999999 0.47
7.664 -8.2299995 -0.030999999 0.28
7.5780001 -8.0860004 -0.027000001 0.25999999
7.533 -7.9879999 -0.025 0.36000001
7.579 -8.0109997 -0.026000001 0.37
8.2849998 -8.7049999 -0.046999998 0.14
7.6339998 -7.9689999 -0.026000001 0.44
8.0340004 -8.3360004 -0.037999999 0.16
7.7259998 -7.9640002 -0.028000001 0.46000001
7.8330002 -8.0240002 -0.029999999 0.25
7.7129998 -7.8509998 -0.026000001 0.31
7.8189998 -7.934 -0.028000001 0.38999999
7.7290001 -7.7930002 -0.025 0.30000001
8.7609997 -8.783 -0.055 0.23
8.3660002 -8.3319998 -0.041999999 0.28999999
8.4849997 -8.3990002 -0.045000002 0.23999999
8.3889999 -8.2519999 -0.041999999 0.47999999
8.9259996 -8.7270002 -0.057 0.25
8.6969995 -8.4750004 -0.050000001 0.34
8.4569998 -8.1879997 -0.041999999 0.25999999
8.5930004 -8.2690001 -0.045000002 0.46000001
8.5310001 -8.1569996 -0.041999999 0.22
8.658 -8.2270002 -0.045000002 0.38
8.8059998 -8.3149996 -0.048999999 0.25
8.9289999 -8.3789997 -0.052000001 0.40000001
9.0150003 -8.434 -0.054000001 0.23999999
9.2329998 -8.5839996 -0.059 0
9.059 -8.3690004 -0.052999999 0.13
9.2930002 -8.4779997 -0.059 0.33000001
9.3520002 -8.4779997 -0.059999999 0.38
9.3940001 -8.4619999 -0.059999999 0.46000001
9.4099998 -8.4499998 -0.059999999 0.20999999
10.961 -9.7869997 -0.103 0.25
10.638 -9.4370003 -0.093000002 0.25999999
10.659 -9.3959999 -0.093000002 0.47999999
10.599 -9.2849998 -0.090000004 0.19
10.401 -9.0530005 -0.083999999 0.44999999
10.496 -9.0780001 -0.086000003 0.30000001
10.701 -9.2259998 -0.090999998 0.31999999
10.699 -9.1660004 -0.090000004 0.36000001
10.508 -8.9440002 -0.083999999 0.31999999
10.487 -8.8699999 -0.082999997 0.40000001
10.791 -9.0699997 -0.090000004 0.41
10.631 -8.8780003 -0.085000001 0.23
10.509 -8.7189999 -0.081 0.34
10.456 -8.6479998 -0.079000004 0.30000001
10.516 -8.6420002 -0.079999998 0.41999999
10.608 -8.6619997 -0.082000002 0.41999999
10.756 -8.7270002 -0.085000001 0.23
10.707 -8.6309996 -0.082999997 0.36000001
10.689 -8.5609999 -0.082000002 0.46000001
10.869 -8.6780005 -0.086999997 0.15000001
10.734 -8.5150003 -0.082000002 0.38
10.775 -8.4919996 -0.082999997 0.18000001
10.807 -8.4630003 -0.082999997 0.54000002
11.521 -8.9659996 -0.101 0.25
11.721 -9.0629997 -0.106 0.30000001
11.821 -9.0810003 -0.107 0.33000001
10.792 -8.2609997 -0.079999998 0.28999999
10.81 -8.2209997 -0.079999998 0.5
11.266 -8.5129995 -0.090999998 0.30000001
10.949 -8.2189999 -0.082000002 0.25
10.909 -8.1350002 -0.079999998 0.23999999
11.017 -8.1619997 -0.082000002 0.54000002
11.292 -8.3120003 -0.089000002 0.17
11.147 -8.1780005 -0.085000001 0.38
11.2 -8.1630001 -0.085000001 0.47999999
11.384 -8.243 -0.090000004 0.36000001
11.231 -8.0240002 -0.083999999 0.49000001
11.424 -8.1079998 -0.089000002 0
4.552 -3.1900001 0.089000002 0
4.5539999 -3.181 0.089000002 0
4.5409999 -3.1500001 0.089000002 0
4.5469999 -3.1340001 0.089000002 0
4.5619998 -3.1229999 0.089000002 0
4.5819998 -3.115 0.089000002 0
4.5830002 -3.095 0.089000002 0
4.6009998 -3.0869999 0.089000002 0
4.6129999 -3.0840001 0.089000002 0
4.6339998 -3.0769999 0.088 0
4.6440001 -3.063 0.088 0
11.919 -7.855 -0.093999997 0.039999999
15.8 -10.353 -0.191 0.18000001
36.633999 -23.879999 -0.71200001 0.14
12.147 -7.8429999 -0.097999997 0.40000001
36.748001 -23.708 -0.71200001 0.11
36.928001 -23.660999 -0.71499997 0.13
12.324 -7.8210001 -0.101 0.28
12.227 -7.7059999 -0.097999997 0.17
22.926001 -14.375 -0.36199999 0.18000001
12.448 -7.737 -0.102 0.11
12.354 -7.6240001 -0.098999999 0
15.469 -9.5200005 -0.176 0
25.360001 -15.518 -0.41800001 0.090000004
25.429001 -15.451 -0.419 0.23999999
9.493 -5.7080002 -0.027000001 0.12
9.4750004 -5.6570001 -0.026000001 0.20999999
9.5050001 -5.6339998 -0.027000001 0.47
9.5240002 -5.625 -0.027000001 0.36000001
9.54 -5.5939999 -0.027000001 0
25.639 -14.978 -0.41800001 0
15.344 -8.8870001 -0.167 0
25.707001 -14.801 -0.417 0
15.971 -9.0509996 -0.18000001 0
17.148001 -9.6850004 -0.208 0
16.733999 -9.3809996 -0.197 0
16.173 -8.9320002 -0.182 0
18.079 -9.915 -0.227 0.07
18.733 -10.198 -0.242 0.090000004
17.408001 -9.4040003 -0.20999999 0.18000001
18.472 -9.9420004 -0.235 0.23
18.749001 -10.016 -0.241 0.18000001
18.938 -10.041 -0.244 0
18.386 -9.6739998 -0.23100001 0.16
17.094999 -8.9239998 -0.199 0.2
17.162001 -8.8900003 -0.2 0.19
17.232 -8.8579998 -0.20100001 0.31999999
17.296 -8.8570004 -0.20200001 0.14
19.063999 -9.6899996 -0.243 0.27000001
19.153 -9.6590004 -0.245 0.15000001
19.083 -9.5489998 -0.242 0.28
19.379999 -9.6219997 -0.249 0.25
19.396 -9.5539999 -0.248 0.41999999
18.989 -9.2790003 -0.23800001 0.23
19.594999 -9.5380001 -0.252 0.30000001
19.472 -9.4020004 -0.248 0.28
19.503 -9.342 -0.248 0.18000001
19.738001 -9.3780003 -0.25299999 0.27000001
19.697001 -9.283 -0.25099999 0.2
19.534 -9.1309996 -0.24699999 0.17
17.552 -8.1350002 -0.20100001 0.23999999
17.547001 -8.099 -0.2 0.38999999
17.610001 -8.0609999 -0.20100001 0.50999999
17.667999 -8.0209999 -0.20200001 0.28999999
18.871 -8.4969997 -0.229 0.2
19.042999 -8.5030003 -0.23199999 0.18000001
19.837 -8.7840004 -0.25 0.20999999
20.344 -8.9329996 -0.26100001 0
21.309 -9.3179998 -0.28299999 0.07
20.628 -8.9420004 -0.266 0.079999998
21.695 -9.3249998 -0.28999999 0
20.372999 -8.6789999 -0.259 0
20.099001 -8.4130001 -0.252 0.34999999
20.253 -8.4029999 -0.255 0.25
21.618 -8.9320002 -0.285 0.2
19.907 -8.0769997 -0.245 0
21.408001 -8.6099997 -0.27900001 0.090000004
21.406 -8.5299997 -0.278 0.18000001
21.636999 -8.5439997 -0.28299999 0.16
21.771999 -8.4790001 -0.285 0
21.993999 -8.4870005 -0.289 0.1
20 -7.5710001 -0.243 0.19
36.839001 -13.836 -0.62 0.15000001
36.813 -13.694 -0.61799997 0.28
20.764 -7.6750002 -0.259 0.2
20.826 -7.6230001 -0.25999999 0.16
22.007 -7.9790001 -0.28600001 0.18000001
20.753 -7.3759999 -0.257 0.19
20.66 -7.2690001 -0.25400001 0.14
21.014999 -7.3200002 -0.26199999 0.30000001
21.750999 -7.54 -0.278 0.19
20.933001 -7.1810002 -0.259 0.18000001
23.688999 -8.0469999 -0.31900001 0.41
20.761999 -6.9770002 -0.25400001 0.16
20.704 -6.8850002 -0.252 0.44
36.860001 -12.15 -0.60900003 0.11
36.957001 -12.054 -0.61000001 0.14
37.069 -12.026 -0.61199999 0.20999999
37.266998 -11.961 -0.616 0.2
37.181999 -11.805 -0.61299998 0.20999999
37.429001 -11.754 -0.61799997 0
37.757999 -11.728 -0.62400001 0
45.695 -14.041 -0.79699999 0
45.972 -13.969 -0.80199999 0
46.143002 -13.942 -0.80599999 0
35.275002 -10.531 -0.56699997 0
35.337002 -10.308 -0.56699997 0
47.341999 -13.658 -0.82800001 0
47.575001 -13.563 -0.83200002 0
47.813999 -13.469 -0.83700001 0
47.988998 -13.437 -0.83999997 0
48.166 -13.324 -0.84299999 0
48.280998 -13.192 -0.84399998 0
48.401001 -13.062 -0.84600002 0
48.522999 -12.932 -0.84799999 0
48.645 -12.801 -0.85000002 0
48.749001 -12.664 -0.85100001 0
34.539001 -8.7910004 -0.542 0
49.071999 -12.338 -0.85600001 0
49.186001 -12.202 -0.85799998 0
49.292 -12.064 -0.85900003 0
49.452 -11.939 -0.86199999 0
34.195 -8.191 -0.53200001 0
49.674999 -11.746 -0.86500001 0
49.768002 -11.603 -0.866 0
49.908001 -11.47 -0.86900002 0
50.027 -11.332 -0.87 0
50.109001 -11.186 -0.87099999 0
50.202999 -11.041 -0.87300003 0
15.498 -3.3139999 -0.127 0.13
15.483 -3.2590001 -0.127 0.27000001
15.48 -3.2079999 -0.126 0.47999999
15.441 -3.1489999 -0.125 0.37
15.562 -3.1229999 -0.12800001 0
36.381001 -7.2179999 -0.57300001 0
36.466 -7.1760001 -0.574 0.07
36.546001 -7.072 -0.57499999 0
36.587002 -6.961 -0.57599998 0
36.556 -6.836 -0.57499999 0
36.68 -6.7399998 -0.57700002 0
35.368999 -6.3839998 -0.54900002 0
36.916 -6.5440001 -0.58099997 0
36.730999 -6.4520001 -0.57700002 0
36.560001 -6.303 -0.57300001 0
37.053001 -6.2690001 -0.583 0.090000004
37.313 -6.1929998 -0.588 0.090000004
36.622002 -5.9590001 -0.57300001 0
36.495998 -5.8210001 -0.56999999 0
36.439999 -5.6950002 -0.56800002 0.12
36.367001 -5.625 -0.56699997 0
52.27 -7.928 -0.903 0
52.372002 -7.7750001 -0.90499997 0
50.535999 -7.177 -0.86500001 0
50.514 -7.0120001 -0.86400002 0
52.460999 -7.0320001 -0.90499997 0
52.784 -6.9060001 -0.91100001 0
52.865002 -6.7480001 -0.912 0
52.944 -6.5890002 -0.91399997 0
52.976002 -6.4239998 -0.91399997 0
52.959999 -6.2540002 -0.91299999 0
53.212002 -6.1989999 -0.91799998 0
53.141998 -6.0209999 -0.91600001 0
51.366001 -5.6560001 -0.87800002 0
52.925999 -5.6599998 -0.91100001 0
53.895 -5.5929999 -0.93099999 0
54.738998 -5.507 -0.94800001 0
35.268002 -3.427 -0.53799999 0.11
35.167999 -3.362 -0.53600001 0.20999999
35.111 -3.2449999 -0.53399998 0.23999999
35.130001 -3.135 -0.53399998 0.30000001
35.178001 -3.0280001 -0.53500003 0.34999999
35.300999 -2.927 -0.53799999 0
57.126999 -4.3920002 -0.99599999 0
52.453999 -3.1199999 -0.89700001 0
51.942001 -2.9260001 -0.88599998 0
62.241001 -3.4130001 -1.102 0
62.561001 -3.233 -1.108 0
62.740002 -3.0450001 -1.112 0
65.501999 -1.841 -1.169 0
45.800999 2.7030001 -0.99199998 0.090000004
45.729 2.842 -0.99000001 0.079999998
45.640999 3.197 -0.98799998 0.91000003
45.609001 3.339 -0.98799998 0.91000003
45.630001 3.484 -0.98900002 0.89999998
45.513 3.619 -0.986 0.91000003
45.771 3.7850001 -0.99299997 0.57999998
45.646999 3.8469999 -0.99000001 0
45.648998 3.9909999 -0.99000001 0
45.709999 4.1409998 -0.99199998 0
60.077999 5.8319998 -1.369 0
49.966 5.401 -1.1059999 0
49.806 5.7010002 -1.103 0.13
49.77 5.855 -1.102 0.2
49.734001 6.0089998 -1.102 0.11
49.719002 6.1659999 -1.102 0
49.750999 6.2490001 -1.103 0
49.824001 6.4180002 -1.105 0
37.640999 5.5050001 -0.787 0
36.991001 5.5279999 -0.77100003 0
36.348999 5.5479999 -0.75400001 0
35.810001 5.5809999 -0.74000001 0
35.443001 5.638 -0.73100001 0
35.292999 5.7270002 -0.72799999 0
35.272999 5.8379998 -0.72799999 0
35.217999 5.8860002 -0.72600001 0.090000004
34.007 5.7919998 -0.69499999 0
35.194 6.1090002 -0.727 0
33.674999 5.9530001 -0.68699998 0
33.931 6.1090002 -0.69400001 0
34.108002 6.3629999 -0.69999999 0.36000001
33.201 6.2459998 -0.676 0.16
33.061001 6.3280001 -0.67299998 0.34999999
34.138 6.6459999 -0.70200002 0
20.406 5.6550002 -0.347 0.029999999
20.702 5.8070002 -0.35600001 0
19.938 5.7950001 -0.33700001 0
19.921 5.8249998 -0.33700001 0
20.636999 6.105 -0.35600001 0
20.667999 6.1849999 -0.35800001 0
20.684999 6.4029999 -0.36000001 0
20.684 6.474 -0.36000001 0
20.683001 6.5100002 -0.361 0
19.146 6.0900002 -0.31900001 0
19.382 6.2329998 -0.32600001 0
19.875999 6.5300002 -0.34099999 0
19.867001 6.5970001 -0.34099999 0
19.879 6.7049999 -0.34200001 0
19.826 6.756 -0.34099999 0
28.205 10.171 -0.57700002 0.17
27.921 10.167 -0.56999999 0.25
27.705 10.187 -0.565 0.23999999
28.073999 10.424 -0.57599998 0.43000001
28.059999 10.519 -0.57700002 0.28999999
28.115999 10.641 -0.579 0.2
27.937 10.673 -0.57499999 0.38999999
27.938999 10.724 -0.57599998 0.23999999
28.041 10.865 -0.579 0.46000001
27.893 10.909 -0.57599998 0.2
35.775002 14.129 -0.79799998 0.25
35.505001 14.151 -0.792 0.28999999
35.199001 14.157 -0.78500003 0.33000001
34.893002 14.162 -0.77700001 0.30000001
34.623001 14.115 -0.76999998 0.31
34.337002 14.124 -0.76300001 0.22
15.277 6.3249998 -0.226 0.34999999
15.217 6.3559999 -0.22499999 0.40000001
15.221 6.414 -0.226 0.30000001
15.263 6.4879999 -0.228 0.58999997
32.868999 14.127 -0.72799999 0.20999999
32.674 14.104 -0.72299999 0.34
32.41 14.111 -0.71700001 0.34999999
32.151001 14.118 -0.71100003 0.34
31.889 14.123 -0.70499998 0.28999999
31.629999 14.126 -0.699 0.36000001
31.379 14.133 -0.69300002 0.31999999
31.131001 14.138 -0.68699998 0.28999999
30.917999 14.1 -0.68099999 0.44999999
30.705999 14.12 -0.67699999 0.25
24.153999 11.193 -0.48899999 0.25
30.184 14.11 -0.66399997 0.44
29.945999 14.113 -0.65899998 0.34
29.690001 14.107 -0.65200001 0.28
29.472 14.06 -0.64700001 0.30000001
29.253 14.068 -0.64200002 0.28
29.027 14.072 -0.63599998 0.20999999
28.841999 14.094 -0.63200003 0.40000001
28.631001 14.102 -0.62800002 0.31
28.410999 14.105 -0.62199998 0.36000001
28.184 14.103 -0.61699998 0.36000001
28.007 14.069 -0.61299998 0.31999999
27.798 14.073 -0.60799998 0.34
27.589001 14.076 -0.60299999 0.36000001
27.386 14.081 -0.59799999 0.37
27.191 14.089 -0.59399998 0.30000001
26.996 14.095 -0.58899999 0.50999999
21.214001 11.155 -0.41999999 0.25999999
21.197001 11.189 -0.41999999 0.25999999
26.443001 14.072 -0.57599998 0.31999999
26.256001 14.078 -0.57200003 0.38999999
26.063999 14.081 -0.56800002 0.37
25.885 14.089 -0.56400001 0.34
25.702 14.094 -0.56 0.36000001
25.525 14.101 -0.55599999 0.36000001
25.364 14.064 -0.55199999 0.38
25.187 14.07 -0.54799998 0.36000001
25.018999 14.079 -0.54400003 0.36000001
24.827 14.074 -0.53899997 0.36000001
24.667 14.085 -0.53600001 0.36000001
24.500999 14.093 -0.53200001 0.38999999
24.32 14.09 -0.528 0.38999999
24.184 14.062 -0.52499998 0.33000001
24.040001 14.079 -0.52200001 0.40000001
24.054001 14.189 -0.52399999 0.56
23.849001 14.17 -0.51899999 0.19
17.472 10.447 -0.32600001 0.30000001
17.256001 10.391 -0.32100001 0.25
17.186001 10.423 -0.31900001 0.49000001
17.197001 10.466 -0.31999999 0.22
16.98 10.407 -0.315 0.31999999
16.865999 10.41 -0.31200001 0.46000001
16.875 10.489 -0.31299999 0.33000001
16.747999 10.483 -0.31 0.46000001
16.716 10.537 -0.31099999 0.36000001
16.722 10.614 -0.31200001 0.34999999
16.677999 10.623 -0.31099999 0.27000001
16.615999 10.657 -0.31 0.44999999
16.698 10.784 -0.31400001 0.31
16.582001 10.783 -0.31099999 0.27000001
16.577999 10.854 -0.31200001 0.49000001
16.552999 10.912 -0.31200001 0.22
16.679001 11.033 -0.317 0.31999999
16.582001 11.044 -0.315 0.41
16.586 11.122 -0.31600001 0.2
16.440001 11.099 -0.31299999 0.56
16.834 11.443 -0.32600001 0.25
23.927999 16.389 -0.55199999 0.27000001
16.943001 11.674 -0.33199999 0.22
16.849001 11.648 -0.329 0.56999999
16.834 11.716 -0.33000001 0.25999999
16.576 11.614 -0.32300001 0.36000001
16.403999 11.57 -0.31900001 0.31
16.462 11.688 -0.322 0.43000001
16.537001 11.82 -0.32499999 0.30000001
16.539 11.9 -0.32699999 0.31999999
16.504 11.915 -0.32600001 0.41999999
22.487 16.354 -0.51999998 0.18000001
15.178 11.101 -0.28600001 0.46000001
15.146 11.151 -0.28600001 0.27000001
22.084999 16.381001 -0.51200002 0.41999999
21.958 16.393999 -0.50999999 0.36000001
21.816 16.393999 -0.50700003 0.38
21.694 16.356001 -0.50400001 0.37
21.562 16.363001 -0.50099999 0.38999999
21.424 16.365 -0.498 0.38
21.287001 16.365999 -0.495 0.38999999
21.158001 16.372999 -0.493 0.38999999
21.033001 16.381001 -0.49000001 0.41
20.893 16.378 -0.48800001 0.38999999
20.798 16.357 -0.48500001 0.40000001
20.667999 16.360001 -0.48300001 0.41
20.551001 16.372 -0.47999999 0.31999999
20.419001 16.372 -0.47799999 0.41999999
20.294001 16.377001 -0.47499999 0.41
20.165001 16.377001 -0.47299999 0.41999999
20.041 16.381001 -0.47 0.41
19.947001 16.357 -0.46799999 0.41
19.826 16.362 -0.46599999 0.34
19.705999 16.365999 -0.463 0.43000001
19.591 16.375999 -0.461 0.34
19.450001 16.361 -0.458 0.43000001
19.34 16.372999 -0.456 0.41
19.222 16.375999 -0.454 0.34999999
19.128 16.348 -0.45100001 0.44
19.028999 16.368 -0.44999999 0.34999999
18.892 16.353001 -0.447 0.44999999
18.792 16.370001 -0.44499999 0.36000001
18.656 16.355 -0.442 0.46000001
18.552 16.367001 -0.44 0.38
18.471001 16.347 -0.43900001 0.38
18.356001 16.348 -0.43599999 0.38
18.233999 16.343 -0.43399999 0.47999999
18.146999 16.368 -0.433 0.28999999
18.013 16.349001 -0.43000001 0.55000001
17.936001 16.382999 -0.42899999 0.27000001
12.098 11.109 -0.22400001 0.63999999
12.088 11.135 -0.22400001 0.25999999
17.629999 16.358 -0.42199999 0.30000001
17.509001 16.348 -0.41999999 0.5
17.417999 16.365999 -0.419 0.30000001
17.294001 16.351999 -0.41600001 0.50999999
17.205 16.370001 -0.41499999 0.31999999
17.087999 16.362 -0.412 0.5
17.024 16.351 -0.41100001 0.31999999
16.9 16.334999 -0.40799999 0.50999999
16.819 16.358999 -0.40700001 0.31999999
16.698999 16.344999 -0.405 0.51999998
16.612 16.362 -0.403 0.33000001
16.497 16.351 -0.40099999 0.51999998
16.41 16.367001 -0.40000001 0.33000001
16.319 16.327999 -0.39700001 0.50999999
16.285 16.396 -0.398 0.34
16.261999 16.476999 -0.39899999 0.63
16.23 16.548 -0.40000001 0.47999999
16.268 16.796 -0.405 0.38
16.254999 16.889 -0.40700001 0.43000001
16.273001 16.961 -0.40799999 0.41
16.275999 17.070999 -0.41 0.41
16.257999 17.16 -0.412 0.41
16.259001 17.268999 -0.414 0.41
16.268 17.389 -0.41600001 0.41
16.252001 17.481001 -0.41800001 0.41
16.254 17.594 -0.41999999 0.41
16.281 17.68 -0.42199999 0.41
16.264 17.771999 -0.42300001 0.41
16.273001 17.895 -0.426 0.40000001
16.271999 18.007 -0.428 0.40000001
16.257 18.105 -0.43000001 0.38999999
16.256001 18.218 -0.43200001 0.38999999
16.253 18.330999 -0.43399999 0.47999999
16.287001 18.427999 -0.43700001 0.28999999
16.271999 18.527 -0.43799999 0.5
16.282 18.657 -0.44100001 0.28999999
16.253 18.743 -0.442 0.49000001
16.26 18.871 -0.44499999 0.37
16.257999 18.989 -0.447 0.47
16.275999 19.070999 -0.449 0.38
16.267 19.181 -0.45100001 0.46000001
16.285999 19.327 -0.454 0.28999999
16.254 19.412001 -0.45500001 0.56999999
16.254 19.537001 -0.458 0.16
9.1450005 11.045 -0.169 0.66000003
9.118 11.083 -0.17 0.23
16.278999 19.884001 -0.465 0.36000001
16.277 20.009001 -0.46799999 0.43000001
16.275 20.135 -0.47 0.36000001
16.261 20.247999 -0.472 0.43000001
16.261999 20.381001 -0.47499999 0.41
16.25 20.497 -0.477 0.41
16.26 20.643 -0.48100001 0.41999999
16.283001 20.739 -0.48300001 0.40000001
16.27 20.856001 -0.48500001 0.41
16.274 20.997 -0.48800001 0.40000001
16.27 21.129 -0.491 0.40000001
16.257999 21.252001 -0.493 0.40000001
16.26 21.393999 -0.49599999 0.38
16.254999 21.528 -0.49900001 0.38
16.278 21.628 -0.50099999 0.38
16.274 21.766001 -0.50400001 0.38
16.264999 21.896999 -0.50700003 0.37
16.264999 22.042 -0.50999999 0.38
16.254 22.172001 -0.51200002 0.44
16.247999 22.309999 -0.51499999 0.36000001
16.240999 22.448 -0.51800001 0.37
16.278999 22.576 -0.52100003 0.37
16.271999 22.716999 -0.52399999 0.37
16.261999 22.854 -0.52700001 0.40000001
16.259001 23.003 -0.52999997 0.34999999
16.249001 23.142 -0.53299999 0.43000001
16.242001 23.288 -0.53600001 0.40000001
16.238001 23.440001 -0.53899997 0.38999999
16.273001 23.569 -0.542 0.40000001
16.261999 23.712 -0.54500002 0.38999999
16.267 23.881001 -0.54900002 0.40000001
16.257999 24.028999 -0.55199999 0.40000001
16.252001 24.183001 -0.55500001 0.38
16.247999 24.341999 -0.55800003 0.38
16.245001 24.504999 -0.56199998 0.37
16.268999 24.625999 -0.565 0.37
16.278 24.809 -0.56900001 0.28
16.253 24.940001 -0.57200003 0.55000001
16.25 25.108999 -0.57499999 0.30000001
16.24 25.267 -0.579 0.25
16.238001 25.440001 -0.58200002 0.41
16.23 25.604 -0.58600003 0.23
16.266001 25.750999 -0.58999997 0.27000001
16.264 25.927 -0.59299999 0.38999999
16.257 26.099001 -0.597 0.40000001
16.250999 26.271999 -0.60100001 0.31
16.247999 26.452999 -0.60500002 0.36000001
16.236 26.621 -0.60799998 0.37
16.226 26.794001 -0.61199999 0.36000001
16.264999 26.955 -0.616 0.36000001
16.268 27.150999 -0.62099999 0.36000001
16.257 27.327999 -0.62400001 0.34999999
16.249001 27.511 -0.62900001 0.31
16.183001 27.597 -0.63 0.37
16.112 27.674999 -0.63 0.11
16.237 28.093 -0.64099997 0.28
16.27 28.254 -0.64499998 0.34999999
16.264 28.448999 -0.64999998 0.37
16.257999 28.646999 -0.65399998 0.33000001
16.247999 28.841 -0.65899998 0.43000001
16.245001 29.049 -0.66299999 0.30000001
16.243999 29.263 -0.66799998 0.36000001
16.231001 29.457001 -0.67199999 0.34999999
16.268999 29.636999 -0.67699999 0.34999999
16.267 29.855 -0.68199998 0.34999999
16.254 30.055 -0.68599999 0.34999999
16.245001 30.267 -0.69099998 0.31999999
16.240999 30.489 -0.69599998 0.33000001
16.232 30.704 -0.70099998 0.33000001
16.221001 30.917999 -0.70599997 0.33000001
16.267 31.124001 -0.71100003 0.38
16.256001 31.344 -0.71600002 0.31
16.254 31.583 -0.722 0.37
16.247 31.813999 -0.727 0.28999999
16.246 32.061001 -0.73299998 0.34999999
16.235001 32.291 -0.73799998 0.28999999
16.225 32.526001 -0.74299997 0.34999999
16.268 32.741001 -0.74900001 0.34
16.261 32.986 -0.75400001 0.34999999
16.247999 33.223999 -0.75999999 0.28
16.242001 33.478001 -0.76599997 0.38
16.216 33.693001 -0.76999998 0.34
5.2820001 11.024 -0.114 0.18000001
5.2449999 11.035 -0.114 0.15000001
5.2160001 11.018 -0.113 0.56
5.152 10.971 -0.111 0.18000001
16.243 35.299999 -0.80900002 0.31
16.235001 35.577999 -0.815 0.30000001
16.229 35.862 -0.82200003 0.33000001
16.219999 36.145 -0.82800001 0.33000001
16.271 36.412998 -0.83499998 0.31999999
16.264999 36.709 -0.84200001 0.25
16.254999 37 -0.84899998 0.34
16.246 37.298 -0.85600001 0.31999999
16.237 37.598 -0.86299998 0.33000001
16.222 37.889999 -0.87 0.28
16.215 38.206001 -0.87800002 0.30000001
16.268999 38.501999 -0.88499999 0.30000001
16.264 38.832001 -0.89300001 0.31
16.253 39.148998 -0.90100002 0.20999999
16.237 39.459999 -0.90799999 0.33000001
16.138 39.574001 -0.91000003 0.11
16.096001 39.827999 -0.91600001 0.28999999
15.956 39.841999 -0.91399997 0.37
15.873 39.816002 -0.91299999 0.30000001
15.734 39.828999 -0.912 0.38
15.586 39.82 -0.91000003 0.31999999
15.451 39.845001 -0.91000003 0.38999999
15.31 39.852001 -0.90899998 0.31999999
15.174 39.872002 -0.90799999 0.31999999
15.034 39.880001 -0.90700001 0.30000001
14.958 39.868 -0.90600002 0.30000001
14.814 39.863998 -0.90399998 0.31
14.669 39.855999 -0.903 0.23999999
14.518 39.833 -0.90100002 0.31999999
14.379 39.839001 -0.89999998 0.38
14.237 39.838001 -0.89899999 0.31999999
14.096 39.838001 -0.89700001 0.28999999
14.021 39.824001 -0.89600003 0.44
13.877 39.813 -0.89499998 0.31999999
13.742 39.827999 -0.89399999 0.20999999
13.599 39.818001 -0.89300001 0.14
12.898 38.155998 -0.84600002 0.11
13.325 39.834999 -0.89099997 0.38
13.193 39.853001 -0.88999999 0
13.109 39.810001 -0.88800001 0
12.413 38.094002 -0.83999997 0.039999999
12.836 39.820999 -0.88599998 0.14
12.701 39.830002 -0.88599998 0.27000001
12.564 39.832001 -0.884 0.27000001
12.423 39.821999 -0.88300002 0.25999999
12.293 39.842999 -0.88300002 0.34
12.217 39.82 -0.88099998 0.34999999
12.078 39.811001 -0.88 0.30000001
11.944 39.821999 -0.87900001 0.34999999
11.806 39.813 -0.87800002 0.34999999
11.669 39.811001 -0.87699997 0.30000001
11.536 39.820999 -0.87599999 0.36000001
11.403 39.827999 -0.87599999 0.27000001
11.335 39.828999 -0.875 0.44
11.253 40.015999 -0.87900001 0.2
11.317 40.735001 -0.898 0
11.344 41.34 -0.91299999 0.1
11.218 41.91 -0.92699999 0.44
11.188 42.330002 -0.93699998 0.14
11.382 43.344002 -0.96399999 0.20999999
11.259 43.43 -0.96499997 0.50999999
11.232 43.895 -0.977 0.23
11.223 44.439999 -0.991 0.20999999
11.198 44.937 -1.003 0
11.187 46.126999 -1.033 0.38
11.251 46.714001 -1.048 0.2
11.235 47.301998 -1.063 0
11.184 47.754002 -1.074 0.12
11.221 48.601002 -1.096 0.11
11.357 50.646999 -1.149 0.63
11.197 50.676998 -1.149 0.23
11.402 52.786999 -1.204 0.63999999
11.246 52.870998 -1.205 0.46000001
12.532 59.855999 -1.39 0.15000001
12.561 60.951 -1.418 0
11.405 57.147999 -1.3150001 0.059999999
11.216 57.133999 -1.314 0
11.436 60.786999 -1.408 0
11.245 60.820999 -1.408 0
11.28 64.412003 -1.501 0
11.178 64.421997 -1.5 0
3.473 29.877001 -0.57999998 0
0.92500001 10.358 -0.066 0.38999999
0.89200002 10.353 -0.066 0.28
0.86000001 10.357 -0.066 0.66000003
0.82499999 10.328 -0.064999998 0.56999999
0.79500002 10.373 -0.067000002 0.25999999
0.884 11.816 -0.104 0.44999999
0.85100001 11.888 -0.106 0.66000003
0.81999999 11.978 -0.108 0
0.77100003 11.811 -0.104 0
0.33500001 6.3189998 0.039999999 0
0.31200001 6.2589998 0.041000001 0
0.292 6.2399998 0.041999999 0
0.273 6.2459998 0.041999999 0
0.252 6.223 0.041999999 0
0.23199999 6.204 0.043000001 0.07
0.212 6.1929998 0.043000001 0.14
0.20200001 6.1989999 0.043000001 0.16
0.183 6.198 0.043000001 0.17
0.163 6.198 0.043000001 0.16
0.14399999 6.2049999 0.043000001 0.16
0.124 6.1950002 0.043000001 0.090000004
0.105 6.2220001 0.041999999 0
0.086000003 6.2179999 0.043000001 0
0.075999998 6.256 0.041999999 0
-1.3609999 74.322998 -1.734 0
-2.5710001 79.134003 -1.86 0
-1.5319999 43.319 -0.926 0
-1.666 43.278 -0.92500001 0
-3.0910001 73.766998 -1.721 0
-1.905 42.541 -0.90600002 0
-2.9519999 61.351002 -1.397 0
-3.142 61.277 -1.395 0
-3.2260001 61.039001 -1.3890001 0
-3.3770001 60.312 -1.3710001 0
-3.5739999 60.425999 -1.374 0
-3.822 61.348999 -1.398 0
-3.9820001 60.834 -1.385 0
-4.1370001 60.293999 -1.3710001 0
-4.3470001 60.571999 -1.3789999 0
-4.46 60.812 -1.385 0
-4.6290002 60.500999 -1.378 0
-4.8470001 60.834999 -1.387 0
-5.0780001 61.310001 -1.4 0
-5.303 61.661999 -1.409 0
-5.5079999 61.776001 -1.413 0
-5.7020001 61.752998 -1.413 0
-4.237 42.341 -0.90499997 0
-4.3709998 42.339001 -0.90499997 0
-6.7800002 60.026001 -1.3710001 0
-6.8860002 60.112999 -1.373 0
-7.0749998 60.089001 -1.373 0
-7.2280002 59.775002 -1.365 0
-7.441 59.952 -1.3710001 0
-7.552 59.328999 -1.355 0
-7.757 59.448002 -1.359 0
-7.9320002 59.330002 -1.3559999 0
-10.301 76.089996 -1.798 0
-8.257 59.625 -1.365 0
-8.4169998 59.404999 -1.36 0
-6.0229998 41.625 -0.89200002 0
-11.321 76.388 -1.809 0
-11.454 75.646004 -1.791 0
-11.638 75.267998 -1.781 0
-11.865 75.939003 -1.8 0
-11.961 75.013 -1.776 0
-12.116 74.480003 -1.763 0
-12.396 74.718002 -1.77 0
-12.624 74.640999 -1.7690001 0
-12.929 75.007004 -1.78 0
-13.151 74.890999 -1.778 0
-10.493 59.237999 -1.364 0
-10.679 59.205002 -1.364 0
-10.652 58.013 -1.3329999 0
-10.893 58.294998 -1.342 0
-11.098 58.373001 -1.345 0
-14.424 74.556 -1.776 0
-11.468 58.323002 -1.345 0
-11.608 58.071999 -1.34 0
-11.822 58.659 -1.3559999 0
-11.936 58.280998 -1.347 0
-12.042 57.873001 -1.337 0
-12.204 57.741001 -1.334 0
-16.106001 74.999001 -1.796 0
-16.325001 74.875 -1.794 0
-16.556999 74.809998 -1.793 0
-16.41 73.598 -1.762 0
-6.5970001 26.332001 -0.50300002 0.18000001
-6.6329999 26.129 -0.498 0.51999998
-6.7670002 26.309 -0.50400001 0.22
-6.849 26.285999 -0.50400001 0
-14.94 56.852001 -1.3279999 0.11
-6.8600001 25.827999 -0.49200001 0.28
-6.9450002 25.822001 -0.493 0.27000001
-10.983 40.276001 -0.884 0.13
-7.0830002 25.691 -0.49000001 0.25
-7.2470002 25.965 -0.498 0.18000001
-7.3639998 25.76 -0.49399999 0.36000001
-7.3860002 25.684999 -0.49200001 0.15000001
-7.5229998 25.855 -0.49700001 0
-11.795 40.015999 -0.88300002 0.12
-11.873 39.818001 -0.87900001 0.18000001
-11.967 39.676998 -0.87599999 0.14
-12.119 39.729 -0.87800002 0.14
-12.229 39.645 -0.87699997 0.15000001
-23.643999 76.142998 -1.874 0.20999999
-23.882 76.064003 -1.874 0.20999999
-24.111 75.959 -1.874 0.14
-24.348 75.876999 -1.873 0.16
-24.587 75.804001 -1.874 0.16
-24.827999 75.734001 -1.874 0.30000001
-25.059999 75.638 -1.873 0.25
-25.18 75.602997 -1.873 0.16
-25.42 75.532997 -1.874 0.44999999
-25.650999 75.431 -1.873 0.20999999
-25.895 75.371002 -1.874 0.23999999
-26.129 75.283997 -1.873 0.23999999
-26.360001 75.185997 -1.873 0.38999999
-26.6 75.112999 -1.873 0.23999999
-26.719 75.073997 -1.873 0.23
-26.948 74.971001 -1.873 0.20999999
-27.188 74.899002 -1.873 0.23
-27.426001 74.820999 -1.873 0.18000001
-27.665001 74.746002 -1.874 0.17
-27.899 74.656998 -1.874 0.33000001
-28.141001 74.586998 -1.874 0
-28.247 74.514999 -1.873 0
-28.483 74.431999 -1.874 0
-28.726 74.365997 -1.874 0.13
-28.958 74.269997 -1.874 0.16
-29.197001 74.193001 -1.875 0.16
-29.431999 74.107002 -1.875 0.1
-29.663 74.010002 -1.875 0.16
-29.781 73.967003 -1.875 0.1
-30.023001 73.897003 -1.875 0
-30.257999 73.809998 -1.876 0
-28.738001 69.485001 -1.756 0
-28.981001 69.453003 -1.758 0
-29.216 69.402 -1.7589999 0
-29.466 69.385002 -1.761 0
-29.903 70.108002 -1.783 0
-30.316999 70.462997 -1.796 0
-30.479 70.232002 -1.7920001 0
-30.853001 70.486 -1.802 0
-30.976999 70.167 -1.796 0
-31.132999 69.925003 -1.791 0
-32.744999 72.927002 -1.88 0
-31.881001 70.707001 -1.818 0
-32.089001 70.575996 -1.817 0
-30.216 65.910004 -1.686 0
-30.483999 65.946999 -1.6900001 0
-30.724001 65.921997 -1.692 0
-30.878 65.712997 -1.689 0
-31.944 67.427002 -1.7410001 0
-32.075001 67.429001 -1.743 0
-31.524 65.739998 -1.697 0
-33.152 68.580002 -1.7819999 0
-33.673 69.100998 -1.8 0
-33.924999 69.066002 -1.802 0
-31.051001 62.722 -1.62 0
-31.447001 63.022999 -1.632 0
-31.674999 63.23 -1.64 0
-21.318001 41.915001 -1.022 0
-22.242001 41.606998 -1.026 0
-32.126999 58.301998 -1.531 0
-23.172001 41.294998 -1.03 0
-24.514999 42.123001 -1.066 0
-27.938 47.825001 -1.24 0
-24.103001 40.970001 -1.035 0
-18.912001 31.254 -0.74800003 0.30000001
-18.761999 30.788 -0.73500001 0.14
-18.278999 29.891001 -0.70899999 0.37
-18.09 29.375 -0.69499999 0.22
-17.937 28.923 -0.68300003 0.17
-17.815001 28.527 -0.67199999 0.44999999
-17.656 28.075001 -0.66000003 0.25
-17.500999 27.636 -0.648 0.25999999
-17.365999 27.233999 -0.63800001 0.28
-17.218 26.910999 -0.62800002 0.25999999
-17.09 26.527 -0.61799997 0.17
-15.019 23.157 -0.51499999 0.16
-15.086 23.101999 -0.51499999 0.61000001
-15.196 23.111 -0.51700002 0.14
-14.694 22.197001 -0.48899999 0.31
-14.718 22.082001 -0.48699999 0.55000001
-14.342 21.302 -0.465 0.34
-14.536 21.443001 -0.47099999 0.19
-14.468 21.200001 -0.465 0.19
-14.005 20.249001 -0.43700001 0.25999999
-13.996 20.101999 -0.43399999 0.38
-13.873 19.858 -0.42699999 0.38
-13.779 19.593 -0.41999999 0.38
-13.705 19.358 -0.414 0.37
-13.624 19.117001 -0.40700001 0.44999999
-13.537 18.868999 -0.40099999 0.25999999
-13.543 18.754 -0.39899999 0.62
-13.615 18.729 -0.39899999 0.40000001
-14.638 20.066999 -0.44299999 0.31999999
-13.163 17.93 -0.375 0.46000001
-13.113 17.746 -0.37099999 0.34
-13.065 17.565001 -0.366 0.38
-13.065 17.450001 -0.36399999 0.70999998
-13.133 17.427 -0.36399999 0.34
-13.198 17.4 -0.36500001 0.41999999
-13.242 17.400999 -0.366 0.34999999
-13.303 17.368 -0.366 0.41
-13.374 17.346001 -0.366 0.38999999
-13.437 17.315001 -0.36700001 0.34999999
-13.508 17.295 -0.368 0.55000001
-12.652 16.097 -0.329 0.23999999
-12.698 16.052 -0.329 0.28999999
-13.7 17.259001 -0.37 0.16
-13.815 17.292 -0.37200001 0.40000001
-13.926 17.319 -0.375 0.36000001
-13.989 17.285999 -0.375 0.52999997
-14.062 17.264999 -0.37599999 0.38
-14.131 17.239 -0.377 0.41
-14.177 17.184 -0.37599999 0.62
-14.178 17.131001 -0.375 0.37
-14.316 17.187 -0.37900001 0.1
-14.397 17.174999 -0.38 0.15000001
-14.46 17.139999 -0.38 0.090000004
-14.531 17.114 -0.38100001 0.11
-12.513 14.65 -0.29800001 0.18000001
-12.501 14.544 -0.29499999 0
-14.704 17.045 -0.382 0.1
-12.643 14.569 -0.29800001 0.27000001
-12.667 14.504 -0.29699999 0.18000001
-12.715 14.467 -0.29800001 0.30000001
-12.795 14.466 -0.29899999 0.33000001
-15.038 16.888 -0.38499999 0.30000001
-15.124 16.878 -0.38600001 0.33000001
-15.203 16.858 -0.38699999 0.46000001
-15.221 16.826 -0.38699999 0.62
-15.298 16.804001 -0.38800001 0.38
-15.381 16.789 -0.389 0.37
-15.436 16.743 -0.389 0.50999999
-15.524 16.733 -0.38999999 0.38999999
-15.589 16.697001 -0.391 0.49000001
-15.662 16.67 -0.39199999 0.40000001
-15.704 16.662001 -0.39199999 0.51999998
-15.779 16.636 -0.39300001 0.38
-15.836 16.591999 -0.39300001 0.62
