# .PCD v0.7 - Point Cloud Data file format
VERSION 0.7
FIELDS x y z intensity
SIZE 4 4 4 4
TYPE F F F F
COUNT 1 1 1 1
WIDTH 1421
HEIGHT 1
VIEWPOINT 0 0 0 1 0 0 0
POINTS 1421
DATA ascii
4.7639999 -1.155 -1.743 0.25
4.7579999 -1.138 -1.739 0.18000001
4.7620001 -1.123 -1.739 0.18000001
4.7779999 -1.119 -1.745 0.17
4.7649999 -1.1 -1.738 0.23999999
4.77 -1.085 -1.739 0.20999999
4.7849998 -1.073 -1.743 0.12
4.7750001 -1.0549999 -1.738 0.19
4.7750001 -1.039 -1.737 0.11
4.7870002 -1.026 -1.74 0.20999999
4.7820001 -1.017 -1.738 0.11
4.783 -1.002 -1.737 0.2
4.7969999 -0.98900002 -1.7410001 0.11
4.7839999 -0.97000003 -1.735 0.2
4.7940001 -0.95700002 -1.738 0.11
4.802 -0.94300002 -1.74 0.19
4.7979999 -0.926 -1.737 0.11
4.803 -0.92000002 -1.738 0.20999999
4.8130002 -0.90600002 -1.7410001 0.11
4.8049998 -0.889 -1.737 0.17
4.8039999 -0.87300003 -1.735 0.22
4.8270001 -0.86199999 -1.743 0.19
4.802 -0.84100002 -1.733 0.11
4.803 -0.82599998 -1.732 0.2
4.8119998 -0.81999999 -1.735 0.11
4.8270001 -0.80699998 -1.74 0.17
4.802 -0.787 -1.729 0.050000001
4.829 -0.77600002 -1.738 0.18000001
4.816 -0.75800002 -1.733 0.2
4.8150001 -0.74299997 -1.7309999 0.090000004
4.855 -0.741 -1.7460001 0.17
4.8179998 -0.72000003 -1.7309999 0.20999999
4.8299999 -0.70599997 -1.735 0.1
4.8210001 -0.68900001 -1.73 0.19
4.829 -0.67500001 -1.733 0.2
4.8309999 -0.66000003 -1.733 0.090000004
4.849 -0.64700001 -1.739 0.18000001
4.8340001 -0.63700002 -1.733 0.22
4.8379998 -0.62199998 -1.733 0.1
4.849 -0.60799998 -1.737 0.18000001
4.8299999 -0.58999997 -1.729 0.19
4.8390002 -0.57599998 -1.732 0.1
4.849 -0.56199998 -1.735 0.19
4.8369999 -0.54500002 -1.73 0.2
4.8439999 -0.53799999 -1.732 0.090000004
4.8639998 -0.52499998 -1.739 0.18000001
4.8429999 -0.50700003 -1.73 0.20999999
4.8509998 -0.493 -1.733 0.1
4.8540001 -0.477 -1.733 0.20999999
4.842 -0.461 -1.728 0.11
4.8509998 -0.44600001 -1.7309999 0.2
4.8579998 -0.43900001 -1.733 0.11
4.8629999 -0.42399999 -1.735 0.18000001
4.8449998 -0.40700001 -1.728 0.20999999
4.8629999 -0.39399999 -1.734 0.19
4.8520002 -0.377 -1.729 0.23
4.862 -0.36300001 -1.733 0.19
4.8649998 -0.34799999 -1.733 0.23999999
4.8559999 -0.33899999 -1.73 0.18000001
4.8520002 -0.324 -1.728 0.25
4.869 -0.31 -1.734 0.18000001
4.8520002 -0.29300001 -1.727 0.23999999
4.8540001 -0.278 -1.728 0.23
4.855 -0.26300001 -1.728 0.2
4.8499999 -0.255 -1.725 0.13
4.8470001 -0.23899999 -1.724 0.20999999
4.8629999 -0.22499999 -1.73 0.2
4.8559999 -0.20900001 -1.727 0.23
4.8590002 -0.19400001 -1.728 0.22
4.8629999 -0.17900001 -1.729 0.2
4.8579998 -0.163 -1.727 0.25
4.8639998 -0.156 -1.729 0.23
4.8530002 -0.14 -1.725 0.19
4.8610001 -0.125 -1.728 0.25999999
4.8629999 -0.11 -1.728 0.23
4.8600001 -0.094999999 -1.727 0.19
4.8600001 -0.079000004 -1.727 0.27000001
4.862 -0.064000003 -1.728 0.23999999
4.8579998 -0.057 -1.726 0.2
4.855 -0.041000001 -1.725 0.27000001
4.8569999 -0.026000001 -1.725 0.25
4.8699999 -0.011 -1.73 0.2
4.7179999 0.0020000001 -1.723 0.30000001
4.7309999 0.017000001 -1.728 0.28999999
4.7290001 0.032000002 -1.728 0.27000001
4.7290001 0.046 -1.728 0.28999999
4.75 0.061999999 -1.7359999 0.25
4.7210002 0.075999998 -1.725 0.30000001
4.7290001 0.083999999 -1.728 0.27000001
4.7249999 0.097999997 -1.726 0.28999999
4.7449999 0.114 -1.734 0.25999999
4.7220001 0.12800001 -1.726 0.18000001
4.724 0.14300001 -1.726 0.28999999
4.71 0.15700001 -1.721 0.25
4.724 0.17299999 -1.727 0.27000001
4.7189999 0.18000001 -1.725 0.27000001
4.7350001 0.19499999 -1.7309999 0.25
4.7150002 0.20900001 -1.724 0.28
4.698 0.223 -1.7180001 0.17
4.7160001 0.23899999 -1.725 0.30000001
4.704 0.25299999 -1.72 0.25
4.7069998 0.26800001 -1.722 0.27000001
4.7140002 0.27599999 -1.725 0.28
4.6890001 0.289 -1.715 0.16
4.7179999 0.30599999 -1.727 0.28999999
4.6999998 0.31999999 -1.72 0.25
4.6929998 0.33399999 -1.7180001 0.16
4.7150002 0.35100001 -1.727 0.28999999
4.7189999 0.366 -1.729 0.23
4.6939998 0.37099999 -1.72 0.15000001
4.7010002 0.38699999 -1.723 0.30000001
4.6939998 0.40099999 -1.72 0.23999999
4.6869998 0.41499999 -1.7180001 0.18000001
4.7080002 0.43200001 -1.727 0.25999999
4.6950002 0.44600001 -1.723 0.22
4.6939998 0.46000001 -1.723 0.25
4.6989999 0.46799999 -1.725 0.17
4.697 0.48300001 -1.725 0.27000001
4.6989999 0.498 -1.726 0.23999999
4.6919999 0.51200002 -1.724 0.19
4.6939998 0.528 -1.726 0.28
4.691 0.542 -1.725 0.23
4.684 0.54900002 -1.723 0.16
4.6989999 0.56599998 -1.729 0.27000001
4.6989999 0.58099997 -1.73 0.2
4.6919999 0.59500003 -1.728 0.12
4.6849999 0.60900003 -1.726 0.20999999
4.6859999 0.62400001 -1.727 0.18000001
4.6939998 0.63999999 -1.7309999 0.25999999
4.698 0.648 -1.733 0.2
4.6810002 0.66100001 -1.727 0.23
4.677 0.67500001 -1.726 0.18000001
4.6789999 0.69 -1.728 0.13
4.684 0.70599997 -1.7309999 0.2
4.6929998 0.72299999 -1.735 0.2
4.6890001 0.73699999 -1.734 0.23999999
4.697 0.74599999 -1.738 0.22
4.6849999 0.759 -1.734 0.12
4.664 0.77100003 -1.727 0.18000001
4.6690001 0.787 -1.73 0.12
4.6690001 0.80199999 -1.7309999 0.18000001
4.677 0.81800002 -1.735 0.23
4.6539998 0.829 -1.727 0.18000001
4.6550002 0.83700001 -1.728 0.25
4.6560001 0.852 -1.729 0.14
4.6599998 0.86799997 -1.732 0.27000001
4.6539998 0.88200003 -1.7309999 0.18000001
4.6490002 0.89600003 -1.73 0.23
4.6560001 0.91299999 -1.734 0.2
4.6420002 0.92500001 -1.729 0.12
4.6350002 0.93099999 -1.727 0.039999999
4.6339998 0.94599998 -1.728 0.12
4.6360002 0.96200001 -1.73 0.12
4.6149998 0.97299999 -1.723 0.2
4.6269999 0.99000001 -1.728 0.15000001
4.6230001 1.005 -1.728 0.28999999
4.6350002 1.023 -1.734 0.20999999
4.6259999 1.028 -1.7309999 0.2
4.6149998 1.041 -1.728 0.23999999
4.619 1.057 -1.7309999 0.2
4.605 1.069 -1.727 0.23
4.6040001 1.084 -1.728 0.22
4.5999999 1.099 -1.728 0.19
4.5970001 1.105 -1.727 0.25999999
4.5949998 1.12 -1.728 0.23
4.586 1.133 -1.726 0.18000001
4.6020002 1.153 -1.734 0.27000001
4.5840001 1.164 -1.728 0.23999999
4.5749998 1.177 -1.726 0.2
4.5749998 1.192 -1.727 0.25999999
4.5619998 1.196 -1.723 0.23
4.5749998 1.215 -1.729 0.27000001
4.5640001 1.227 -1.726 0.28
4.5700002 1.245 -1.7309999 0.25
4.5669999 1.2589999 -1.7309999 0.25
4.552 1.27 -1.726 0.28999999
4.5500002 1.285 -1.727 0.25999999
4.5479999 1.2920001 -1.727 0.27000001
4.5380001 1.3049999 -1.725 0.28999999
4.5359998 1.3200001 -1.726 0.27000001
4.5510001 1.34 -1.734 0.25
4.52 1.346 -1.723 0.28
4.5409999 1.368 -1.733 0.30000001
4.5149999 1.375 -1.724 0.30000001
4.5359998 1.39 -1.734 0.27000001
4.5120001 1.398 -1.726 0.30000001
4.5310001 1.419 -1.735 0.27000001
4.5029998 1.426 -1.726 0.31999999
4.5110002 1.444 -1.7309999 0.27000001
4.5009999 1.457 -1.728 0.30000001
4.5040002 1.473 -1.7309999 0.28999999
4.4959998 1.479 -1.729 0.28999999
4.5 1.4960001 -1.733 0.27000001
4.4819999 1.505 -1.727 0.30000001
4.4819999 1.521 -1.729 0.31
4.4720001 1.533 -1.727 0.30000001
4.46 1.545 -1.724 0.27000001
4.4660001 1.562 -1.728 0.34
4.4699998 1.572 -1.7309999 0.28999999
4.4510002 1.581 -1.726 0.31999999
4.4590001 1.599 -1.7309999 0.27000001
4.4450002 1.61 -1.727 0.27000001
4.4499998 1.628 -1.7309999 0.30000001
4.4380002 1.6390001 -1.728 0.30000001
4.4299998 1.652 -1.727 0.28
4.4250002 1.658 -1.726 0.31999999
4.4299998 1.676 -1.7309999 0.28999999
4.4229999 1.689 -1.73 0.27000001
4.415 1.702 -1.728 0.28999999
4.408 1.715 -1.728 0.30000001
4.4089999 1.732 -1.7309999 0.30000001
4.4099998 1.74 -1.732 0.30000001
4.401 1.752 -1.7309999 0.27000001
4.402 1.7690001 -1.734 0.34999999
4.3930001 1.781 -1.732 0.31999999
4.3699999 1.788 -1.725 0.27000001
4.3920002 1.813 -1.7359999 0.34
4.362 1.817 -1.726 0.28999999
4.3660002 1.827 -1.729 0.34
4.3569999 1.839 -1.728 0.33000001
4.3449998 1.85 -1.725 0.28999999
4.3410001 1.864 -1.726 0.31999999
4.348 1.8839999 -1.7309999 0.31
4.3270001 1.891 -1.725 0.31
4.3189998 1.903 -1.724 0.30000001
4.316 1.91 -1.724 0.31
4.2930002 1.916 -1.717 0.30000001
4.2620001 1.918 -1.706 0.31
4.2410002 1.924 -1.699 0.31999999
4.1960001 1.92 -1.683 0.28
4.1799998 1.928 -1.678 0.33000001
4.1620002 1.936 -1.673 0.28999999
4.1370001 1.932 -1.664 0.31999999
4.1040001 1.932 -1.652 0.28999999
4.0879998 1.9400001 -1.648 0.31
4.053 1.939 -1.635 0.28999999
4.027 1.942 -1.627 0.31
4.0040002 1.946 -1.619 0.30000001
3.964 1.942 -1.605 0.30000001
3.9430001 1.939 -1.597 0.23999999
3.9349999 1.951 -1.596 0.28999999
3.908 1.952 -1.587 0.30000001
3.8900001 1.9579999 -1.582 0.31
3.9000001 1.979 -1.589 0.34
3.881 1.985 -1.5829999 0.27000001
3.8859999 1.995 -1.587 0.31999999
3.8840001 2.01 -1.589 0.28
3.8699999 2.0179999 -1.585 0.28999999
3.872 2.0339999 -1.589 0.28999999
3.8599999 2.0439999 -1.587 0.30000001
3.839 2.0480001 -1.58 0.25999999
3.8540001 2.0710001 -1.59 0.33000001
3.8440001 2.0739999 -1.587 0.30000001
3.8440001 2.0899999 -1.59 0.23
3.8959999 2.1340001 -1.6160001 0.27000001
3.9059999 2.1559999 -1.623 0.25999999
3.9430001 2.1930001 -1.643 0.40000001
3.9590001 2.2179999 -1.653 0.34
3.997 2.256 -1.673 0.43000001
3.9920001 2.2609999 -1.6720001 0.38999999
3.977 2.2690001 -1.669 0.41
3.9660001 2.28 -1.6670001 0.31
3.9449999 2.2839999 -1.661 0.41
4 2.3329999 -1.689 0.44
3.983 2.3399999 -1.6849999 0.27000001
3.9849999 2.358 -1.689 0.41
3.994 2.372 -1.6950001 0.28999999
3.984 2.3829999 -1.694 0.34999999
3.9319999 2.368 -1.673 0.31999999
3.9260001 2.381 -1.674 0.31
3.921 2.3959999 -1.675 0.28
3.9579999 2.4360001 -1.696 0.31999999
3.9319999 2.428 -1.686 0.34
3.9200001 2.437 -1.683 0.2
3.9289999 2.461 -1.691 0.43000001
3.911 2.4660001 -1.686 0.31
3.908 2.4809999 -1.688 0.23
3.911 2.5009999 -1.694 0.37
3.8900001 2.5050001 -1.688 0.30000001
3.8770001 2.5050001 -1.683 0.28999999
3.891 2.5309999 -1.694 0.41
3.8800001 2.5409999 -1.692 0.33000001
3.8829999 2.5610001 -1.697 0.34999999
3.865 2.5669999 -1.693 0.22
3.8940001 2.6040001 -1.71 0.46000001
3.8570001 2.596 -1.696 0.25
3.845 2.5969999 -1.693 0.31999999
3.8740001 2.635 -1.71 0.34
3.8610001 2.6429999 -1.7079999 0.34999999
3.8429999 2.6489999 -1.704 0.30000001
3.7980001 2.6359999 -1.686 0.25999999
3.7839999 2.6429999 -1.683 0.28999999
3.8 2.6719999 -1.6950001 0.38999999
3.8199999 2.6960001 -1.707 0.30000001
3.793 2.6949999 -1.698 0.30000001
3.7820001 2.704 -1.696 0.30000001
3.789 2.727 -1.704 0.34999999
3.7409999 2.71 -1.6849999 0.31
3.744 2.7309999 -1.691 0.30000001
3.7609999 2.7620001 -1.7029999 0.27000001
3.737 2.753 -1.694 0.23999999
3.733 2.7679999 -1.696 0.30000001
3.763 2.809 -1.715 0.25
3.766 2.8299999 -1.72 0.22
3.7809999 2.8599999 -1.732 0.5
3.7809999 2.878 -1.7359999 0.37
3.7449999 2.8699999 -1.723 0.22
3.78 2.9070001 -1.743 0.20999999
3.767 2.915 -1.7410001 0.58999997
3.7609999 2.9289999 -1.742 0.33000001
3.7650001 2.951 -1.749 0.40000001
3.7409999 2.951 -1.742 0.23999999
3.717 2.9519999 -1.734 0.37
3.674 2.927 -1.715 0.25999999
3.6960001 2.9630001 -1.7309999 0.25999999
3.6860001 2.9749999 -1.7309999 0.20999999
3.6900001 2.997 -1.737 0.38
3.6659999 2.997 -1.73 0.28999999
3.6700001 3.0190001 -1.7359999 0.43000001
3.6659999 3.0350001 -1.739 0.27000001
3.654 3.0350001 -1.7359999 0.33000001
3.622 3.027 -1.724 0.19
3.619 3.0450001 -1.728 0.27000001
3.5999999 3.0469999 -1.723 0.2
3.5929999 3.0610001 -1.724 0.12
3.575 3.0650001 -1.72 0.20999999
3.5669999 3.0780001 -1.72 0.16
3.5910001 3.109 -1.7359999 0.28999999
3.5899999 3.128 -1.74 0.25
3.576 3.135 -1.738 0.25999999
3.569 3.1489999 -1.739 0.25
3.562 3.1630001 -1.7410001 0.27000001
3.5569999 3.1789999 -1.744 0.28999999
3.5639999 3.2049999 -1.752 0.28999999
3.5699999 3.221 -1.758 0.30000001
3.546 3.2190001 -1.751 0.28
3.5420001 3.237 -1.755 0.18000001
3.5320001 3.2479999 -1.755 0.07
3.5369999 3.273 -1.763 0.13
3.4779999 3.2379999 -1.7359999 0.28999999
3.461 3.2420001 -1.733 0.28
3.4679999 3.2590001 -1.739 0.27000001
3.4849999 3.296 -1.7539999 0.28999999
3.45 3.2839999 -1.7410001 0.23999999
3.4560001 3.3099999 -1.75 0.34999999
3.4230001 3.299 -1.737 0.28999999
3.4030001 3.3 -1.732 0.28
3.382 3.3010001 -1.726 0.27000001
3.3859999 3.3150001 -1.7309999 0.28999999
3.322 3.2720001 -1.702 0.25
3.3050001 3.276 -1.698 0.20999999
3.283 3.2739999 -1.691 0.28
3.257 3.2679999 -1.683 0.23
3.3050001 3.339 -1.715 0.25999999
3.3039999 3.358 -1.72 0.31999999
3.2579999 3.322 -1.698 0.2
3.2320001 3.316 -1.689 0.28
3.2049999 3.309 -1.6799999 0.23999999
3.187 3.3110001 -1.675 0.19
3.1619999 3.306 -1.6670001 0.27000001
3.152 3.316 -1.6670001 0.18000001
3.1400001 3.3239999 -1.6670001 0.25
3.1270001 3.3210001 -1.6619999 0.18000001
3.119 3.3340001 -1.664 0.25
3.0840001 3.316 -1.649 0.22
3.085 3.3380001 -1.656 0.25
3.089 3.3640001 -1.664 0.28999999
3.0650001 3.359 -1.656 0.28999999
3.043 3.346 -1.647 0.28999999
3.03 3.352 -1.646 0.27000001
3 3.339 -1.6339999 0.28
2.973 3.3310001 -1.624 0.28
2.9619999 3.339 -1.624 0.28
2.9349999 3.3299999 -1.614 0.28
2.9130001 3.325 -1.607 0.30000001
2.8989999 3.319 -1.602 0.20999999
2.875 3.313 -1.594 0.059999999
2.855 3.3110001 -1.5880001 0
2.8529999 3.3299999 -1.5930001 0
2.835 3.3299999 -1.589 0
2.836 3.352 -1.595 0
3.0480001 3.641 -1.735 0.090000004
3.069 3.7130001 -1.762 0.46000001
3.0439999 3.707 -1.7539999 0.28
3.0220001 3.7030001 -1.747 0.41
2.9760001 3.671 -1.726 0.30000001
2.964 3.678 -1.726 0.28999999
2.97 3.698 -1.733 0.25999999
2.9530001 3.701 -1.73 0.20999999
2.9489999 3.7190001 -1.734 0.33000001
2.9430001 3.7360001 -1.738 0.27000001
2.9349999 3.7509999 -1.7410001 0.40000001
2.905 3.737 -1.729 0.25
2.881 3.7290001 -1.721 0.27000001
2.8699999 3.7260001 -1.7180001 0.28999999
2.8640001 3.743 -1.721 0.28
2.895 3.8099999 -1.75 0.27000001
2.8900001 3.8280001 -1.7539999 0.31
2.8710001 3.8280001 -1.75 0.5
2.8429999 3.8150001 -1.739 0.30000001
2.8310001 3.823 -1.739 0.28999999
2.813 3.8110001 -1.7309999 0.23
2.793 3.8099999 -1.726 0.22
2.776 3.8110001 -1.722 0.31999999
2.7620001 3.816 -1.72 0.31999999
2.737 3.8069999 -1.712 0.22
2.7190001 3.8080001 -1.7079999 0.27000001
2.651 3.7360001 -1.67 0.34
2.7060001 3.8269999 -1.711 0.23999999
2.7449999 3.9089999 -1.7460001 0.22
2.743 3.9330001 -1.753 0.25999999
2.723 3.931 -1.748 0.31
2.714 3.944 -1.75 0.34999999
2.7060001 3.9579999 -1.753 0.31999999
2.7079999 3.9879999 -1.763 0.28999999
2.71 4.0050001 -1.7690001 0.41
2.6849999 3.9949999 -1.76 0.31
2.6619999 3.9879999 -1.753 0.30000001
2.6489999 3.9960001 -1.753 0.28
2.645 4.0170002 -1.7589999 0.34
2.632 4.0250001 -1.7589999 0.31
2.6270001 4.0450001 -1.7640001 0.33000001
2.6129999 4.0380001 -1.7589999 0.28999999
2.595 4.0359998 -1.755 0.31
2.5840001 4.0479999 -1.756 0.31999999
2.5669999 4.0489998 -1.753 0.31
2.5650001 4.0749998 -1.761 0.31999999
2.553 4.085 -1.762 0.34999999
2.5420001 4.0939999 -1.763 0.31999999
2.536 4.0999999 -1.763 0.38999999
2.52 4.1030002 -1.761 0.25999999
2.51 4.1160002 -1.763 0.23
2.4860001 4.1040001 -1.755 0.34
2.4679999 4.1040001 -1.751 0.38
2.461 4.1209998 -1.755 0.41
2.438 4.1110001 -1.747 0.25
2.444 4.138 -1.758 0.18000001
2.4300001 4.1440001 -1.757 0.43000001
2.4189999 4.1550002 -1.758 0.33000001
2.3989999 4.1490002 -1.752 0.25
2.4030001 4.1880002 -1.766 0.31999999
2.378 4.1739998 -1.757 0.30000001
2.362 4.177 -1.755 0.33000001
2.3659999 4.198 -1.763 0.34
2.3499999 4.2010002 -1.76 0.27000001
2.329 4.1929998 -1.7539999 0.34999999
2.3180001 4.2059999 -1.756 0.31999999
2.302 4.2080002 -1.7539999 0.30000001
2.2820001 4.2020001 -1.748 0.19
2.28 4.2309999 -1.758 0.34
2.2650001 4.2179999 -1.75 0.30000001
2.2420001 4.2069998 -1.742 0.34
2.2290001 4.2140002 -1.742 0.28
2.221 4.2309999 -1.747 0.38
2.2060001 4.2340002 -1.745 0.31999999
2.1949999 4.2459998 -1.747 0.23
2.184 4.2579999 -1.75 0.31
2.1830001 4.2729998 -1.755 0.20999999
2.174 4.2880001 -1.758 0.25
2.171 4.3169999 -1.768 0.34999999
2.155 4.3179998 -1.765 0.28999999
2.131 4.303 -1.756 0.37
2.1129999 4.302 -1.752 0.33000001
2.092 4.2919998 -1.745 0.31999999
2.0899999 4.3049998 -1.75 0.25999999
2.0810001 4.322 -1.7539999 0.23
2.075 4.3449998 -1.761 0.34
2.0739999 4.3779998 -1.773 0.37
2.0380001 4.336 -1.752 0.28999999
2.0179999 4.329 -1.7460001 0.31
2.0079999 4.342 -1.749 0.30000001
1.998 4.3379998 -1.7460001 0.36000001
1.985 4.3460002 -1.747 0.28999999
1.967 4.3439999 -1.743 0.25999999
1.955 4.3530002 -1.744 0.19
1.941 4.3600001 -1.744 0.25999999
1.929 4.369 -1.7460001 0.23
1.913 4.3699999 -1.744 0.23999999
1.914 4.3899999 -1.751 0.30000001
1.9 4.3959999 -1.751 0.30000001
1.898 4.4289999 -1.763 0.30000001
1.885 4.4390001 -1.7640001 0.27000001
1.873 4.4499998 -1.766 0.25
1.859 4.454 -1.765 0.34999999
1.839 4.4460001 -1.76 0.33000001
1.836 4.4580002 -1.763 0.34999999
1.816 4.4499998 -1.758 0.27000001
1.801 4.4520001 -1.756 0.25
1.776 4.4310002 -1.745 0.46000001
1.762 4.4349999 -1.744 0.28999999
1.745 4.434 -1.742 0.33000001
1.747 4.4590001 -1.751 0.31999999
1.734 4.4660001 -1.752 0.25999999
1.711 4.4489999 -1.742 0.31999999
1.702 4.467 -1.747 0.28
1.6950001 4.493 -1.756 0.25999999
1.682 4.5 -1.757 0.34999999
1.664 4.4949999 -1.752 0.23
1.663 4.5149999 -1.76 0.44
1.641 4.4970002 -1.75 0.30000001
1.627 4.5019999 -1.75 0.27000001
1.627 4.5479999 -1.767 0.28
1.602 4.5229998 -1.755 0.23999999
1.594 4.5469999 -1.763 0.36000001
1.577 4.5419998 -1.758 0.28
1.576 4.5640001 -1.766 0.37
1.553 4.5440001 -1.756 0.31999999
1.535 4.5359998 -1.751 0.20999999
1.531 4.5710001 -1.763 0.28
1.512 4.5640001 -1.758 0.25
1.508 4.599 -1.771 0.25
1.492 4.5999999 -1.7690001 0.25
1.488 4.6129999 -1.773 0.31999999
1.469 4.6030002 -1.768 0.27000001
1.455 4.6100001 -1.768 0.23
1.443 4.6209998 -1.771 0.17
1.4299999 4.631 -1.773 0.54000002
1.41 4.618 -1.766 0.38
1.3789999 4.5669999 -1.744 0.28
1.368 4.5560002 -1.739 0.31
1.3559999 4.566 -1.7410001 0.25999999
1.339 4.5630002 -1.738 0.30000001
1.324 4.5640001 -1.7359999 0.28999999
1.318 4.598 -1.749 0.27000001
1.2970001 4.5770001 -1.739 0.30000001
1.278 4.5669999 -1.733 0.28999999
1.275 4.5819998 -1.738 0.28
1.257 4.573 -1.733 0.27000001
1.25 4.6040001 -1.744 0.25
1.245 4.6459999 -1.7589999 0.23999999
1.222 4.6149998 -1.745 0.34
1.207 4.6170001 -1.744 0.28
1.198 4.6459999 -1.755 0.22
1.188 4.6339998 -1.749 0.28999999
1.1720001 4.6339998 -1.747 0.31999999
1.161 4.6500001 -1.752 0.28999999
1.1440001 4.645 -1.749 0.22
1.133 4.665 -1.755 0.41
1.1160001 4.6589999 -1.752 0.28
1.101 4.6609998 -1.751 0.28999999
1.099 4.684 -1.76 0.33000001
1.084 4.6880002 -1.76 0.28
1.066 4.6750002 -1.753 0.27000001
1.051 4.678 -1.753 0.25999999
1.039 4.6919999 -1.758 0.36000001
1.021 4.6810002 -1.752 0.27000001
1.001 4.6589999 -1.742 0.25999999
0.99199998 4.6550002 -1.739 0.25999999
0.98400003 4.6869998 -1.751 0.22
0.97799999 4.7340002 -1.768 0.31999999
0.958 4.7090001 -1.758 0.28
0.93800002 4.691 -1.749 0.25
0.92199999 4.6859999 -1.7460001 0.2
0.917 4.737 -1.765 0.41
0.90799999 4.7329998 -1.763 0.27000001
0.89499998 4.7459998 -1.767 0.41
0.87599999 4.723 -1.757 0.30000001
0.85699999 4.704 -1.748 0.30000001
0.84299999 4.7140002 -1.751 0.33000001
0.829 4.717 -1.751 0.30000001
0.81099999 4.7030001 -1.744 0.18000001
0.79500002 4.6960001 -1.7410001 0.34
0.79299998 4.7319999 -1.755 0.44999999
0.77899998 4.7420001 -1.758 0.34999999
0.76499999 4.75 -1.76 0.28999999
0.73699999 4.664 -1.725 0.28
0.722 4.6630001 -1.723 0.28999999
0.70700002 4.6609998 -1.722 0.28
0.70099998 4.6750002 -1.727 0.28999999
0.685 4.6680002 -1.723 0.28999999
0.67000002 4.6669998 -1.722 0.28
0.65600002 4.6739998 -1.724 0.30000001
0.64200002 4.6799998 -1.726 0.27000001
0.62400001 4.658 -1.716 0.30000001
0.61000001 4.6669998 -1.719 0.23999999
0.60500002 4.6830001 -1.725 0.25
0.59399998 4.7199998 -1.739 0.20999999
0.58200002 4.7420001 -1.747 0.28999999
0.56699997 4.7459998 -1.747 0.18000001
0.551 4.7379999 -1.744 0.33000001
0.537 4.744 -1.745 0.25
0.523 4.7529998 -1.748 0.25
0.51599997 4.7649999 -1.752 0.22
0.50300002 4.783 -1.7589999 0.30000001
0.486 4.7659998 -1.752 0.34
0.46900001 4.7449999 -1.743 0.18000001
0.45300001 4.7360001 -1.739 0.28999999
0.43900001 4.743 -1.7410001 0.23
0.426 4.7719998 -1.752 0.27000001
0.41800001 4.7690001 -1.75 0.23
0.40400001 4.7719998 -1.751 0.20999999
0.38600001 4.7420001 -1.739 0.50999999
0.37200001 4.756 -1.744 0.25999999
0.35299999 4.6989999 -1.721 0.27000001
0.34 4.7249999 -1.7309999 0.27000001
0.32600001 4.7350001 -1.734 0.23999999
0.31999999 4.7620001 -1.744 0.22
0.30500001 4.77 -1.747 0.36000001
0.29100001 4.7779999 -1.75 0.31999999
0.27500001 4.7589998 -1.742 0.31
0.25999999 4.7519999 -1.739 0.27000001
0.245 4.757 -1.7410001 0.31999999
0.229 4.7309999 -1.7309999 0.28
0.221 4.7280002 -1.729 0.31999999
0.207 4.7490001 -1.737 0.23999999
0.192 4.7589998 -1.7410001 0.25999999
0.177 4.7449999 -1.735 0.31999999
0.163 4.7729998 -1.7460001 0.38
0.148 4.7659998 -1.743 0.34999999
0.133 4.7670002 -1.743 0.23999999
0.125 4.7589998 -1.74 0.25
0.11 4.7600002 -1.74 0.28
0.093999997 4.6880002 -1.712 0.25
0.079000004 4.6669998 -1.704 0.28999999
0.064999998 4.6789999 -1.7079999 0.27000001
0.050000001 4.6810002 -1.709 0.31
0.035 4.6830001 -1.71 0.28
0.028000001 4.664 -1.702 0.23
0.013 4.6789999 -1.7079999 0.36000001
-0.0020000001 4.6880002 -1.712 0.28
-0.016000001 4.6880002 -1.712 0.34
-0.030999999 4.664 -1.702 0.33000001
-0.046 4.6810002 -1.709 0.23
-0.061000001 4.7249999 -1.726 0.17
-0.068999998 4.7220001 -1.725 0.31999999
-0.083999999 4.7340002 -1.73 0.23
-0.097999997 4.71 -1.72 0.16
-0.113 4.7259998 -1.727 0.31999999
-0.12800001 4.73 -1.728 0.47
-0.14300001 4.7160001 -1.723 0.31
-0.15700001 4.7080002 -1.72 0.31
-0.16500001 4.7189999 -1.725 0.28
-0.18000001 4.7199998 -1.726 0.19
-0.19499999 4.7350001 -1.7309999 0.28999999
-0.20900001 4.717 -1.725 0.23
-0.226 4.7459998 -1.7359999 0.23
-0.23999999 4.7350001 -1.732 0.34
-0.25400001 4.717 -1.726 0.28999999
-0.26100001 4.717 -1.726 0.27000001
-0.27500001 4.7010002 -1.72 0.25
-0.29100001 4.7129998 -1.725 0.25999999
-0.30599999 4.723 -1.729 0.2
-0.324 4.7540002 -1.742 0.28
-0.33700001 4.7360001 -1.735 0.36000001
-0.352 4.737 -1.7359999 0.34999999
-0.36500001 4.71 -1.726 0.37
-0.37 4.6849999 -1.716 0.28999999
-0.384 4.6690001 -1.71 0.23
-0.40200001 4.7090001 -1.726 0.19
-0.419 4.7259998 -1.734 0.31999999
-0.43399999 4.7319999 -1.7359999 0.41
-0.44999999 4.7379999 -1.739 0.23999999
-0.45899999 4.756 -1.747 0.38999999
-0.47400001 4.7540002 -1.747 0.36000001
-0.48800001 4.7470002 -1.744 0.28999999
-0.50199997 4.7329998 -1.739 0.2
-0.51599997 4.7220001 -1.7359999 0.31
-0.528 4.698 -1.727 0.25
-0.54100001 4.6799998 -1.72 0.25
-0.546 4.6599998 -1.7130001 0.30000001
-0.55900002 4.651 -1.71 0.28
-0.57300001 4.638 -1.706 0.27000001
-0.58899999 4.651 -1.712 0.27000001
-0.60299999 4.6440001 -1.71 0.27000001
-0.62099999 4.664 -1.7180001 0.27000001
-0.634 4.651 -1.714 0.28999999
-0.64200002 4.6539998 -1.715 0.25999999
-0.65399998 4.6389999 -1.71 0.18000001
-0.67000002 4.6420002 -1.712 0.28999999
-0.68900001 4.6680002 -1.723 0.22
-0.70599997 4.6859999 -1.7309999 0.22
-0.72100002 4.684 -1.7309999 0.38
-0.73199999 4.6570001 -1.722 0.20999999
-0.75 4.677 -1.7309999 0.19
-0.75800002 4.6810002 -1.733 0.41
-0.77499998 4.6880002 -1.7359999 0.41999999
-0.78399998 4.6550002 -1.724 0.34
-0.79400003 4.6259999 -1.714 0.27000001
-0.81099999 4.6389999 -1.72 0.28999999
-0.824 4.625 -1.715 0.18000001
-0.82800001 4.6069999 -1.709 0.31999999
-0.84100002 4.5949998 -1.705 0.41999999
-0.85699999 4.5999999 -1.7079999 0.38999999
-0.87099999 4.599 -1.709 0.28999999
-0.889 4.6110001 -1.715 0.27000001
-0.91000003 4.6409998 -1.728 0.25999999
-0.92299998 4.6329999 -1.726 0.20999999
-0.92799997 4.6199999 -1.721 0.38999999
-0.94400001 4.6230001 -1.723 0.37
-0.96100003 4.631 -1.728 0.47
-0.972 4.6129999 -1.722 0.27000001
-0.98799998 4.6160002 -1.724 0.31999999
-1.001 4.605 -1.721 0.31
-1.01 4.5770001 -1.711 0.25
-1.017 4.5749998 -1.711 0.31999999
-1.029 4.5630002 -1.707 0.28999999
-1.051 4.5939999 -1.721 0.25
-1.068 4.598 -1.724 0.31
-1.081 4.5910001 -1.723 0.27000001
-1.099 4.5999999 -1.728 0.28999999
-1.119 4.6199999 -1.737 0.23
-1.128 4.5929999 -1.728 0.18000001
-1.136 4.5970001 -1.73 0.47
-1.156 4.6129999 -1.738 0.33000001
-1.165 4.5910001 -1.7309999 0.28999999
-1.168 4.5430002 -1.712 0.27000001
-1.184 4.5440001 -1.715 0.34
-1.192 4.5190001 -1.706 0.31
-1.209 4.526 -1.71 0.27000001
-1.216 4.5219998 -1.71 0.25
-1.2309999 4.52 -1.71 0.33000001
-1.242 4.507 -1.707 0.30000001
-1.261 4.52 -1.7130001 0.28999999
-1.273 4.507 -1.71 0.30000001
-1.289 4.5120001 -1.7130001 0.28999999
-1.299 4.5180001 -1.717 0.28
-1.306 4.4889998 -1.707 0.23
-1.34 4.5510001 -1.734 0.34999999
-1.352 4.54 -1.7309999 0.28999999
-1.3609999 4.52 -1.724 0.25999999
-1.375 4.5149999 -1.724 0.25999999
-1.39 4.513 -1.725 0.41
-1.402 4.4990001 -1.721 0.30000001
-1.402 4.4759998 -1.712 0.34
-1.425 4.5 -1.724 0.31999999
-1.432 4.4720001 -1.715 0.30000001
-1.451 4.4860001 -1.722 0.25
-1.466 4.4829998 -1.723 0.23
-1.467 4.4369998 -1.706 0.27000001
-1.479 4.428 -1.704 0.41
-1.493 4.4460001 -1.712 0.31
-1.5140001 4.461 -1.72 0.25
-1.544 4.5019999 -1.739 0.44999999
-1.541 4.4499998 -1.72 0.31
-1.561 4.4619999 -1.727 0.30000001
-1.564 4.428 -1.715 0.33000001
-1.584 4.4380002 -1.721 0.28
-1.5829999 4.4130001 -1.712 0.31999999
-1.599 4.415 -1.715 0.34999999
-1.6160001 4.4190001 -1.7180001 0.34
-1.62 4.388 -1.707 0.31999999
-1.6289999 4.3699999 -1.702 0.23
-1.654 4.3930001 -1.714 0.28999999
-1.66 4.369 -1.706 0.28999999
-1.6619999 4.3540001 -1.701 0.38999999
-1.691 4.3870001 -1.717 0.27000001
-1.688 4.3400002 -1.699 0.23
-1.698 4.3239999 -1.6950001 0.30000001
-1.711 4.3169999 -1.694 0.34999999
-1.742 4.355 -1.712 0.36000001
-1.747 4.329 -1.704 0.30000001
-1.752 4.3210001 -1.702 0.37
-1.762 4.3080001 -1.699 0.28999999
-1.778 4.3080001 -1.701 0.36000001
-1.79 4.2989998 -1.699 0.31999999
-1.802 4.29 -1.698 0.31999999
-1.818 4.289 -1.7 0.31999999
-1.836 4.2940001 -1.704 0.31999999
-1.8430001 4.2909999 -1.704 0.28999999
-1.857 4.2870002 -1.705 0.31999999
-1.872 4.2839999 -1.707 0.30000001
-1.8839999 4.277 -1.706 0.28999999
-1.914 4.3070002 -1.721 0.38
-1.916 4.2750001 -1.71 0.18000001
-1.932 4.2740002 -1.712 0.40000001
-1.9400001 4.2740002 -1.714 0.25
-1.944 4.2480001 -1.705 0.31
-1.946 4.2179999 -1.6950001 0.31999999
-1.965 4.224 -1.7 0.40000001
-1.984 4.23 -1.705 0.30000001
-2 4.23 -1.7079999 0.28999999
-2.0139999 4.224 -1.7079999 0.27000001
-2.016 4.2119999 -1.704 0.25
-2.023 4.1919999 -1.699 0.38
-2.04 4.1939998 -1.702 0.37
-2.0569999 4.1950002 -1.705 0.25
-2.0710001 4.1919999 -1.707 0.44999999
-2.085 4.1869998 -1.707 0.23999999
-2.0880001 4.158 -1.698 0.28999999
-2.0880001 4.1440001 -1.693 0.28999999
-2.105 4.1440001 -1.696 0.41
-2.1270001 4.1550002 -1.704 0.31
-2.138 4.1440001 -1.702 0.28999999
-2.1440001 4.125 -1.696 0.23999999
-2.1630001 4.1279998 -1.701 0.38
-2.1689999 4.1100001 -1.696 0.28999999
-2.177 4.1079998 -1.696 0.27000001
-2.207 4.1339998 -1.711 0.41999999
-2.2149999 4.1170001 -1.707 0.30000001
-2.2190001 4.0939999 -1.699 0.34
-2.2260001 4.0770001 -1.6950001 0.27000001
-2.2360001 4.0650001 -1.693 0.28
-2.2479999 4.0570002 -1.692 0.41
-2.2520001 4.0479999 -1.6900001 0.28999999
-2.276 4.0609999 -1.699 0.30000001
-2.289 4.0549998 -1.699 0.25999999
-2.306 4.0539999 -1.702 0.38999999
-2.3199999 4.0500002 -1.704 0.2
-2.335 4.046 -1.705 0.44
-2.346 4.0359998 -1.704 0.31999999
-2.336 4.0050001 -1.691 0.31999999
-2.3429999 3.9879999 -1.687 0.31999999
-2.365 3.9960001 -1.694 0.33000001
-2.3610001 3.9619999 -1.682 0.27000001
-2.3789999 3.964 -1.686 0.33000001
-2.3889999 3.9519999 -1.684 0.31999999
-2.3959999 3.9360001 -1.6799999 0.31999999
-2.405 3.9360001 -1.682 0.30000001
-2.427 3.944 -1.689 0.31
-2.431 3.924 -1.683 0.31999999
-2.4430001 3.914 -1.683 0.31999999
-2.457 3.9100001 -1.684 0.28999999
-2.4679999 3.901 -1.683 0.34
-2.483 3.8970001 -1.686 0.31
-2.5009999 3.8970001 -1.689 0.25999999
-2.5179999 3.911 -1.697 0.38999999
-2.536 3.9119999 -1.702 0.34
-2.5669999 3.9319999 -1.715 0.34
-2.5610001 3.8959999 -1.702 0.31
-2.576 3.8929999 -1.704 0.34
-2.599 3.9000001 -1.711 0.33000001
-2.5899999 3.8610001 -1.696 0.25999999
-2.5899999 3.848 -1.692 0.34
-2.6010001 3.8380001 -1.691 0.28999999
-2.602 3.8139999 -1.684 0.31999999
-2.609 3.799 -1.6799999 0.31999999
-2.6070001 3.7709999 -1.671 0.27000001
-2.6129999 3.753 -1.6670001 0.27000001
-2.6270001 3.7609999 -1.6720001 0.41
-2.648 3.7650001 -1.678 0.25
-2.7090001 3.826 -1.712 0.34
-2.7090001 3.8010001 -1.704 0.18000001
-2.723 3.796 -1.705 0.34
-2.72 3.766 -1.6950001 0
-2.6589999 3.6589999 -1.647 0
-2.5220001 3.4170001 -1.539 0
-2.5209999 3.392 -1.531 0.02
-2.529 3.381 -1.53 0.12
-2.5409999 3.375 -1.531 0.22
-2.5569999 3.3740001 -1.534 0.23
-2.5680001 3.3659999 -1.534 0.25
-2.5780001 3.368 -1.5369999 0.28999999
-2.6029999 3.3789999 -1.5470001 0.25
-2.615 3.372 -1.5470001 0.28
-2.6400001 3.3829999 -1.557 0.28999999
-2.6570001 3.382 -1.5599999 0.16
-2.6800001 3.3900001 -1.568 0.28999999
-2.701 3.3940001 -1.575 0.16
-2.7130001 3.3970001 -1.579 0.25999999
-2.7290001 3.3959999 -1.582 0.1
-2.74 3.388 -1.582 0
-2.7620001 3.3929999 -1.59 0
-2.7869999 3.402 -1.598 0
-3.2550001 3.164 -1.654 0
-3.2690001 3.1570001 -1.656 0
-3.2939999 3.161 -1.664 0
-3.2920001 3.1389999 -1.6569999 0.029999999
-3.2869999 3.115 -1.649 0
-3.2750001 3.0840001 -1.638 0
-3.3010001 3.099 -1.649 0.050000001
-3.3 3.079 -1.643 0.039999999
-3.335 3.0910001 -1.656 0.07
-3.3180001 3.0569999 -1.643 0.14
-3.3099999 3.03 -1.633 0.23999999
-3.339 3.0369999 -1.643 0.23999999
-3.355 3.033 -1.647 0.23
-3.329 3 -1.631 0.31999999
-3.319 2.973 -1.6210001 0.19
-3.313 2.9489999 -1.613 0.34
-3.359 2.97 -1.632 0.31
-3.3840001 2.973 -1.64 0.36000001
-3.365 2.938 -1.625 0.20999999
-3.3800001 2.9319999 -1.628 0.23
-3.401 2.941 -1.637 0.38
-3.3959999 2.9189999 -1.63 0.36000001
-3.382 2.8889999 -1.618 0.20999999
-3.392 2.878 -1.618 0.34999999
-3.3889999 2.858 -1.612 0.28999999
-3.398 2.8469999 -1.612 0.34
-3.3900001 2.822 -1.603 0.33000001
-3.401 2.823 -1.607 0.25
-3.4449999 2.8399999 -1.624 0.25
-3.4489999 2.826 -1.622 0.30000001
-3.461 2.8180001 -1.624 0.33000001
-3.4719999 2.8080001 -1.624 0.23999999
-3.477 2.7950001 -1.623 0.31999999
-3.483 2.7809999 -1.622 0.27000001
-3.48 2.77 -1.618 0.30000001
-3.49 2.76 -1.619 0.33000001
-3.4920001 2.744 -1.615 0.37
-3.5109999 2.7409999 -1.62 0.30000001
-3.5120001 2.724 -1.6160001 0.30000001
-3.52 2.7130001 -1.6160001 0.31999999
-3.527 2.701 -1.6160001 0.34999999
-3.5350001 2.697 -1.617 0.27000001
-3.5239999 2.6719999 -1.608 0.34
-3.5539999 2.677 -1.619 0.30000001
-3.572 2.6730001 -1.623 0.33000001
-3.5699999 2.654 -1.618 0.34
-3.5829999 2.6459999 -1.62 0.23
-3.5710001 2.6199999 -1.6109999 0.25
-3.5409999 2.5899999 -1.594 0.33000001
-3.5150001 2.5550001 -1.5779999 0.23999999
-3.5569999 2.5669999 -1.594 0.31999999
-3.598 2.5799999 -1.61 0.34999999
-3.6140001 2.5739999 -1.614 0.34
-3.6270001 2.566 -1.6160001 0.31
-3.6240001 2.5469999 -1.6109999 0.34
-3.6229999 2.5380001 -1.608 0.27000001
-3.641 2.533 -1.613 0.43000001
-3.6530001 2.5250001 -1.615 0.28999999
-3.6530001 2.5079999 -1.6109999 0.34
-3.655 2.4920001 -1.608 0.25999999
-3.664 2.4820001 -1.609 0.43000001
-3.677 2.473 -1.6109999 0.25
-3.678 2.4660001 -1.61 0.36000001
-3.6849999 2.454 -1.61 0.34999999
-3.671 2.428 -1.6 0.20999999
-3.691 2.425 -1.6059999 0.46000001
-3.6830001 2.4030001 -1.598 0.33000001
-3.697 2.395 -1.601 0.25
-3.6259999 2.3340001 -1.5650001 0.41
-3.6689999 2.3529999 -1.5829999 0.28
-3.6370001 2.3169999 -1.5650001 0.37
-3.6789999 2.3269999 -1.581 0.23999999
-3.7190001 2.336 -1.596 0.38999999
-3.7349999 2.329 -1.6 0.31
-3.651 2.2620001 -1.558 0.27000001
-3.681 2.2639999 -1.568 0.36000001
-3.7149999 2.277 -1.582 0.33000001
-3.717 2.2620001 -1.58 0.31
-3.737 2.2579999 -1.586 0.23999999
-3.7650001 2.2590001 -1.595 0.36000001
-3.7650001 2.243 -1.592 0.28
-3.8010001 2.2479999 -1.6059999 0.38999999
-3.763 2.21 -1.585 0.31999999
-3.78 2.2119999 -1.591 0.34
-3.7539999 2.181 -1.576 0.34
-3.7850001 2.1830001 -1.587 0.36000001
-3.7920001 2.171 -1.587 0.37
-3.806 2.1630001 -1.59 0.25
-3.8199999 2.1559999 -1.594 0.40000001
-3.803 2.1300001 -1.5829999 0.31
-3.819 2.131 -1.589 0.25999999
-3.823 2.1170001 -1.587 0.28999999
-3.8340001 2.108 -1.59 0.28999999
-3.842 2.0969999 -1.59 0.27000001
-3.8469999 2.0840001 -1.59 0.28999999
-3.865 2.0780001 -1.595 0.28
-3.8699999 2.0650001 -1.594 0.28999999
-3.8699999 2.0569999 -1.592 0.27000001
-3.852 2.0320001 -1.582 0.31
-3.865 2.023 -1.584 0.28999999
-3.878 2.0150001 -1.587 0.23
-3.8989999 2.01 -1.594 0.31999999
-3.915 2.003 -1.598 0.31999999
-3.948 2.0039999 -1.61 0.31999999
-3.9630001 2.003 -1.615 0.28
-3.9960001 2.0039999 -1.627 0.28
-4.0110002 1.9960001 -1.63 0.30000001
-4.0440001 1.9960001 -1.642 0.25999999
-4.0650001 1.9910001 -1.648 0.33000001
-4.098 1.9910001 -1.66 0.28999999
-4.131 1.9910001 -1.6720001 0.28999999
-4.1399999 1.987 -1.674 0.28999999
-4.1690001 1.985 -1.684 0.28999999
-4.191 1.979 -1.691 0.31
-4.2290001 1.98 -1.704 0.31999999
-4.2610002 1.979 -1.715 0.31
-4.2839999 1.973 -1.723 0.33000001
-4.2969999 1.971 -1.727 0.31
-4.336 1.972 -1.7410001 0.27000001
-4.3779998 1.974 -1.756 0.36000001
-4.3699999 1.954 -1.75 0.28999999
-4.3800001 1.942 -1.752 0.31999999
-4.3889999 1.9299999 -1.753 0.31999999
-4.4000001 1.918 -1.755 0.31
-4.3979998 1.901 -1.752 0.30000001
-4.421 1.903 -1.76 0.34
-4.4190001 1.885 -1.757 0.31
-4.4109998 1.865 -1.751 0.30000001
-4.427 1.8559999 -1.755 0.23999999
-4.428 1.84 -1.753 0.25
-4.4349999 1.827 -1.7539999 0
-4.4499998 1.816 -1.758 0
-4.4320002 1.801 -1.749 0
-4.3610001 -2.072 -1.766 0
-4.3660002 -2.0910001 -1.771 0.11
-4.3330002 -2.092 -1.76 0.2
-4.3200002 -2.102 -1.757 0.059999999
-4.3280001 -2.115 -1.762 0.14
-4.3200002 -2.1270001 -1.761 0.12
-4.2979999 -2.1329999 -1.755 0.20999999
-4.3010001 -2.152 -1.7589999 0.25
-4.276 -2.1559999 -1.751 0.28
-4.2789998 -2.175 -1.755 0.28
-4.2639999 -2.184 -1.752 0.31999999
-4.2690001 -2.1949999 -1.755 0.33000001
-4.256 -2.2049999 -1.752 0.28999999
-4.2490001 -2.2179999 -1.752 0.30000001
-4.2399998 -2.23 -1.752 0.31999999
-4.2350001 -2.2449999 -1.752 0.33000001
-4.2389998 -2.2639999 -1.758 0.33000001
-4.2189999 -2.27 -1.752 0.28999999
-4.217 -2.2780001 -1.752 0.34
-4.211 -2.2920001 -1.753 0.28999999
-4.2010002 -2.303 -1.752 0.31
-4.1939998 -2.3169999 -1.752 0.34
-4.1799998 -2.326 -1.749 0.28
-4.177 -2.342 -1.751 0.27000001
-4.1700001 -2.355 -1.751 0.36000001
-4.165 -2.3610001 -1.75 0.30000001
-4.1700001 -2.381 -1.756 0.34
-4.158 -2.391 -1.7539999 0.28
-4.1490002 -2.404 -1.753 0.34999999
-4.1399999 -2.4159999 -1.752 0.31999999
-4.1290002 -2.427 -1.751 0.27000001
-4.1269999 -2.444 -1.7539999 0.34999999
-4.118 -2.4560001 -1.753 0.28
-4.1100001 -2.4590001 -1.751 0.31
-4.1079998 -2.4760001 -1.7539999 0.34
-4.105 -2.4920001 -1.756 0.31
-4.085 -2.497 -1.75 0.28999999
-4.085 -2.5139999 -1.7539999 0.34
-4.0739999 -2.5250001 -1.752 0.33000001
-4.0710001 -2.533 -1.753 0.28999999
-4.0630002 -2.546 -1.753 0.17
-4.046 -2.552 -1.749 0.50999999
-4.0409999 -2.5669999 -1.75 0.31
-4.0419998 -2.586 -1.755 0.34
-4.0180001 -2.5880001 -1.747 0.28999999
-4.0339999 -2.6159999 -1.758 0.33000001
-4.026 -2.6199999 -1.757 0.28999999
-4.0170002 -2.632 -1.756 0.34
-3.997 -2.6370001 -1.751 0.27000001
-3.9909999 -2.651 -1.752 0.31999999
-3.9849999 -2.6659999 -1.753 0.31
-3.9879999 -2.6849999 -1.758 0.33000001
-3.9649999 -2.688 -1.752 0.30000001
-3.96 -2.694 -1.751 0.31999999
-3.954 -2.7079999 -1.752 0.34
-3.9460001 -2.721 -1.752 0.28999999
-3.9389999 -2.734 -1.753 0.33000001
-3.9289999 -2.7449999 -1.752 0.28999999
-3.928 -2.763 -1.756 0.31
-3.9200001 -2.777 -1.757 0.34
-3.901 -2.7720001 -1.75 0.30000001
-3.9089999 -2.796 -1.758 0.33000001
-3.8970001 -2.806 -1.756 0.30000001
-3.8900001 -2.819 -1.757 0.30000001
-3.878 -2.829 -1.755 0.31999999
-3.8610001 -2.836 -1.752 0.28
-3.849 -2.846 -1.75 0.31
-3.848 -2.8540001 -1.752 0.34
-3.836 -2.8640001 -1.75 0.31999999
-3.8310001 -2.8789999 -1.752 0.36000001
-3.793 -2.869 -1.738 0.25
-3.8010001 -2.8940001 -1.747 0.38999999
-3.766 -2.8859999 -1.734 0.30000001
-3.796 -2.9289999 -1.753 0.31999999
-3.7950001 -2.937 -1.755 0.31
-3.793 -2.954 -1.758 0.37
-3.7720001 -2.957 -1.752 0.30000001
-3.6429999 -2.8740001 -1.693 0.28999999
-3.7390001 -2.9690001 -1.745 0.34
-3.5450001 -2.832 -1.653 0.38
-3.7090001 -2.974 -1.737 0.34
-3.6860001 -2.9749999 -1.7309999 0.30000001
-3.6630001 -2.9749999 -1.723 0.34999999
-3.635 -2.971 -1.714 0.33000001
-3.615 -2.974 -1.709 0.34
-3.5840001 -2.967 -1.698 0.31999999
-3.5680001 -2.9719999 -1.694 0.36000001
-3.533 -2.9530001 -1.679 0.27000001
-3.51 -2.9519999 -1.6720001 0.34999999
-3.4920001 -2.9549999 -1.6670001 0.31
-3.473 -2.9579999 -1.6619999 0.31999999
-3.444 -2.9519999 -1.652 0.28999999
-3.4219999 -2.951 -1.646 0.34999999
-3.3989999 -2.95 -1.638 0.31999999
-3.3800001 -2.9430001 -1.631 0.30000001
-3.3789999 -2.961 -1.635 0.30000001
-3.3599999 -2.9630001 -1.63 0.30000001
-3.3469999 -2.97 -1.628 0.25999999
-3.352 -2.994 -1.636 0.34999999
-3.336 -2.9979999 -1.632 0.28999999
-3.3310001 -3.0120001 -1.635 0.38
-3.326 -3.0179999 -1.635 0.31
-3.3080001 -3.02 -1.63 0.30000001
-3.296 -3.0280001 -1.6289999 0.25999999
-3.2869999 -3.039 -1.6289999 0.23
-3.273 -3.0450001 -1.627 0.38
-3.2690001 -3.0599999 -1.63 0.25
-3.2590001 -3.0710001 -1.63 0.28999999
-3.2409999 -3.063 -1.622 0.41
-3.2420001 -3.0829999 -1.628 0.38
-3.2260001 -3.0869999 -1.624 0.28
-3.22 -3.1010001 -1.627 0.28999999
-3.2019999 -3.1029999 -1.622 0.28999999
-3.1989999 -3.1199999 -1.626 0.28999999
-3.1889999 -3.1300001 -1.626 0.28999999
-3.175 -3.1259999 -1.6210001 0.28999999
-3.177 -3.148 -1.627 0.31
-3.165 -3.155 -1.626 0.28
-3.1589999 -3.1689999 -1.628 0.34
-3.152 -3.1830001 -1.63 0.30000001
-3.1400001 -3.1900001 -1.6289999 0.36000001
-3.1210001 -3.191 -1.624 0.27000001
-3.1240001 -3.2030001 -1.628 0.34
-3.1029999 -3.2030001 -1.622 0.30000001
-3.0899999 -3.21 -1.6210001 0.28999999
-3.089 -3.2290001 -1.626 0.23
-3.0780001 -3.237 -1.625 0.31999999
-3.0610001 -3.24 -1.622 0.31999999
-2.9119999 -3.099 -1.5420001 0.25
-2.895 -3.092 -1.535 0.37
-3.0380001 -3.267 -1.623 0.31999999
-3.0420001 -3.2909999 -1.631 0.25999999
-3.02 -3.2880001 -1.624 0.30000001
-3.007 -3.2950001 -1.623 0.28999999
-2.9979999 -3.306 -1.624 0.28999999
-2.9949999 -3.3239999 -1.628 0.25999999
-2.9849999 -3.323 -1.625 0.30000001
-2.973 -3.3310001 -1.624 0.28
-2.9679999 -3.346 -1.627 0.23999999
-2.951 -3.348 -1.624 0.31999999
-2.9430001 -3.3599999 -1.625 0.27000001
-2.944 -3.382 -1.632 0.2
-2.9260001 -3.3829999 -1.627 0.14
-2.9230001 -3.3900001 -1.6289999 0.20999999
-2.9100001 -3.3959999 -1.627 0.11
-2.8929999 -3.398 -1.624 0
-2.8889999 -3.4159999 -1.628 0
-2.878 -3.424 -1.627 0
-2.8599999 -3.424 -1.623 0
-2.8529999 -3.427 -1.622 0
-2.8510001 -3.4460001 -1.627 0
-2.4990001 -3.7920001 -1.654 0
-2.487 -3.8 -1.654 0.050000001
-2.4679999 -3.7969999 -1.649 0.15000001
-2.461 -3.799 -1.648 0.17
-2.451 -3.8099999 -1.65 0.12
-2.4430001 -3.8239999 -1.653 0.28
-2.414 -3.8050001 -1.64 0.23
-2.402 -3.812 -1.64 0.2
-2.381 -3.806 -1.6339999 0.14
-2.0799999 -3.3410001 -1.418 0.15000001
-2.043 -3.2920001 -1.3940001 0.30000001
-2.0239999 -3.2839999 -1.387 0.31
-2.013 -3.2909999 -1.387 0.19
-2.003 -3.2969999 -1.387 0.059999999
-2.0599999 -3.4170001 -1.439 0.12
-2.329 -3.898 -1.654 0.28999999
-2.3150001 -3.902 -1.653 0.28999999
-2.306 -3.901 -1.651 0.27000001
-2.296 -3.9119999 -1.652 0.27000001
-2.286 -3.924 -1.654 0.28999999
-2.27 -3.9230001 -1.651 0.28999999
-2.2539999 -3.9230001 -1.648 0.23999999
-2.145 -3.76 -1.571 0.28
-2.098 -3.7030001 -1.543 0.38999999
-2.1029999 -3.7260001 -1.552 0.31999999
-2.085 -3.721 -1.5470001 0.44
-2.0450001 -3.675 -1.523 0.23999999
-2.0380001 -3.6900001 -1.527 0.38
-2.131 -3.892 -1.614 0.33000001
-2.1029999 -3.869 -1.6 0.23
-2.102 -3.8970001 -1.61 0.34999999
-2.0739999 -3.8570001 -1.591 0.28
-2.0309999 -3.806 -1.566 0.44
-2.023 -3.819 -1.568 0.25
-2.006 -3.8169999 -1.5650001 0.30000001
-1.975 -3.7850001 -1.548 0.28
-1.941 -3.7479999 -1.529 0.38999999
-1.9400001 -3.776 -1.539 0.36000001
-1.9529999 -3.8150001 -1.5549999 0.38999999
-1.995 -3.9300001 -1.602 0.28999999
-2.0109999 -3.9949999 -1.627 0.25999999
-2.0109999 -4.026 -1.638 0.27000001
-1.957 -3.947 -1.601 0.22
-1.84 -3.7379999 -1.508 0.28999999
-1.83 -3.747 -1.51 0.41
-1.909 -3.927 -1.586 0.31
-1.971 -4.0890002 -1.654 0.30000001
-1.9170001 -4.0079999 -1.6160001 0.27000001
-1.921 -4.0510001 -1.632 0.25
-1.8609999 -3.954 -1.587 0.23999999
-1.765 -3.779 -1.51 0.23
-1.851 -3.9990001 -1.602 0.31
-1.776 -3.8499999 -1.536 0.22
-1.885 -4.1240001 -1.651 0.25
-1.872 -4.1290002 -1.651 0.30000001
-1.848 -4.1110001 -1.641 0.25999999
-1.749 -3.921 -1.558 0.30000001
-1.827 -4.1350002 -1.646 0.25999999
-1.802 -4.112 -1.6339999 0.22
-1.83 -4.1950002 -1.668 0.34
-1.809 -4.1830001 -1.661 0.28
-1.788 -4.1700001 -1.653 0.31
-1.753 -4.1230001 -1.63 0.25999999
-1.751 -4.1539998 -1.641 0.30000001
-1.745 -4.177 -1.648 0.28999999
-1.755 -4.2410002 -1.673 0.28999999
-1.75 -4.2449999 -1.674 0.30000001
-1.735 -4.2470002 -1.6720001 0.28999999
-1.719 -4.2459998 -1.67 0.30000001
-1.7029999 -4.244 -1.6670001 0.28
-1.693 -4.2600002 -1.671 0.28999999
-1.677 -4.257 -1.6670001 0.30000001
-1.676 -4.2750001 -1.674 0.33000001
-1.6619999 -4.2779999 -1.673 0.31
-1.648 -4.2820001 -1.6720001 0.27000001
-1.632 -4.2820001 -1.67 0.31999999
-1.628 -4.3109999 -1.6799999 0.30000001
-1.603 -4.2870002 -1.668 0.27000001
-1.597 -4.3109999 -1.676 0.30000001
-1.591 -4.3169999 -1.678 0.31999999
-1.5779999 -4.322 -1.678 0.30000001
-1.561 -4.3179998 -1.674 0.31
-1.553 -4.3369999 -1.6799999 0.31
-1.533 -4.3260002 -1.673 0.25999999
-1.522 -4.3379998 -1.676 0.31999999
-1.508 -4.3410001 -1.675 0.28
-1.506 -4.3569999 -1.681 0.34
-1.49 -4.3569999 -1.679 0.28999999
-1.48 -4.3699999 -1.683 0.30000001
-1.4680001 -4.382 -1.686 0.34
-1.447 -4.3629999 -1.676 0.31999999
-1.401 -4.2670002 -1.635 0.2
-1.421 -4.3779998 -1.678 0.28999999
-1.415 -4.382 -1.679 0.30000001
-1.402 -4.3899999 -1.6799999 0.31
-1.386 -4.3870001 -1.678 0.28
-1.378 -4.4089999 -1.6849999 0.31
-1.363 -4.408 -1.683 0.28999999
-1.353 -4.4289999 -1.689 0.31999999
-1.335 -4.4169998 -1.683 0.33000001
-1.3200001 -4.3920002 -1.6720001 0.28999999
-1.296 -4.3600001 -1.6569999 0.25
-1.302 -4.434 -1.686 0.28999999
-1.283 -4.4190001 -1.678 0.17
-1.266 -4.4120002 -1.673 0.31
-1.228 -4.3299999 -1.638 0.20999999
-1.242 -4.4359999 -1.6799999 0.28
-1.238 -4.4489999 -1.684 0.31999999
-1.229 -4.4689999 -1.691 0.31999999
-1.2130001 -4.4650002 -1.688 0.30000001
-1.201 -4.4759998 -1.691 0.30000001
-1.184 -4.4689999 -1.686 0.28999999
-1.17 -4.4749999 -1.687 0.27000001
-1.166 -4.487 -1.691 0.34
-1.153 -4.4949999 -1.693 0.30000001
-1.138 -4.4959998 -1.692 0.31999999
-1.12 -4.4819999 -1.6849999 0.30000001
-1.108 -4.4959998 -1.689 0.23
-1.092 -4.4920001 -1.686 0.38999999
-1.081 -4.507 -1.691 0.31999999
-1.074 -4.5079999 -1.691 0.25999999
-1.059 -4.5100002 -1.6900001 0.37
-1.045 -4.5149999 -1.691 0.30000001
-1.031 -4.5180001 -1.691 0.30000001
-1.017 -4.5219998 -1.691 0.31999999
-1.003 -4.527 -1.691 0.34
-0.98900002 -4.5300002 -1.691 0.33000001
-0.98199999 -4.533 -1.692 0.34
-0.96799999 -4.5359998 -1.692 0.30000001
-0.95200002 -4.5339999 -1.6900001 0.37
-0.93699998 -4.5310001 -1.688 0.28999999
-0.92400002 -4.5409999 -1.691 0.36000001
-0.90799999 -4.5349998 -1.687 0.34999999
-0.89499998 -4.5430002 -1.689 0.28
-0.88700002 -4.539 -1.687 0.34999999
-0.87199998 -4.54 -1.686 0.30000001
-0.85900003 -4.5479999 -1.688 0.34999999
-0.847 -4.5619998 -1.693 0.31
-0.83099997 -4.559 -1.691 0.30000001
-0.81599998 -4.5580001 -1.689 0.33000001
-0.80199999 -4.5630002 -1.6900001 0.37
-0.79400003 -4.5560002 -1.687 0.30000001
-0.78100002 -4.5679998 -1.691 0.37
-0.76499999 -4.5609999 -1.687 0.25999999
-0.75300002 -4.5749998 -1.691 0.36000001
-0.73900002 -4.5809999 -1.693 0.34
-0.72299999 -4.572 -1.688 0.30000001
-0.70899999 -4.5760002 -1.689 0.31999999
-0.70099998 -4.572 -1.687 0.28999999
-0.68699998 -4.579 -1.689 0.28999999
-0.67299998 -4.5799999 -1.688 0.31999999
-0.65899998 -4.5910001 -1.692 0.41999999
-0.64300001 -4.5749998 -1.6849999 0.31
-0.62900001 -4.586 -1.688 0.31999999
-0.62300003 -4.5939999 -1.691 0.41
-0.60699999 -4.5809999 -1.686 0.37
-0.59399998 -4.598 -1.691 0.34
-0.57999998 -4.5999999 -1.691 0.43000001
-0.565 -4.5999999 -1.691 0.31999999
-0.551 -4.605 -1.692 0.34
-0.53799999 -4.6160002 -1.696 0.33000001
-0.52999997 -4.612 -1.694 0.37
-0.51499999 -4.6059999 -1.691 0.28999999
-0.50099999 -4.6129999 -1.693 0.37
-0.48500001 -4.605 -1.689 0.31999999
-0.472 -4.618 -1.694 0.25999999
-0.458 -4.6300001 -1.698 0.38999999
-0.44299999 -4.6230001 -1.694 0.33000001
-0.43599999 -4.6230001 -1.694 0.33000001
-0.42300001 -4.6469998 -1.7029999 0.37
-0.40799999 -4.6370001 -1.699 0.28999999
-0.39199999 -4.631 -1.696 0.30000001
-0.37900001 -4.645 -1.701 0.37
-0.36199999 -4.6199999 -1.691 0.28999999
-0.34900001 -4.6420002 -1.699 0.36000001
-0.34200001 -4.6420002 -1.699 0.30000001
-0.32699999 -4.638 -1.696 0.30000001
-0.31200001 -4.6279998 -1.692 0.31999999
-0.29800001 -4.6469998 -1.699 0.31
-0.28299999 -4.6370001 -1.6950001 0.30000001
-0.26899999 -4.645 -1.698 0.31
-0.255 -4.652 -1.7 0.34
-0.24699999 -4.6370001 -1.694 0.30000001
-0.23199999 -4.6339998 -1.693 0.31
-0.219 -4.665 -1.704 0.37
-0.20299999 -4.6370001 -1.694 0.30000001
-0.18799999 -4.6459999 -1.696 0.31
-0.17399999 -4.6479998 -1.697 0.31
-0.15899999 -4.6370001 -1.693 0.31
-0.152 -4.6539998 -1.699 0.31999999
-0.138 -4.6620002 -1.702 0.34999999
-0.123 -4.6479998 -1.696 0.27000001
-0.108 -4.652 -1.698 0.37
-0.093999997 -4.6539998 -1.699 0.31999999
-0.079000004 -4.651 -1.697 0.30000001
-0.071999997 -4.645 -1.6950001 0.33000001
-0.057 -4.671 -1.705 0.34
-0.041999999 -4.645 -1.6950001 0.28999999
-0.028000001 -4.651 -1.697 0.34
-0.013 -4.6609998 -1.701 0.31999999
0.001 -4.6659999 -1.7029999 0.37
0.016000001 -4.6529999 -1.698 0.25999999
0.023 -4.6599998 -1.701 0.34999999
0.037999999 -4.6469998 -1.696 0.31
0.052999999 -4.651 -1.697 0.31
0.067000002 -4.6490002 -1.696 0.28
0.082000002 -4.671 -1.705 0.38
0.096000001 -4.652 -1.698 0.25999999
0.111 -4.6440001 -1.6950001 0.28999999
0.118 -4.6440001 -1.6950001 0.34
0.132 -4.6269999 -1.688 0.36000001
0.147 -4.6269999 -1.688 0.31
0.161 -4.6300001 -1.6900001 0.37
0.176 -4.6329999 -1.691 0.41999999
0.191 -4.632 -1.691 0.34
0.205 -4.6339998 -1.692 0.50999999
0.214 -4.6570001 -1.702 0.31999999
0.228 -4.6570001 -1.702 0.27000001
0.242 -4.645 -1.697 0.31999999
0.25799999 -4.6529999 -1.701 0.28999999
0.27200001 -4.645 -1.698 0.36000001
0.28600001 -4.6440001 -1.698 0.23
0.301 -4.6409998 -1.697 0.5
0.308 -4.645 -1.699 0.31999999
0.32300001 -4.6490002 -1.701 0.46000001
0.33899999 -4.6589999 -1.705 0.31
0.35299999 -4.6550002 -1.704 0.31
0.368 -4.6570001 -1.705 0.31
0.382 -4.6500001 -1.7029999 0.31999999
0.398 -4.658 -1.707 0.31
0.405 -4.6539998 -1.705 0.31999999
0.41999999 -4.6570001 -1.707 0.31
0.435 -4.6659999 -1.711 0.34
0.44800001 -4.6500001 -1.705 0.30000001
0.463 -4.652 -1.707 0.2
0.47600001 -4.632 -1.699 0.33000001
0.465 -4.4650002 -1.6339999 0.18000001
0.5 -4.6500001 -1.707 0.31
0.51499999 -4.6539998 -1.71 0.28999999
0.53100002 -4.658 -1.712 0.33000001
0.546 -4.6599998 -1.7130001 0.28999999
0.56 -4.6589999 -1.7130001 0.31
0.57599998 -4.6620002 -1.715 0.34999999
0.58200002 -4.6500001 -1.711 0.31
0.597 -4.6500001 -1.712 0.27000001
0.611 -4.645 -1.71 0.25
0.62800002 -4.6609998 -1.7180001 0.34
0.63999999 -4.6409998 -1.71 0.20999999
0.64499998 -4.5739999 -1.6849999 0.31
0.54900002 -3.835 -1.3940001 0.2
0.67699999 -4.6409998 -1.712 0.2
0.69300002 -4.6459999 -1.715 0.30000001
0.70899999 -4.6570001 -1.72 0.23
0.722 -4.6440001 -1.716 0.23
0.73799998 -4.6490002 -1.719 0
0.74599999 -4.6079998 -1.704 0
0.76599997 -4.6389999 -1.717 0
0.773 -4.6360002 -1.716 0
0.78600001 -4.6220002 -1.712 0
0.801 -4.625 -1.714 0
0.81400001 -4.612 -1.71 0
0.83099997 -4.6220002 -1.715 0
0.847 -4.6279998 -1.7180001 0
0.85699999 -4.6020002 -1.709 0
0.87199998 -4.6389999 -1.724 0
0.88 -4.6069999 -1.712 0
0.90499997 -4.6550002 -1.733 0
0.91399997 -4.6230001 -1.721 0
0.94199997 -4.6880002 -1.748 0.12
0.94599998 -4.6300001 -1.726 0.050000001
0.95499998 -4.605 -1.7180001 0
0.91299999 -4.3740001 -1.626 0
0.96200001 -4.5300002 -1.689 0
0.64700001 -3.04 -1.095 0
2.6359999 -3.902 -1.72 0
2.655 -3.9030001 -1.724 0.02
2.645 -3.8759999 -1.7130001 0.07
2.6559999 -3.8410001 -1.704 0.30000001
2.6789999 -3.848 -1.712 0.25
2.6700001 -3.809 -1.697 0.27000001
2.687 -3.8080001 -1.701 0.25999999
2.7 -3.8010001 -1.702 0.28999999
2.701 -3.789 -1.698 0.28999999
2.724 -3.7969999 -1.706 0.31
