# .PCD v0.7 - Point Cloud Data file format
VERSION 0.7
FIELDS x y z intensity
SIZE 4 4 4 4
TYPE F F F F
COUNT 1 1 1 1
WIDTH 1425
HEIGHT 1
VIEWPOINT 0 0 0 1 0 0 0
POINTS 1425
DATA ascii
8.0439997 16.275999 -0.176 0.19
8.0159998 16.284 -0.175 0.37
7.9530001 16.284 -0.175 0.2
7.8860002 16.275999 -0.17399999 0.2
7.823 16.277 -0.17399999 0.28
7.7659998 16.289 -0.17299999 0.2
7.7049999 16.292 -0.17299999 0.18000001
7.6700001 16.285999 -0.17200001 0.25
7.6079998 16.285999 -0.17200001 0
9.1379995 20.038 -0.257 0
9.1029997 20.128 -0.25799999 0
9.125 20.518999 -0.266 0
13.181 29.733999 -0.477 0
13.077 29.754 -0.47600001 0.12
6.9559999 16.129999 -0.163 0.44
7.026 16.433001 -0.17 0
18.136 42.683998 -0.76700002 0
18.113001 43.002998 -0.773 0
18.165001 43.317001 -0.77999997 0
18.174999 43.724998 -0.78799999 0
18.149 44.053001 -0.79400003 0
13.365 32.75 -0.537 0
13.252 32.765999 -0.53600001 0
13.126 32.751999 -0.53500003 0
13.026 32.798 -0.53500003 0
8.3070002 21.038 -0.26899999 0
18.18 46.382999 -0.83999997 0
18.172001 46.793999 -0.847 0
18.173 47.237 -0.85600001 0
9.4040003 24.944 -0.354 0
9.4250002 25.120001 -0.35699999 0
9.434 25.384001 -0.36300001 0
7.5760002 20.598 -0.255 0
7.5120001 20.622999 -0.255 0
9.4110003 26.069 -0.37599999 0
9.4160004 26.343 -0.382 0
9.4020004 26.566999 -0.38600001 0
9.4519997 26.84 -0.39199999 0
9.4469995 27.098 -0.39700001 0
9.4390001 27.629999 -0.40700001 0
9.427 27.881001 -0.412 0
9.4189997 28.441999 -0.42300001 0
5.1300001 16.118999 -0.15000001 0.38
5.0570002 16.065001 -0.148 0.36000001
5.0009999 16.062 -0.148 0.36000001
4.947 16.068001 -0.147 0.36000001
4.9159999 16.056 -0.147 0.34999999
4.8629999 16.063999 -0.147 0.36000001
4.809 16.068001 -0.147 0.34999999
4.7849998 16.171 -0.149 0.25999999
4.7519999 16.247 -0.15000001 0.61000001
4.6859999 16.208 -0.149 0
13.153 45.865002 -0.79500002 0
13.401 48.742001 -0.85500002 0
13.236 48.740002 -0.85399997 0
4.2129998 16.285999 -0.148 0.20999999
4.1620002 16.299 -0.148 0.2
4.1069999 16.299 -0.147 0.18000001
4.053 16.299999 -0.147 0.31999999
4 16.305 -0.147 0.20999999
3.944 16.298 -0.146 0.17
3.8889999 16.292999 -0.146 0.13
3.862 16.292999 -0.146 0.17
3.806 16.285 -0.146 0.30000001
3.753 16.290001 -0.145 0.27000001
3.6989999 16.291 -0.145 0.27000001
3.645 16.287001 -0.145 0.11
3.5910001 16.287001 -0.145 0.16
6.1360002 27.955999 -0.39500001 0.16
6.0489998 27.975 -0.39500001 0.18000001
5.954 27.965 -0.39399999 0.23
5.8629999 27.968 -0.39399999 0.11
5.1230001 24.84 -0.32699999 0.2
4.2719998 21.066 -0.24600001 0.22
4.1900001 21.003 -0.244 0.19
4.2220001 21.333 -0.25099999 0
4.1030002 21.082001 -0.245 0.1
4.757 24.833 -0.32499999 0.22
4.6719999 24.812 -0.324 0.14
2.9400001 16.222 -0.141 0.68000001
2.9100001 16.351 -0.14300001 0
2.8570001 16.198 -0.14 0
9.4239998 62.765999 -1.126 0
9.2040005 62.640999 -1.122 0
8.9919996 62.567001 -1.12 0
8.8190002 62.761002 -1.124 0
4.1929998 41.095001 -0.66100001 0
4.0619998 41.088001 -0.66100001 0
3.9319999 41.092999 -0.66000003 0.050000001
1.97 21.066999 -0.23899999 0.11
1.898 21.016001 -0.237 0.25999999
1.8200001 20.878 -0.234 0
1.771 21.077 -0.23800001 0
1.124 16.197001 -0.13500001 0.76999998
1.069 16.141001 -0.134 0.44999999
1.015 16.086 -0.133 0.41
0.96399999 16.080999 -0.133 0.34
0.91399997 16.094 -0.133 0.40000001
0.86299998 16.084999 -0.133 0.34
0.838 16.091 -0.133 0.41
0.78799999 16.105 -0.133 0.19
0.75300002 16.433001 -0.14 0.74000001
0.69700003 16.343 -0.138 0
0.63999999 16.224001 -0.13500001 0
1.21 41.106998 -0.65700001 0
1.081 41.112999 -0.65700001 0
0.95200002 41.118 -0.65700001 0.12
0.82200003 41.106998 -0.65700001 0.090000004
0.69300002 41.112999 -0.65700001 0
0.56400001 41.132999 -0.65700001 0
0.52899998 43.445 -0.70599997 0
0.35499999 58.655998 -1.025 0
-0.23999999 27.995001 -0.382 0.34
-0.32800001 28.01 -0.382 0.40000001
-0.41600001 28.013 -0.382 0.43000001
-0.50400001 28.009001 -0.382 0.41
-0.59200001 28.000999 -0.382 0.60000002
-0.51700002 21.014999 -0.236 0.47
-0.77399999 28.243 -0.38699999 0
-0.81099999 27.983999 -0.382 0
-1.028 22.878 -0.27500001 0
-1.2970001 23.181 -0.28200001 0
-1.433 23.021999 -0.27900001 0
-3.684 56.917999 -0.991 0
-1.579 23.028999 -0.27900001 0
-1.738 23.721001 -0.294 0
-3.655 48.182999 -0.80800003 0
-1.825 22.92 -0.27700001 0
-1.904 23.006001 -0.27900001 0
-1.533 16.25 -0.13699999 0.34999999
-1.5829999 16.231001 -0.13699999 0.70999998
-1.648 16.370001 -0.14 0
-3.862 35.324001 -0.54000002 0
-2.4790001 22.264999 -0.26499999 0
-3.8299999 33.550999 -0.50300002 0
-1.238 9.8559999 -0.003 0.27000001
-1.268 9.8459997 -0.003 0.41
-1.3 9.8540001 -0.003 0.12
-1.316 9.8500004 -0.003 0.38
-1.344 9.8299999 -0.003 0.28
-1.376 9.8339996 -0.003 0.43000001
-1.4119999 9.8629999 -0.0040000002 0.20999999
-1.437 9.8190002 -0.003 0.2
-1.472 9.8439999 -0.0040000002 0.41999999
-1.508 9.8730001 -0.0040000002 0.31999999
-1.505 9.7480001 -0.0020000001 0
-1.599 9.9420004 -0.0060000001 0.11
-1.613 9.8339996 -0.0040000002 0.36000001
-1.666 9.9610004 -0.0070000002 0.25
-1.7029999 9.9919996 -0.0070000002 0.43000001
-1.716 9.8760004 -0.0049999999 0.28
-1.7410001 9.9280005 -0.0060000001 0.30000001
-1.7819999 9.9779997 -0.0070000002 0.25999999
-2.0539999 11.315 -0.035999998 0
-2.1070001 11.406 -0.037999999 0.07
-2.1719999 11.559 -0.041999999 0.11
-2.2279999 11.457 -0.039999999 0.5
-2.2509999 11.481 -0.039999999 0
-2.233 11.197 -0.034000002 0
-3.888 19.277 -0.207 0
-2.346 11.215 -0.035 0.30000001
-2.388 11.236 -0.035999998 0.36000001
-2.546 11.804 -0.048 0.23999999
-2.5409999 11.692 -0.046 0.27000001
-2.6210001 11.884 -0.050000001 0.14
-2.638 11.782 -0.048 0.5
-2.5840001 11.367 -0.039000001 0.25
-2.6719999 11.589 -0.044 0.47
-2.6760001 11.441 -0.041000001 0.22
-2.7360001 11.533 -0.043000001 0.2
-2.7509999 11.517 -0.043000001 0.52999997
-2.786 11.503 -0.043000001 0.20999999
-2.839 11.566 -0.045000002 0.30000001
-2.8729999 11.547 -0.044 0.28999999
-4.0539999 16.120001 -0.14300001 0.30000001
-4.1079998 16.121 -0.14399999 0.40000001
-4.164 16.127001 -0.14399999 0.44999999
-4.1869998 16.113001 -0.14399999 0.17
-3.03 11.482 -0.044 0.50999999
-2.99 11.185 -0.037999999 0.20999999
-3.152 11.65 -0.048 0.28999999
-3.2420001 11.835 -0.052000001 0.14
-3.253 11.729 -0.050000001 0.41999999
-3.302 11.763 -0.050999999 0.25
-3.3310001 11.796 -0.052000001 0.23999999
-4.6009998 16.132999 -0.147 0.20999999
-4.6550002 16.129999 -0.147 0.38999999
-4.7090001 16.127001 -0.147 0.38
-4.7639999 16.127001 -0.148 0.41
-4.8200002 16.131001 -0.148 0.44999999
-4.8740001 16.128 -0.148 0.43000001
-4.9060001 16.141001 -0.149 0.18000001
-4.9629998 16.146999 -0.149 0.60000002
-2.7679999 8.868 0.0099999998 0.14
-5.073 16.142 -0.15000001 0.27000001
-5.1259999 16.135 -0.15000001 0.5
-5.1789999 16.127001 -0.15000001 0.30000001
-5.2360001 16.129999 -0.15000001 0.31
-5.27 16.148001 -0.15099999 0.41
-5.3249998 16.143 -0.15099999 0.40000001
-5.3779998 16.132999 -0.15099999 0.33000001
-5.434 16.134001 -0.152 0.50999999
-5.4959998 16.15 -0.153 0.44
-5.552 16.146 -0.153 0.22
-3.846 11.047 -0.039999999 0.23999999
-3.846 10.935 -0.037999999 0.49000001
-5.6880002 16.129 -0.153 0.27000001
-3.891 10.9 -0.037999999 0.36000001
-3.9389999 10.927 -0.037999999 0.30000001
-4.0180001 11.037 -0.041000001 0.34
-3.905 10.618 -0.032000002 0.41
-3.9690001 10.69 -0.034000002 0.22
-3.9330001 10.542 -0.030999999 0.40000001
-3.971 10.542 -0.030999999 0.31
-3.9159999 10.296 -0.026000001 0.34
-3.967 10.334 -0.027000001 0.43000001
-4.0500002 10.452 -0.029999999 0.23
-4.026 10.292 -0.027000001 0.37
-4.0190001 10.179 -0.024 0.34
-4.04 10.186 -0.025 0.33000001
-4.0689998 10.165 -0.024 0.47999999
-4.1589999 10.299 -0.028000001 0.27000001
-4.178 10.251 -0.027000001 0.37
-4.2280002 10.282 -0.028000001 0.31999999
-4.2729998 10.3 -0.028999999 0.46000001
-4.322 10.327 -0.029999999 0.31
-4.3080001 10.249 -0.028000001 0.33000001
-4.322 10.191 -0.027000001 0.30000001
-4.3590002 10.19 -0.027000001 0.44999999
-4.368 10.121 -0.026000001 0.25
-4.4039998 10.118 -0.026000001 0.46000001
-4.5359998 10.334 -0.032000002 0.28999999
-4.5170002 10.202 -0.028999999 0.28
-4.559 10.21 -0.028999999 0.20999999
-4.5669999 10.184 -0.028999999 0.49000001
-4.5669999 10.101 -0.027000001 0.16
-4.5970001 10.081 -0.027000001 0.55000001
-4.7620001 10.359 -0.034000002 0.2
-4.5929999 9.9069996 -0.024 0.25
-4.619 9.8809996 -0.024 0.5
-4.6820002 9.9350004 -0.025 0.23
-4.5370002 9.5860004 -0.017000001 0.27000001
-4.566 9.5699997 -0.017000001 0.47999999
-4.6830001 9.7360001 -0.021 0.28999999
-4.7189999 9.7340002 -0.022 0.30000001
-4.7119999 9.6420002 -0.02 0.25
-4.7950001 9.7349997 -0.022 0.20999999
-4.6810002 9.4630003 -0.016000001 0.43000001
-4.7659998 9.5609999 -0.018999999 0.31999999
-4.8590002 9.6719999 -0.022 0.28999999
-4.9369998 9.7510004 -0.024 0.16
-8.2229996 16.153 -0.175 0.50999999
-5.21 10.134 -0.034000002 0.37
-5.2379999 10.111 -0.034000002 0.18000001
-8.3800001 16.146999 -0.176 0.25
-8.4490004 16.156 -0.177 0.31
-8.5150003 16.157 -0.178 0.50999999
-8.5860004 16.17 -0.17900001 0.47
-5.6079998 10.461 -0.044 0.18000001
-5.559 10.292 -0.039999999 0.30000001
-5.6170001 10.322 -0.041000001 0.38
-5.645 10.295 -0.041000001 0.38
-5.75 10.45 -0.045000002 0.36000001
-5.7979999 10.46 -0.046 0.25999999
-5.8010001 10.387 -0.044 0.38999999
-9.0740004 16.158001 -0.183 0.2
-8.1610003 14.421 -0.142 0.16
-5.8639998 10.271 -0.043000001 0.38999999
-5.8899999 10.242 -0.043000001 0.34
-5.9159999 10.25 -0.043000001 0.51999998
-6.5430002 11.26 -0.068000004 0.17
-6.6960001 11.441 -0.072999999 0.30000001
-6.6750002 11.322 -0.07 0.36000001
-6.7049999 11.292 -0.07 0.36000001
-6.6399999 11.103 -0.066 0.41
-6.6020002 10.96 -0.063000001 0.30000001
-6.5830002 10.89 -0.061999999 0.31999999
-6.665 10.948 -0.064000003 0.40000001
-6.638 10.826 -0.061000001 0.30000001
-6.619 10.718 -0.059 0.34999999
-6.5580001 10.544 -0.055 0.38
-6.5900002 10.522 -0.055 0.31999999
-6.6220002 10.537 -0.056000002 0.28999999
-6.5440001 10.34 -0.050999999 0.20999999
-6.901 10.831 -0.064000003 0.36000001
-6.8309999 10.646 -0.059999999 0.38
-6.9530001 10.763 -0.064000003 0.37
-7.0279999 10.804 -0.064999998 0.34
-7.0250001 10.725 -0.064000003 0.33000001
-7.1139998 10.825 -0.066 0.33000001
-7.1919999 10.869 -0.068000004 0.31999999
-7.1669998 10.758 -0.066 0.28
-7.152 10.662 -0.064000003 0.5
-7.4130001 10.978 -0.072999999 0.25
-7.2979999 10.733 -0.067000002 0.30000001
-7.2649999 10.613 -0.064999998 0.41
-7.3010001 10.629 -0.064999998 0.25
-7.2859998 10.537 -0.064000003 0.43000001
-7.2199998 10.371 -0.059999999 0.25
-7.4660001 10.653 -0.068000004 0.38
-7.375 10.453 -0.063000001 0.23
-7.2950001 10.27 -0.059 0.28
-7.2839999 10.187 -0.057 0.23
-7.3639998 10.231 -0.059 0.44999999
-7.395 10.24 -0.059999999 0.34999999
-7.4099998 10.192 -0.059 0.31999999
-7.4640002 10.2 -0.059999999 0.37
-7.5650001 10.27 -0.061999999 0.23999999
-7.8449998 10.582 -0.071000002 0.22
-7.9070001 10.596 -0.071999997 0.37
-7.9120002 10.534 -0.071000002 0.27000001
-7.9219999 10.512 -0.071000002 0.43000001
-7.9790001 10.519 -0.071999997 0.23
-19.674 25.832001 -0.47600001 0.31999999
-19.694 25.691 -0.47400001 0.43000001
-19.693001 25.521999 -0.47099999 0.27000001
-19.700001 25.365999 -0.46799999 0.36000001
-19.702999 25.205999 -0.46599999 0.36000001
-19.672001 25.084999 -0.463 0.36000001
-19.674 24.926001 -0.461 0.36000001
-19.683001 24.775999 -0.458 0.36000001
-19.686001 24.620001 -0.456 0.37
-19.684 24.459999 -0.45300001 0.36000001
-19.694 24.316 -0.45100001 0.37
-19.707001 24.176001 -0.449 0.37
-19.666 24.048 -0.44600001 0.37
-19.674 23.903999 -0.44400001 0.38
-19.677999 23.756001 -0.442 0.34
-19.686001 23.614 -0.44 0.34999999
-19.695 23.475 -0.43700001 0.36000001
-19.697001 23.327999 -0.435 0.36000001
-19.694 23.176001 -0.433 0.36000001
-19.669001 23.073 -0.43099999 0.37
-19.686001 22.945999 -0.42899999 0.47999999
-19.687 22.802 -0.42699999 0.27000001
-9.5450001 10.964 -0.1 0.34999999
-9.5609999 10.913 -0.098999999 0.38999999
-9.5860004 10.873 -0.098999999 0.36000001
-9.6090002 10.865 -0.098999999 0.47
-9.6800003 10.877 -0.1 0.28
-19.677999 22.01 -0.414 0.38
-19.684 21.878 -0.412 0.38
-19.687 21.743 -0.41 0.38
-19.690001 21.610001 -0.40799999 0.38
-19.695 21.479 -0.40599999 0.40000001
-19.704 21.354 -0.40400001 0.38999999
-19.671 21.250999 -0.40200001 0.38999999
-19.674999 21.122 -0.40000001 0.38999999
-19.681999 20.997 -0.398 0.38999999
-19.681999 20.865 -0.396 0.34
-19.694 20.746 -0.39500001 0.40000001
-19.701 20.624001 -0.39300001 0.34999999
-19.700001 20.492001 -0.391 0.41
-19.672001 20.4 -0.389 0.34999999
-19.683001 20.283001 -0.38800001 0.41
-19.68 20.152 -0.38600001 0.40000001
-19.684 20.031 -0.384 0.34999999
-19.690001 19.91 -0.382 0.41999999
-19.690001 19.785999 -0.38 0.36000001
-19.695999 19.667 -0.37900001 0.44
-19.68 19.59 -0.377 0.46000001
-13.292 13.136 -0.18700001 0.37
-13.245 13.007 -0.184 0.31999999
-13.291 12.971 -0.184 0.34999999
-13.293 12.892 -0.183 0.25
-13.351 12.867 -0.184 0.34
-13.234 12.714 -0.18000001 0.33000001
-13.25 12.649 -0.17900001 0.31
-13.15 12.475 -0.175 0.40000001
-13.072 12.322 -0.17200001 0.31
-13.17 12.337 -0.17299999 0.34999999
-13.289 12.371 -0.176 0.36000001
-13.189 12.2 -0.17200001 0.25
-13.128 12.067 -0.169 0.33000001
-13.199 12.094 -0.17 0.36000001
-13.213 12.031 -0.17 0.5
-13.467 12.186 -0.176 0.37
-13.385 12.035 -0.17200001 0.17
-19.673 17.593 -0.34799999 0.23999999
-19.686001 17.493999 -0.347 0.37
-19.669001 17.423 -0.34599999 0.50999999
-13.362 11.751 -0.168 0.25999999
-13.366 11.68 -0.167 0.41
-13.237 11.493 -0.162 0.34
-13.191 11.381 -0.16 0.37
-19.634001 16.849001 -0.33700001 0.15000001
-19.673 16.722 -0.336 0.34
-19.683001 16.624001 -0.33500001 0.58999997
-19.702 16.534 -0.33399999 0.23
-13.054 10.874 -0.15099999 0.31999999
-13.01 10.768 -0.149 0.38999999
-13.053 10.735 -0.149 0.31999999
-12.926 10.562 -0.145 0.25
-12.947 10.545 -0.145 0.46000001
-12.902 10.442 -0.14300001 0.28
-13.1 10.534 -0.147 0.49000001
-13.556 10.832 -0.15899999 0.25
-13.091 10.392 -0.145 0.25999999
-13.031 10.278 -0.14300001 0.38
-13.06 10.234 -0.14300001 0.36000001
-12.965 10.093 -0.139 0.25
-13.017 10.101 -0.14 0.44
-13.616 10.499 -0.155 0.28999999
-12.993 9.9519997 -0.138 0.23
-12.924 9.835 -0.13500001 0.44999999
-12.967 9.8039999 -0.13600001 0.31
-12.939 9.7189999 -0.134 0.37
-12.994 9.7279997 -0.13500001 0.34
-12.962 9.6409998 -0.134 0.40000001
-12.978 9.5889997 -0.133 0.31
-12.992 9.5369997 -0.133 0.37
-13.099 9.552 -0.13500001 0.34
-13.189 9.5550003 -0.13600001 0.33000001
-13.2 9.4989996 -0.13600001 0.33000001
-13.309 9.5459995 -0.138 0.28999999
-13.382 9.5360003 -0.139 0.41
-13.414 9.4949999 -0.139 0.27000001
-13.529 9.5120001 -0.142 0.49000001
-13.668 9.5469999 -0.14399999 0.23
-13.77 9.5539999 -0.146 0.40000001
-13.884 9.5690002 -0.148 0.28999999
-13.875 9.5299997 -0.148 0.25999999
-22.913 15.653 -0.377 0.31
-22.926001 15.556 -0.37599999 0.41
-22.927 15.452 -0.375 0.41
-22.931999 15.351 -0.37400001 0.41
-22.934 15.248 -0.37200001 0.40000001
-22.93 15.141 -0.37099999 0.38999999
-22.917999 15.082 -0.37 0.38999999
-22.910999 14.974 -0.36899999 0.41
-22.914 14.874 -0.368 0.41
-22.92 14.775 -0.36700001 0.41
-22.919001 14.673 -0.366 0.41
-22.927 14.576 -0.36500001 0.41
-22.933001 14.48 -0.36399999 0.33000001
-22.903999 14.411 -0.36199999 0.43000001
-22.91 14.314 -0.361 0.41
-22.929001 14.226 -0.361 0.38
-23.062 14.209 -0.36300001 0.40000001
-23.419001 14.327 -0.37099999 0.19
-23.285999 14.146 -0.366 0
-23.514999 14.184 -0.37099999 0.11
-23.844 14.332 -0.37799999 0.13
-23.973 14.307 -0.38 0.43000001
-23.908001 14.167 -0.37799999 0
-24.007 14.124 -0.37900001 0
-28.275999 16.521 -0.48199999 0
-25.424999 14.745 -0.41100001 0.07
-25.450001 14.653 -0.41100001 0.23
-25.186001 14.343 -0.403 0.28
-25.271999 14.287 -0.40400001 0.38
-25.334999 14.218 -0.40400001 0.52999997
-25.43 14.166 -0.405 0.23
-25.67 14.195 -0.41 0.20999999
-25.863001 14.196 -0.414 0.36000001
-26.028 14.233 -0.417 0.37
-26.208 14.225 -0.41999999 0.36000001
-26.393 14.219 -0.42399999 0.36000001
-26.58 14.212 -0.42699999 0.34
-26.775 14.208 -0.43000001 0.34
-26.968 14.203 -0.43399999 0.34
-27.165001 14.198 -0.43799999 0.31
-27.347 14.238 -0.44100001 0.49000001
-27.511999 14.215 -0.44400001 0.25
-23.371 11.978 -0.34599999 0.38
-22.777 11.582 -0.331 0.17
-28.41 14.342 -0.46200001 0.37
-22.754 11.391 -0.32800001 0.38
-28.579 14.259 -0.465 0.28
-22.559999 11.161 -0.32300001 0.28999999
-23.028999 11.304 -0.333 0.34
-22.488001 10.95 -0.31900001 0.17
-22.726 10.978 -0.324 0.43000001
-22.711 10.883 -0.32300001 0.22
-22.271 10.585 -0.31200001 0.38
-22.419001 10.613 -0.315 0.31999999
-22.747 10.681 -0.322 0.16
-22.326 10.398 -0.31099999 0.25
-22.422001 10.357 -0.31299999 0.47999999
-31.045 14.233 -0.51099998 0.22
-31.25 14.208 -0.51499999 0.30000001
-31.497 14.201 -0.51899999 0.41999999
-31.695999 14.231 -0.523 0.2
-31.962999 14.231 -0.52899998 0.38999999
-32.215 14.222 -0.53299999 0.23
-27.570999 12.064 -0.426 0.27000001
-27.648001 11.995 -0.42699999 0.27000001
-27.457001 11.809 -0.42199999 0.23999999
-27.490999 11.722 -0.42199999 0.28
-28.212 11.977 -0.43799999 0.11
-26.51 11.155 -0.398 0.38
-26.517 11.06 -0.39700001 0.31
-26.537001 10.971 -0.39700001 0.23999999
-27.153999 11.027 -0.40900001 0.57999998
-28.169001 11.337 -0.43200001 0.22
-28.408001 11.382 -0.43700001 0.30000001
-35.888 14.255 -0.60500002 0.23
-36.18 14.24 -0.61000001 0.30000001
-36.498001 14.233 -0.616 0.36000001
-36.821999 14.227 -0.62300003 0.25999999
-37.166 14.226 -0.62900001 0.22
-37.416 14.187 -0.634 0.34999999
-43.910999 16.576 -0.77899998 0.12
-44.351002 16.583 -0.78799999 0.41999999
-44.736 16.566999 -0.79500002 0.23999999
-45.094002 16.539 -0.80199999 0
-32.181999 11.396 -0.51099998 0
-31.781 11.029 -0.5 0.1
-31.791 10.921 -0.5 0.25
-31.650999 10.761 -0.49599999 0
-31.795 10.699 -0.498 0
-37.226002 11.37 -0.611 0
-76.431 22.587 -1.466 0
-76.324997 22.035 -1.461 0
-40.202999 11.389 -0.671 0
-76.002998 21.297001 -1.45 0
-44.382999 12.125 -0.75999999 0.20999999
-44.127998 11.906 -0.75300002 0.25999999
-44.105 11.752 -0.75199997 0
-43.827999 11.604 -0.74599999 0.14
-43.633999 11.406 -0.741 0.28
-43.873001 11.321 -0.745 0.2
-43.937 11.191 -0.74599999 0.18000001
-43.895 11.033 -0.74400002 0.28999999
-44.012001 10.916 -0.74599999 0.19
-44.160999 10.806 -0.74800003 0
-44.262001 10.757 -0.75 0
-74.804001 17.948999 -1.408 0
-75.064003 17.761999 -1.4119999 0
-75.596001 17.638 -1.423 0.07
-49.349998 11.342 -0.85699999 0.11
-28.289 6.3969998 -0.403 0.38999999
-28.315001 6.309 -0.403 0
-77.393997 17.163 -1.457 0
-52.324001 11.422 -0.91799998 0
-78.181 16.823 -1.472 0
-60.716 12.163 -1.0930001 0
-60.73 10.685 -1.0880001 0
-76.458 13.211 -1.4220001 0
-76.580002 12.984 -1.424 0
-40.005001 6.3829999 -0.64399999 0
-39.988998 6.316 -0.64399999 0
-39.971001 6.1849999 -0.64300001 0
-77.568001 10.658 -1.437 0
-77.487999 10.399 -1.434 0
-76.026001 9.9589996 -1.403 0
-75.926003 9.7030001 -1.4 0
-76.690002 9.5559998 -1.415 0
-61.311001 6.756 -1.0880001 0
-61.346001 6.5650001 -1.089 0
-62.523998 6.3940001 -1.113 0
-79.040001 -2.99 -1.4529999 0
-78.989998 -3.237 -1.4529999 0
-46.764 -3.1789999 -0.778 0
-77.253998 -6.822 -1.421 0
-77.230003 -7.0650001 -1.421 0
-77.225998 -7.309 -1.421 0
-77.046997 -7.414 -1.418 0
-76.931999 -7.6469998 -1.416 0
-77.208 -7.9200001 -1.4220001 0
-26.993999 -2.9579999 -0.36399999 0.28999999
-26.915001 -3.0350001 -0.36300001 0.30000001
-26.872 -3.115 -0.36199999 0.27000001
-26.905001 -3.1619999 -0.36300001 0.36000001
-26.954 -3.253 -0.36399999 0.38
-27.035 -3.349 -0.366 0
-59.049999 -7.473 -1.043 0
-59.154999 -7.6750002 -1.046 0
-58.609001 -7.7919998 -1.035 0
-53.710999 -7.4000001 -0.93199998 0
-53.640999 -7.5630002 -0.93099999 0
-53.623001 -7.7319999 -0.93099999 0
-51.195 -7.5469999 -0.88 0
-50.516998 -7.6100001 -0.866 0
-50.551998 -7.7779999 -0.86699998 0
-50.401001 -7.9169998 -0.86500001 0
-49.983002 -7.9320002 -0.85600001 0
-49.903 -8.0799999 -0.85500002 0
-49.990002 -8.2550001 -0.85699999 0
-49.845001 -8.3920002 -0.85500002 0
-41.252998 -7.0830002 -0.67299998 0
-49.776001 -8.7030001 -0.85399997 0
-49.785999 -8.8660002 -0.85500002 0
-40.771 -7.3309999 -0.66399997 0
-40.766998 -7.4629998 -0.66399997 0
-46.248001 -8.6129999 -0.78100002 0
-46.761002 -8.8599997 -0.79299998 0
-41.007999 -8.04 -0.671 0
-43.212002 -8.6120005 -0.71899998 0
-38.741001 -7.914 -0.62400001 0.12
-38.73 -8.0380001 -0.62400001 0.38999999
-38.736 -8.1669998 -0.625 0.28
-26.059999 -5.5879998 -0.354 0.11
-25.864 -5.632 -0.34999999 0
-26.042 -5.756 -0.354 0
-42.508999 -9.4490004 -0.708 0
-42.381001 -9.5600004 -0.70599997 0
-41.622002 -9.5270004 -0.69 0
-76.071999 -17.642 -1.432 0
-42.373001 -9.9790001 -0.708 0
-42.383999 -10.122 -0.70899999 0
-42.512001 -10.294 -0.71200001 0
-41.558998 -10.133 -0.69199997 0
-39.786999 -9.967 -0.65499997 0
-72.155998 -18.778 -1.358 0.059999999
-72.156998 -19.021 -1.36 0.079999998
-72.172997 -19.146 -1.3609999 0.090000004
-72.171997 -19.389 -1.362 0.14
-72.168999 -19.632 -1.363 0.17
-72.167 -19.875 -1.364 0
-72.168999 -20.118999 -1.3660001 0
-72.140999 -20.356001 -1.367 0
-72.122002 -20.596001 -1.368 0
-72.188004 -20.737 -1.37 0
-72.149002 -20.971001 -1.37 0
-72.160004 -21.221001 -1.372 0
-72.203003 -21.726999 -1.376 0
-72.158997 -21.961 -1.376 0.039999999
-10.02 -3.125 -0.015 0.20999999
-10.017 -3.158 -0.015 0.49000001
-9.9960003 -3.1860001 -0.015 0.31
-27.789 -8.9049997 -0.40700001 0
-76.054001 -24.589001 -1.471 0
-59.484001 -26.534 -1.161 0
-52.574001 -24.653 -1.012 0
-25.490999 -12.115 -0.38699999 0
-25.115999 -12.131 -0.38 0.28
-25.120001 -12.231 -0.38100001 0.25999999
-25.048 -12.293 -0.38 0.20999999
-24.950001 -12.342 -0.37900001 0
-25.052 -12.442 -0.38100001 0
-25.018 -12.523 -0.382 0.059999999
-24.983999 -12.605 -0.382 0
-24.896 -12.757 -0.38100001 0.13
-24.832001 -12.823 -0.38100001 0.20999999
-24.73 -12.869 -0.37900001 0.18000001
-24.797001 -12.953 -0.382 0.13
-25.034 -13.177 -0.38800001 0
-24.690001 -13.095 -0.38100001 0
-25.058001 -13.594 -0.39300001 0
-24.909 -13.666 -0.391 0.27000001
-24.756001 -13.683 -0.38800001 0.090000004
-25.01 -13.926 -0.39500001 0.13
-25.402 -14.249 -0.40599999 0.13
-25.129 -14.2 -0.40000001 0.19
-25.086 -14.279 -0.40000001 0.2
-25.035999 -14.355 -0.40000001 0.30000001
-25.014999 -14.396 -0.40000001 0.2
-25.096001 -14.547 -0.403 0.31
-25.104 -14.657 -0.40400001 0.18000001
-24.959 -14.678 -0.40200001 0.47999999
-25.216 -14.936 -0.40900001 0.1
-24.958 -14.889 -0.40400001 0.11
-25.000999 -14.968 -0.40599999 0
-24.99 -15.068 -0.40700001 0
-25.132999 -15.479 -0.414 0.1
-24.721001 -15.333 -0.405 0
-25.068001 -15.657 -0.41499999 0
-25.056999 -15.705 -0.41499999 0
-24.987 -15.77 -0.414 0
-25.233999 -16.037001 -0.42199999 0
-25.007 -16.004 -0.417 0
-24.976999 -16.094999 -0.41800001 0
-25.122 -16.469 -0.42500001 0
-24.905001 -16.551001 -0.42199999 0.14
-24.834999 -16.617001 -0.421 0.27000001
-24.638 -16.598 -0.41800001 0
-25.059 -16.996 -0.43000001 0
-25.462 -17.386 -0.44100001 0
-11.71 -8.0939999 -0.093000002 0
-11.676 -8.125 -0.093000002 0
-11.647 -8.1590004 -0.093000002 0
-11.703 -8.7580004 -0.101 0
-11.657 -8.7810001 -0.101 0
-10.46 -8.2220001 -0.074000001 0
-11.682 -10.039 -0.118 0
-8.7250004 -7.7729998 -0.039999999 0.47999999
-8.6859999 -7.7870002 -0.039000001 0
-8.6350002 -8.75 -0.052999999 0
-8.6000004 -8.7700005 -0.052000001 0
-7.2449999 -7.7010002 -0.017000001 0.18000001
-7.2329998 -7.737 -0.017000001 0.31999999
-7.2140002 -7.7659998 -0.017000001 0.31999999
-7.3930001 -7.9819999 -0.023 0
-7.1859999 -7.8080001 -0.017000001 0
-8.5410004 -9.5109997 -0.063000001 0
-8.4870005 -9.5109997 -0.061999999 0
-8.4709997 -9.5229998 -0.061999999 0
-8.4440002 -9.552 -0.061999999 0
-8.434 -9.6009998 -0.063000001 0
-7.664 -8.7840004 -0.039000001 0
-7.6100001 -8.7779999 -0.037999999 0
-7.5689998 -8.7869997 -0.037999999 0
-7.5240002 -8.7620001 -0.037 0
-7.4819999 -8.7690001 -0.037 0
-7.4510002 -8.7880001 -0.035999998 0
-7.1420002 -8.6420002 -0.029999999 0.25
-7.138 -8.6660004 -0.029999999 0.34999999
-7.1290002 -8.71 -0.030999999 0.31999999
-7.132 -8.7690001 -0.032000002 0.27000001
-7.1300001 -8.823 -0.033 0.41
-7.0970001 -8.8389997 -0.033 0
-7.0640001 -9.6350002 -0.045000002 0
-7.0910001 -10.03 -0.052000001 0.050000001
-7.0929999 -10.099 -0.054000001 0.16
-7.0770001 -10.144 -0.054000001 0
-7.079 -10.18 -0.055 0
-7.086 -10.26 -0.056000002 0.029999999
-7.0879998 -10.401 -0.059 0.36000001
-7.0650001 -10.437 -0.059 0.13
-16.450001 -24.405001 -0.412 0.18000001
-16.35 -24.422001 -0.41100001 0.25999999
-16.285 -24.407 -0.41 0.11
-16.181999 -24.417999 -0.40900001 0.16
-16.072001 -24.419001 -0.40799999 0.17
-15.958 -24.413 -0.40599999 0.16
-15.837 -24.396 -0.405 0.1
-15.718 -24.379999 -0.403 0.15000001
-15.621 -24.396999 -0.40200001 0.1
-15.548 -24.368 -0.40099999 0.15000001
-15.435 -24.358999 -0.40000001 0.090000004
-15.317 -24.341 -0.398 0.14
-15.218 -24.354 -0.39700001 0.1
-15.111 -24.351999 -0.396 0.15000001
-15.013 -24.365999 -0.39500001 0.1
-14.948 -24.344999 -0.39399999 0.16
-14.853 -24.361 -0.39300001 0.16
-14.76 -24.382 -0.39300001 0.18000001
-14.674 -24.413 -0.39199999 0.17
-14.573 -24.417 -0.391 0.16
-14.476 -24.429001 -0.38999999 0.16
-14.382 -24.445 -0.38999999 0.16
-14.312 -24.414 -0.38800001 0.1
-14.222 -24.436001 -0.38800001 0.14
-14.128 -24.451 -0.38699999 0.20999999
-14.012 -24.427999 -0.38499999 0.25
-13.91 -24.427 -0.384 0.25
-13.8 -24.410999 -0.38299999 0.1
-13.674 -24.367001 -0.38100001 0.16
-13.619 -24.358999 -0.38 0.20999999
-13.538 -24.395 -0.38 0.16
-13.443 -24.403999 -0.37900001 0.23
-13.347 -24.410999 -0.37799999 0.1
-13.238 -24.393 -0.377 0.16
-13.137 -24.389 -0.37599999 0.12
-13.034 -24.381001 -0.375 0.15000001
-12.982 -24.375999 -0.37400001 0.28
-12.881 -24.371 -0.373 0.18000001
-12.775 -24.355 -0.37200001 0.18000001
-12.676 -24.351999 -0.37099999 0.23
-12.553 -24.301001 -0.368 0.23999999
-12.453 -24.296 -0.36700001 0.25
-12.396 -24.278 -0.366 0.25
-12.313 -24.305 -0.366 0.25
-12.227 -24.323999 -0.366 0.27000001
-12.137 -24.334999 -0.36500001 0.11
-12.037 -24.325001 -0.36399999 0.16
-9.6099997 -19.743 -0.255 0.36000001
-9.5620003 -19.723 -0.255 0.38999999
-9.4910002 -19.735001 -0.25400001 0.34
-9.427 -19.76 -0.25400001 0.50999999
-9.4169998 -19.899 -0.257 0.34
-9.4049997 -20.035999 -0.259 0.2
-9.401 -20.191999 -0.26199999 0.44
-9.3800001 -20.313999 -0.264 0.20999999
-9.368 -20.370001 -0.26499999 0.14
-9.2840004 -20.358 -0.264 0.16
-9.2299995 -20.409 -0.26499999 0.28
-9.1599998 -20.424999 -0.264 0.19
-9.0810003 -20.419001 -0.26300001 0.17
-9.0080004 -20.427 -0.26300001 0.17
-8.9370003 -20.441 -0.26300001 0.16
-8.9020004 -20.448999 -0.26300001 0.23
-8.8269997 -20.451 -0.26199999 0.23999999
-8.7539997 -20.459 -0.26199999 0.23999999
-8.6800003 -20.464001 -0.26100001 0.25
-8.5950003 -20.441999 -0.25999999 0.25999999
-8.474 -20.334 -0.257 0.12
-8.4130001 -20.365999 -0.257 0.44999999
-8.3719997 -20.357 -0.25600001 0.19
-8.3140001 -20.4 -0.257 0.17
-8.243 -20.407 -0.25600001 0.16
-8.1680002 -20.407 -0.25600001 0.23
-8.099 -20.42 -0.25600001 0.25999999
-8.0620003 -20.514 -0.257 0.19
-8.0509996 -20.674999 -0.25999999 0.18000001
-8.0710001 -20.823999 -0.26300001 0.34
-8.0159998 -20.877001 -0.264 0.2
-7.9419999 -20.879 -0.26300001 0.23
-7.8639998 -20.872999 -0.26300001 0.18000001
-7.7950001 -20.886 -0.26199999 0.14
-7.7179999 -20.879999 -0.26199999 0.18000001
-7.6539998 -20.908001 -0.26199999 0.31
-7.6069999 -20.882999 -0.26100001 0.2
-7.5289998 -20.872999 -0.25999999 0.18000001
-7.4569998 -20.879 -0.25999999 0.20999999
-7.388 -20.891001 -0.25999999 0.18000001
-7.3189998 -20.907 -0.259 0.17
-7.2470002 -20.909 -0.259 0.16
-7.1690001 -20.898001 -0.25799999 0.090000004
-7.1290002 -20.888 -0.25799999 0.14
-7.053 -20.879999 -0.257 0.1
-6.9819999 -20.885 -0.257 0.16
-6.9120002 -20.893 -0.25600001 0.16
-6.8369999 -20.889 -0.25600001 0.17
-6.7620001 -20.879 -0.255 0.18000001
-6.723 -20.871 -0.255 0.18000001
-6.6500001 -20.868999 -0.25400001 0.18000001
-6.5770001 -20.867001 -0.25400001 0.28
-6.506 -20.868999 -0.25299999 0
-6.454 -20.933001 -0.25400001 0
-2.4000001 -7.9289999 0.030999999 0
-2.3540001 -8.0030003 0.029999999 0
-2.401 -8.7069998 0.016000001 0
-2.375 -8.7200003 0.016000001 0
-1.081 -7.8579998 0.039000001 0
-0.958 -9.5819998 0.003 0
-0.96600002 -9.9729996 -0.0049999999 0
-0.95200002 -10.157 -0.0089999996 0
-1.908 -20.417999 -0.22499999 0
-1.845 -20.43 -0.22499999 0
-1.78 -20.424 -0.22499999 0
-1.715 -20.422001 -0.22499999 0
-1.65 -20.423 -0.22499999 0
-1.586 -20.427999 -0.22499999 0
-1.521 -20.427 -0.22400001 0
-1.489 -20.424999 -0.22400001 0
-1.425 -20.43 -0.22400001 0
-1.36 -20.424 -0.22400001 0
-1.296 -20.436001 -0.22400001 0
-1.232 -20.436001 -0.22400001 0
-1.168 -20.450001 -0.22400001 0
-1.104 -20.445999 -0.22400001 0.050000001
-1.077 -20.559 -0.227 0
-1.034 -20.98 -0.235 0
-0.977 -21.177 -0.23899999 0.1
-1.045 -24.214001 -0.303 0.23
-0.96899998 -24.229 -0.303 0.11
-0.89300001 -24.232 -0.303 0.16
-0.81699997 -24.245001 -0.30399999 0.090000004
-0.78100002 -24.284 -0.30399999 0.14
-0.704 -24.278 -0.30399999 0.1
-0.62699997 -24.266001 -0.30399999 0.14
-0.55000001 -24.205999 -0.303 0.1
-0.472 -24.128 -0.301 0.14
-0.396 -24.099001 -0.30000001 0.23
-0.35699999 -24.077999 -0.30000001 0.25
-0.28200001 -24.073 -0.30000001 0.27000001
-0.206 -24.044001 -0.29899999 0.14
-0.131 -24.087999 -0.30000001 0.28
-0.055 -24.097 -0.30000001 0.19
0.021 -24.115 -0.301 0.28
0.096000001 -24.104 -0.30000001 0.27000001
0.134 -24.106001 -0.30000001 0.25999999
0.20999999 -24.110001 -0.30000001 0.18000001
0.285 -24.070999 -0.30000001 0.16
0.36000001 -23.997999 -0.29800001 0.1
0.435 -23.959 -0.29699999 0
0.51099998 -23.990999 -0.29800001 0
0.52700001 -21.452999 -0.245 0
0.56 -21.444 -0.245 0
0.62800002 -21.441999 -0.245 0
0.699 -21.568001 -0.24699999 0
0.76700002 -21.582001 -0.248 0
0.83399999 -21.541 -0.24699999 0
0.90399998 -21.604 -0.248 0
0.96799999 -21.518999 -0.24699999 0
0.995 -21.356001 -0.243 0
1.058 -21.278999 -0.242 0.059999999
1.126 -21.285 -0.242 0.079999998
1.193 -21.292 -0.242 0.15000001
1.261 -21.296 -0.242 0.16
1.327 -21.278 -0.242 0
1.3940001 -21.288 -0.242 0
1.429 -21.311001 -0.243 0
1.498 -21.330999 -0.243 0
1.734 -23.663 -0.292 0
1.652 -21.586 -0.249 0
1.722 -21.607 -0.249 0
1.79 -21.608999 -0.25 0
1.858 -21.603001 -0.25 0
1.895 -21.628 -0.25 0
1.961 -21.601999 -0.25 0
2.0139999 -21.441 -0.24600001 0
2.0840001 -21.458 -0.24699999 0
2.4449999 -23.657 -0.294 0.31999999
2.4820001 -23.653 -0.294 0.11
2.5539999 -23.621 -0.29300001 0.16
2.632 -23.649 -0.294 0.12
2.7049999 -23.629999 -0.294 0.16
2.783 -23.652 -0.294 0.12
2.8570001 -23.641001 -0.294 0.16
2.934 -23.657 -0.29499999 0.12
2.971 -23.646999 -0.29499999 0.17
3.05 -23.677 -0.29499999 0.12
3.119 -23.629999 -0.29499999 0.16
3.1989999 -23.663 -0.296 0.12
3.2739999 -23.655001 -0.296 0.17
3.3499999 -23.657 -0.296 0.12
3.4219999 -23.629999 -0.296 0.17
3.464 -23.656 -0.296 0.28
3.539 -23.655001 -0.296 0.19
3.608 -23.607 -0.296 0.2
3.6889999 -23.639 -0.29699999 0.31
3.7650001 -23.641001 -0.29699999 0.25999999
3.8399999 -23.629 -0.29699999 0.11
3.9159999 -23.632 -0.29699999 0.16
3.954 -23.628 -0.29699999 0.20999999
4.0320001 -23.641001 -0.29800001 0
3.7309999 -21.451 -0.25099999 0
3.756 -21.201 -0.24600001 0
3.806 -21.097 -0.244 0
3.8759999 -21.101999 -0.245 0
3.921 -21.165001 -0.24600001 0
4.039 -21.426001 -0.252 0
4.5999999 -23.601999 -0.29899999 0.28999999
4.6750002 -23.59 -0.29899999 0.18000001
4.7529998 -23.593 -0.30000001 0.18000001
4.8249998 -23.57 -0.29899999 0
4.862 -23.559999 -0.29899999 0.12
4.9429998 -23.58 -0.30000001 0.16
5.0170002 -23.562 -0.30000001 0.16
5.0939999 -23.559999 -0.30000001 0.1
5.1669998 -23.542 -0.30000001 0.15000001
5.2480001 -23.559 -0.301 0.28
5.3299999 -23.576 -0.30199999 0.27000001
5.3709998 -23.584999 -0.30199999 0.27000001
5.4460001 -23.572001 -0.30199999 0.11
4.9749999 -21.219999 -0.252 0
5.0219998 -21.118 -0.25 0
5.1550002 -21.382 -0.25600001 0
5.2490001 -21.476999 -0.25799999 0
5.2680001 -21.26 -0.25400001 0
5.2750001 -21.149 -0.252 0
5.3400002 -21.127001 -0.252 0
6.0209999 -23.52 -0.30399999 0.07
6.1020002 -23.528 -0.30500001 0.17
6.1820002 -23.532 -0.30500001 0.12
6.2550001 -23.509001 -0.30500001 0.16
6.2969999 -23.52 -0.30500001 0.12
6.3670001 -23.487 -0.30500001 0.17
6.4520001 -23.507 -0.30599999 0.12
6.527 -23.490999 -0.30599999 0.16
6.6069999 -23.490999 -0.30700001 0.12
6.6810002 -23.472 -0.30700001 0.17
6.7600002 -23.469999 -0.30700001 0.12
6.7979999 -23.462999 -0.30700001 0.17
6.8800001 -23.469 -0.308 0.28
6.954 -23.447001 -0.308 0.19
7.0279999 -23.429001 -0.308 0.15000001
7.1090002 -23.431999 -0.308 0.13
7.184 -23.413 -0.308 0.17
7.2649999 -23.415001 -0.30899999 0.28999999
7.309 -23.427 -0.30899999 0.2
7.3800001 -23.393999 -0.30899999 0.19
7.4619999 -23.396999 -0.31 0.31
7.5409999 -23.391001 -0.31 0.19
7.6199999 -23.386 -0.31099999 0.1
7.0570002 -21.422001 -0.26800001 0.079999998
7.0869999 -21.285999 -0.26499999 0
7.0640001 -21.106001 -0.26199999 0
7.1170001 -21.046 -0.26100001 0
7.1939998 -21.056 -0.26100001 0
7.2950001 -21.132999 -0.264 0.059999999
7.3709998 -21.139 -0.264 0
7.4489999 -21.146999 -0.26499999 0.11
7.5430002 -21.201 -0.26699999 0.1
8.3290005 -23.302999 -0.31400001 0
7.7249999 -21.395 -0.27200001 0
8.4610004 -23.212 -0.31299999 0.11
8.559 -23.253 -0.31400001 0.1
8.6450005 -23.261999 -0.315 0.17
8.7299995 -23.264999 -0.31600001 0.27000001
8.7650003 -23.249001 -0.31600001 0.11
8.8400002 -23.226999 -0.31600001 0
8.1719999 -21.264999 -0.273 0
8.2440004 -21.25 -0.273 0
9.1009998 -23.250999 -0.31799999 0
8.401 -21.259001 -0.27399999 0.059999999
8.4969997 -21.306999 -0.27599999 0
8.5550003 -21.355 -0.27700001 0
8.5509996 -21.152 -0.273 0
8.6059999 -21.094999 -0.273 0
8.7019997 -21.139999 -0.27399999 0
9.625 -23.184 -0.32100001 0
9.7069998 -23.174 -0.322 0.12
9.7959995 -23.184 -0.32300001 0.27000001
9.8380003 -23.181 -0.32300001 0.25999999
9.915 -23.159 -0.32300001 0.25
9.9969997 -23.15 -0.324 0.25999999
10.079 -23.139 -0.324 0.25
10.156 -23.118 -0.324 0.25999999
10.242 -23.115 -0.32499999 0.27000001
10.317 -23.087999 -0.32499999 0.25999999
9.5419998 -21.082001 -0.28 0.33000001
9.5629997 -20.952 -0.278 0
9.5679998 -20.791 -0.27500001 0
9.6339998 -20.761 -0.27500001 0
9.7119999 -20.759001 -0.27500001 0
9.816 -20.896 -0.27900001 0
9.8929996 -20.889 -0.28 0
9.9770002 -20.896999 -0.28 0
11.052 -22.969 -0.329 0.050000001
11.166 -23.021 -0.331 0.16
11.254 -23.016001 -0.33199999 0.12
11.333 -22.995001 -0.33199999 0.16
11.383 -23.006001 -0.333 0.12
11.456 -22.972 -0.333 0.16
11.527 -22.931999 -0.333 0.12
11.608 -22.914 -0.333 0.41
11.728 -22.972 -0.336 0.12
11.798 -22.931 -0.336 0
10.845 -20.912001 -0.289 0
10.883 -20.906 -0.289 0
10.982 -20.934999 -0.29100001 0
11.081 -20.964001 -0.292 0
11.081 -20.804001 -0.289 0
11.131 -20.740999 -0.28799999 0
11.234 -20.775999 -0.28999999 0
12.428 -22.819 -0.34 0.12
12.505 -22.875 -0.34200001 0.28
12.591 -22.860001 -0.34200001 0.27000001
12.679 -22.85 -0.34299999 0.27000001
12.771 -22.847 -0.34400001 0.27000001
12.858 -22.834999 -0.34400001 0.27000001
12.942 -22.815001 -0.345 0.27000001
13.022 -22.788 -0.345 0.25
13.082 -22.811001 -0.34599999 0.11
13.159 -22.778 -0.34599999 0.15000001
13.263 -22.794001 -0.34799999 0.28
13.347 -22.773001 -0.34799999 0.11
13.423 -22.738001 -0.34900001 0.15000001
13.522 -22.743999 -0.34999999 0.12
13.569 -22.740999 -0.34999999 0.15000001
13.651 -22.716 -0.35100001 0.28999999
13.725 -22.677999 -0.35100001 0.25999999
13.808 -22.653 -0.35100001 0.25999999
13.888 -22.624001 -0.352 0.25
13.985 -22.622 -0.35299999 0.25
14.062 -22.589001 -0.35299999 0.25
14.106 -22.58 -0.35299999 0.25
14.198 -22.569 -0.354 0.25
14.286 -22.552 -0.35499999 0.25
14.367 -22.521999 -0.35499999 0.23999999
14.456 -22.504999 -0.35600001 0.23999999
14.544 -22.487 -0.35600001 0.25
14.629 -22.464001 -0.35699999 0.25999999
14.679 -22.462999 -0.35800001 0.25999999
14.764 -22.438999 -0.35800001 0
14.86 -22.431999 -0.359 0
3.835 -5.7150002 0.061000001 0
3.842 -5.6859999 0.061000001 0.059999999
3.852 -5.6620002 0.061999999 0.090000004
3.8800001 -5.665 0.061000001 0.15000001
3.868 -5.6290002 0.061999999 0
3.8970001 -5.6339998 0.061000001 0
3.9119999 -5.6160002 0.061999999 0
15.496 -22.235001 -0.36300001 0.039999999
15.58 -22.208 -0.36399999 0.16
15.678 -22.198 -0.36500001 0.12
15.75 -22.152 -0.36500001 0.16
15.823 -22.181 -0.366 0.28
15.913 -22.16 -0.36700001 0.27000001
15.999 -22.132999 -0.368 0.25999999
16.083 -22.101999 -0.368 0.25999999
16.179001 -22.087999 -0.36899999 0.27000001
16.266001 -22.061001 -0.37 0.11
16.312 -22.049999 -0.37 0.15000001
16.417 -22.047001 -0.37099999 0.12
16.493999 -22.007 -0.37200001 0.16
16.601999 -22.006001 -0.373 0.28
16.686001 -21.974001 -0.373 0.27000001
16.789 -21.966 -0.375 0.27000001
16.886 -21.950001 -0.37599999 0.27000001
16.924 -21.927999 -0.37599999 0.11
17.014 -21.902 -0.37599999 0
2.6860001 -3.4000001 0.114 0
2.677 -3.3659999 0.115 0
2.681 -3.3499999 0.115 0
2.6719999 -3.316 0.116 0
2.6900001 -3.3169999 0.116 0
2.6889999 -3.3050001 0.116 0
2.6889999 -3.2850001 0.116 0
2.6919999 -3.267 0.116 0
2.7 -3.2550001 0.116 0
2.688 -3.22 0.117 0
2.694 -3.207 0.117 0
2.7030001 -3.197 0.117 0
2.7019999 -3.1849999 0.118 0
2.714 -3.1800001 0.117 0
2.723 -3.1700001 0.117 0
2.734 -3.1630001 0.117 0
2.7379999 -3.1470001 0.118 0
2.7479999 -3.138 0.118 0
2.7550001 -3.1370001 0.118 0
2.7639999 -3.1270001 0.118 0
2.777 -3.122 0.117 0
2.7909999 -3.118 0.117 0
2.806 -3.115 0.117 0
2.813 -3.1040001 0.117 0
2.825 -3.096 0.117 0
2.8399999 -3.1040001 0.117 0
2.8469999 -3.092 0.117 0
2.862 -3.089 0.117 0
2.875 -3.0829999 0.117 0
2.905 -3.096 0.116 0
2.9130001 -3.085 0.116 0
2.9349999 -3.089 0.116 0
2.9560001 -3.102 0.115 0
2.9630001 -3.0899999 0.115 0
3.003 -3.112 0.114 0
3.02 -3.1099999 0.114 0
20.239 -20.791 -0.403 0
20.313999 -20.738001 -0.40400001 0.07
20.386 -20.746 -0.405 0.15000001
20.472 -20.702999 -0.405 0.1
20.555 -20.657 -0.40599999 0.15000001
20.641001 -20.613001 -0.40700001 0.16
20.726999 -20.57 -0.40700001 0.1
20.813 -20.525999 -0.40799999 0
20.909 -20.490999 -0.40900001 0
20.966999 -20.483 -0.41 0
21.044001 -20.43 -0.41 0
21.118 -20.372999 -0.41 0
21.218 -20.341 -0.41100001 0
21.295 -20.287001 -0.412 0
21.372999 -20.233999 -0.412 0
21.413 -20.208 -0.412 0
21.49 -20.153 -0.41299999 0
21.580999 -20.112 -0.41299999 0
21.672001 -20.07 -0.414 0
21.761 -20.025999 -0.41499999 0
21.833 -19.966 -0.41499999 0
21.924999 -19.924 -0.41600001 0.07
21.966999 -19.899 -0.41600001 0.14
22.041 -19.84 -0.417 0.090000004
22.125 -19.791 -0.417 0.090000004
22.202 -19.735001 -0.41800001 0.15000001
22.288 -19.686001 -0.41800001 0.1
22.371 -19.634001 -0.419 0.15000001
22.473 -19.6 -0.41999999 0.1
22.528 -19.584999 -0.421 0.15000001
22.594 -19.518 -0.421 0.1
22.688999 -19.476 -0.42199999 0.15000001
22.773001 -19.424 -0.42300001 0.23
22.864 -19.378 -0.42300001 0.1
22.929001 -19.309999 -0.42300001 0.16
22.995001 -19.242001 -0.42399999 0.1
23.028999 -19.209999 -0.42399999 0.16
23.097 -19.143999 -0.42399999 0.1
23.181999 -19.091 -0.42500001 0.14
23.247999 -19.023001 -0.42500001 0.090000004
23.365 -18.997 -0.426 0.090000004
23.445999 -18.941 -0.42699999 0
23.596001 -19.000999 -0.43000001 0
23.768 -19.017 -0.433 0
23.927999 -19.021999 -0.43599999 0
24.063999 -19.007 -0.43799999 0
24.205 -18.996 -0.44 0
24.353001 -18.989 -0.442 0.13
24.468 -18.955 -0.44400001 0.090000004
24.575001 -18.976 -0.44600001 0
24.719999 -18.965 -0.44800001 0
24.858 -18.947001 -0.44999999 0
25.004999 -18.934999 -0.45300001 0
25.134001 -18.909 -0.454 0
25.254 -18.875999 -0.456 0.079999998
25.410999 -18.868999 -0.45899999 0.079999998
25.514999 -18.884001 -0.46000001 0.19
25.634001 -18.847 -0.46200001 0.1
25.771999 -18.825001 -0.46399999 0.079999998
25.875999 -18.777 -0.465 0.079999998
25.987 -18.733 -0.46700001 0.090000004
26.115999 -18.701 -0.46799999 0.090000004
26.233999 -18.662001 -0.47 0.090000004
26.313999 -18.656 -0.47099999 0.079999998
26.441 -18.622 -0.47299999 0.079999998
26.554001 -18.577 -0.47400001 0.079999998
26.677999 -18.539 -0.47600001 0.16
26.813 -18.509001 -0.47799999 0.1
26.937 -18.469999 -0.47999999 0
27.068001 -18.497 -0.48199999 0
27.160999 -18.436001 -0.48300001 0
27.325001 -18.422001 -0.486 0
27.427 -18.365999 -0.48699999 0
27.615999 -18.367001 -0.49000001 0
27.724001 -18.313999 -0.49200001 0
27.879999 -18.291 -0.49399999 0
27.959 -18.280001 -0.495 0
28.122 -18.261 -0.498 0
28.233999 -18.208 -0.49900001 0
28.409 -18.195 -0.50199997 0
28.485001 -18.118 -0.50300002 0
28.656 -18.101 -0.50599998 0
28.847 -18.094999 -0.509 0
28.913 -18.073 -0.50999999 0
29.134001 -18.084 -0.514 0
29.275999 -18.045 -0.51599997 0
29.427999 -18.011999 -0.51800001 0
29.584999 -17.98 -0.52100003 0
29.795 -17.98 -0.52499998 0
29.945999 -17.943001 -0.52700001 0
30.082001 -17.961 -0.52999997 0
30.219 -17.914 -0.53200001 0
30.386999 -17.885 -0.53399998 0
30.545 -17.849001 -0.537 0
30.726 -17.826 -0.54000002 0
30.882 -17.787001 -0.542 0
31.011 -17.732 -0.54400003 0
31.115999 -17.728001 -0.546 0
31.278 -17.690001 -0.54799998 0
31.473 -17.67 -0.55199999 0
31.656 -17.642 -0.55500001 0
31.834999 -17.611 -0.55800003 0
31.985001 -17.563 -0.56 0
32.120998 -17.573 -0.56300002 0
32.292 -17.535 -0.565 0
32.428001 -17.476999 -0.56699997 0
32.59 -17.431999 -0.56999999 0
32.723999 -17.372 -0.57200003 0
32.884998 -17.325001 -0.574 0
33.081001 -17.296 -0.57800001 0
33.229 -17.306999 -0.57999998 0
33.379002 -17.252001 -0.583 0
33.556999 -17.211 -0.58600003 0
33.751999 -17.177 -0.58899999 0
33.895 -17.115999 -0.59100002 0
34.138 -17.105 -0.59600002 0
34.333 -17.068001 -0.59899998 0
34.465 -17.066999 -0.60100001 0
34.640999 -17.018 -0.60399997 0
34.789001 -16.955999 -0.60600001 0
35.012001 -16.927999 -0.61000001 0
35.231998 -16.899 -0.61400002 0
35.418999 -16.851999 -0.61699998 0
23.464001 -10.839 -0.33700001 0
23.419001 -10.729 -0.33500001 0
23.253 -10.565 -0.33000001 0
23.266001 -10.482 -0.33000001 0
23.275 -10.399 -0.329 0
23.268 -10.352 -0.329 0
23.419001 -10.331 -0.33199999 0
23.462 -10.262 -0.33199999 0
23.334999 -8.2969999 -0.31400001 0
23.434 -7.5110002 -0.31099999 0.1
23.5 -7.4510002 -0.31200001 0
23.607 -7.4029999 -0.31400001 0.11
23.698999 -7.3509998 -0.315 0
26.240999 -7.737 -0.36899999 0
26.423 -7.7010002 -0.37200001 0
26.794001 -7.7639999 -0.38 0
28.584999 -7.2709999 -0.41299999 0
28.964001 -7.223 -0.421 0
29.437 -7.243 -0.43099999 0
29.617001 -7.1890001 -0.43399999 0
31.218 -7.2680001 -0.46700001 0
31.247999 -7.1719999 -0.46700001 0
31.191 -7.1069999 -0.46599999 0
31.257999 -7.0190001 -0.46700001 0
31.055 -6.6669998 -0.461 0
31.35 -6.473 -0.46599999 0.20999999
31.483 -6.3969998 -0.46900001 0
31.827 -6.3629999 -0.47499999 0
40.265999 -7.533 -0.65399998 0
41.066002 -7.6160002 -0.671 0.07
41.269001 -7.52 -0.67400002 0.14
41.59 -7.4439998 -0.68099999 0.16
41.591 -7.309 -0.68000001 0.090000004
41.740002 -7.1999998 -0.68300003 0
42.091999 -7.125 -0.69 0
36.096001 -5.9310002 -0.56199998 0.33000001
42.070999 -6.7820001 -0.68800002 0.25999999
25.125999 -3.9590001 -0.32800001 0.25
23.761 -3.6659999 -0.29899999 0.13
23.749001 -3.5880001 -0.29899999 0.30000001
23.77 -3.5139999 -0.29899999 0.37
23.780001 -3.4779999 -0.29899999 0.34999999
23.802 -3.405 -0.29899999 0.20999999
23.889999 -3.3410001 -0.301 0.34
25.104 -3.3510001 -0.32600001 0.17
25.1 -3.27 -0.32600001 0
44.901001 -2.596 -0.73799998 0
57.952 -2.628 -1.011 0
57.992001 -2.539 -1.012 0
74.583 4.5349998 -1.744 0
73.719002 4.7140002 -1.722 0
64.098999 5.6149998 -1.473 0.69999999
64.226997 5.8299999 -1.477 0
52.213001 9.6689997 -1.1799999 0
28.329 6.1599998 -0.551 0
28.399 6.2690001 -0.55400002 0
28.476999 6.3800001 -0.55599999 0
43.917 9.9989996 -0.97000003 0
43.638 10.08 -0.963 0.11
43.662998 10.23 -0.96499997 0.1
43.723999 10.389 -0.96700001 0.17
43.646999 10.443 -0.96600002 0.20999999
43.472 10.546 -0.96200001 0.19
43.554001 10.711 -0.96499997 0.12
43.800999 10.918 -0.972 0
44.105999 11.141 -0.98199999 0
40.526001 10.371 -0.88599998 0.059999999
40.320999 10.453 -0.88200003 0.16
40.233002 10.498 -0.88 0.20999999
40.002998 10.572 -0.87400001 0.19
39.946999 10.691 -0.87400001 0.20999999
39.830002 10.794 -0.87099999 0.27000001
39.784 10.916 -0.87099999 0.17
39.785999 11.051 -0.87199998 0.20999999
39.667 11.085 -0.86900002 0.22
39.855 11.273 -0.875 0.17
40.115002 11.483 -0.88300002 0.13
39.858002 11.545 -0.87699997 0.14
40.037998 11.734 -0.88300002 0.14
34.664001 10.273 -0.73799998 0.16
34.455002 10.329 -0.73299998 0.25
33.832001 10.2 -0.71700001 0.30000001
33.685001 10.271 -0.71399999 0.25999999
33.542 10.343 -0.71100003 0.28
33.298 10.382 -0.70499998 0.25999999
33.185001 10.461 -0.70300001 0.27000001
33.028 10.526 -0.699 0.36000001
32.983002 10.626 -0.699 0.25999999
32.997002 10.687 -0.69999999 0.22
32.883999 10.765 -0.69800001 0.36000001
32.812 10.855 -0.69700003 0.30000001
32.734001 10.944 -0.69499999 0.27000001
32.771 11.071 -0.69700003 0.2
32.724998 11.17 -0.69700003 0.19
32.709 11.279 -0.69800001 0.47
32.825001 11.377 -0.70099998 0.25
32.768002 11.473 -0.70099998 0.25999999
32.799999 11.6 -0.70300001 0.25
32.712002 11.685 -0.70099998 0.28
32.731998 11.808 -0.70300001 0.23
33.110001 12.062 -0.71399999 0.38999999
28.433001 10.456 -0.58499998 0.18000001
28.289 10.453 -0.58200002 0.30000001
28.211 10.525 -0.57999998 0.31
27.996 10.545 -0.57499999 0.33000001
27.966999 10.634 -0.57599998 0.25
27.823 10.68 -0.57200003 0.31
27.764999 10.758 -0.57200003 0.37
27.789 10.868 -0.57300001 0.31999999
27.834999 10.936 -0.57499999 0.28
27.767 11.01 -0.574 0.28999999
27.733999 11.098 -0.574 0.33000001
27.882999 11.26 -0.579 0.25
27.843 11.346 -0.579 0.2
28.031 11.525 -0.58600003 0.50999999
28.500999 11.771 -0.59899998 0.16
29.035999 12.099 -0.616 0.36000001
21.843 9.1759996 -0.41299999 0.18000001
21.719 9.2040005 -0.41 0.33000001
21.541 9.2080002 -0.40599999 0.28999999
21.367001 9.2130003 -0.40200001 0.28
21.34 9.2810001 -0.40200001 0.27000001
21.323 9.3140001 -0.40200001 0.58999997
21.082001 9.2869997 -0.396 0.22
20.719999 9.2049999 -0.38699999 0.34999999
20.695 9.2720003 -0.38699999 0.41
20.707001 9.3559999 -0.38800001 0.34999999
20.698 9.4300003 -0.38800001 0.41999999
20.691999 9.5059996 -0.389 0.41
20.711 9.5539999 -0.38999999 0.40000001
20.701 9.6289997 -0.391 0.38
20.695999 9.7049999 -0.391 0.38999999
20.702999 9.7880001 -0.39199999 0.41
20.684999 9.8590002 -0.39300001 0.46000001
20.983999 10.083 -0.40200001 0
24.614 11.976 -0.509 0.28999999
24.83 12.178 -0.51599997 0
64.223 31.795 -1.664 0
64.262001 32.066002 -1.668 0
21.254 11.606 -0.42699999 0.2
21.209 11.668 -0.42699999 0.43000001
21.179001 11.739 -0.42699999 0
46.043999 25.745001 -1.171 0.12
45.984001 25.806 -1.17 0
45.962002 25.983999 -1.1720001 0
15.894 9.5340004 -0.27900001 0.30000001
15.841 9.5710001 -0.278 0.25999999
15.816 9.6239996 -0.278 0.38999999
15.757 9.6560001 -0.27700001 0.33000001
15.504 9.533 -0.27000001 0.41
15.53 9.6169996 -0.27200001 0.31999999
15.408 9.6079998 -0.26899999 0.34
15.591 9.7910004 -0.27500001 0.44999999
15.675 9.9130001 -0.27900001 0.34999999
14.865 9.4650002 -0.255 0.34999999
14.842 9.5159998 -0.255 0.23999999
14.762 9.4969997 -0.25299999 0.41999999
14.765 9.5649996 -0.25400001 0.36000001
14.72 9.6009998 -0.25400001 0.37
14.638 9.6129999 -0.252 0.46000001
14.643 9.6820002 -0.25299999 0.34
14.611 9.7270002 -0.25299999 0.34999999
14.551 9.7200003 -0.252 0.34
14.599 9.8199997 -0.25400001 0.38
14.578 9.8719997 -0.25400001 0.46000001
14.516 9.8959999 -0.25299999 0.33000001
14.618 10.034 -0.25799999 0.47
14.782 10.215 -0.264 0.30000001
15.037 10.462 -0.273 0.28999999
15.076 10.524 -0.27500001 0.49000001
14.311 10.056 -0.25099999 0.23999999
14.3 10.116 -0.252 0.33000001
14.34 10.212 -0.25400001 0.38999999
14.204 10.182 -0.25099999 0.22
14.525 10.482 -0.26199999 0.38999999
14.421 10.476 -0.25999999 0.46000001
14.292 10.416 -0.25600001 0.28999999
14.302 10.493 -0.25799999 0.34999999
14.232 10.51 -0.257 0.33000001
14.249 10.592 -0.25799999 0.18000001
14.073 10.53 -0.25400001 0.61000001
14.058 10.587 -0.25400001 0.37
13.846 10.496 -0.248 0.31
13.826 10.515 -0.248 0.38
13.703 10.489 -0.245 0.22
12.849 9.8979998 -0.21799999 0.44999999
12.86 9.9709997 -0.22 0.34
12.87 10.043 -0.221 0.18000001
12.812 10.063 -0.22 0.40000001
12.651 10.001 -0.21600001 0.30000001
