# .PCD v0.7 - Point Cloud Data file format
VERSION 0.7
FIELDS x y z intensity
SIZE 4 4 4 4
TYPE F F F F
COUNT 1 1 1 1
WIDTH 1376
HEIGHT 1
VIEWPOINT 0 0 0 1 0 0 0
POINTS 1376
DATA ascii
4.79 3.3699999 -1.752 0.31
4.7729998 3.381 -1.75 0.31
4.7649999 3.398 -1.751 0.28
4.7579999 3.415 -1.752 0.33000001
4.7519999 3.4330001 -1.7539999 0.31999999
4.737 3.434 -1.751 0.30000001
4.7399998 3.4590001 -1.756 0.34999999
4.7259998 3.4719999 -1.755 0.31999999
4.7080002 3.4809999 -1.752 0.28999999
4.697 3.4960001 -1.752 0.31999999
4.6919999 3.5150001 -1.7539999 0.31999999
4.671 3.523 -1.751 0.25
4.6630001 3.5280001 -1.749 0.31999999
4.6459999 3.5380001 -1.747 0.36000001
4.6329999 3.5510001 -1.7460001 0.28999999
4.6290002 3.572 -1.749 0.34
4.6090002 3.579 -1.7460001 0.30000001
4.5960002 3.592 -1.745 0.27000001
4.579 3.602 -1.743 0.31
4.5640001 3.602 -1.739 0.31
4.5549998 3.618 -1.74 0.36000001
4.5599999 3.645 -1.7460001 0.40000001
4.5359998 3.6500001 -1.742 0.31999999
4.52 3.661 -1.74 0.27000001
4.513 3.678 -1.742 0.34
4.506 3.684 -1.7410001 0.31999999
4.4910002 3.6960001 -1.74 0.28999999
4.4840002 3.714 -1.742 0.28999999
4.4710002 3.727 -1.7410001 0.36000001
4.4549999 3.737 -1.739 0.28999999
4.4530001 3.7590001 -1.743 0.31
4.434 3.767 -1.74 0.25999999
4.4330001 3.7780001 -1.742 0.34
4.4130001 3.786 -1.739 0.30000001
4.3959999 3.7950001 -1.737 0.25999999
4.388 3.812 -1.738 0.38
4.3779998 3.8269999 -1.739 0.34999999
4.3600001 3.836 -1.737 0.28999999
4.3520002 3.8410001 -1.7359999 0.30000001
4.3369999 3.8529999 -1.735 0.31
4.322 3.8640001 -1.734 0.28999999
4.316 3.882 -1.7359999 0.28999999
4.2969999 3.8889999 -1.733 0.30000001
4.276 3.895 -1.729 0.25
4.2659998 3.911 -1.7309999 0.38999999
4.2579999 3.915 -1.729 0.31
4.2519999 3.9349999 -1.732 0.38999999
4.237 3.9460001 -1.7309999 0.30000001
4.2179999 3.9530001 -1.728 0.31999999
4.2080002 3.9690001 -1.729 0.30000001
4.1939998 3.98 -1.729 0.31999999
4.1799998 3.9920001 -1.728 0.31999999
4.1729999 3.9979999 -1.728 0.31999999
4.1529999 4.0040002 -1.724 0.30000001
4.1389999 4.0159998 -1.724 0.30000001
4.1360002 4.0380001 -1.728 0.31999999
4.1110001 4.039 -1.723 0.30000001
4.098 4.052 -1.723 0.30000001
4.0949998 4.0739999 -1.727 0.30000001
4.0739999 4.066 -1.72 0.30000001
4.053 4.0710001 -1.717 0.28
4.0479999 4.0910001 -1.72 0.30000001
4.026 4.0949998 -1.716 0.38
4.02 4.1139998 -1.719 0.36000001
4.0089998 4.1290002 -1.72 0.31999999
3.9979999 4.1300001 -1.7180001 0.31999999
3.9660001 4.1240001 -1.709 0.27000001
3.9660001 4.1500001 -1.715 0.34999999
3.944 4.1529999 -1.711 0.38
3.937 4.1719999 -1.714 0.33000001
3.9219999 4.1810002 -1.7130001 0.30000001
3.9059999 4.191 -1.712 0.28999999
3.8989999 4.197 -1.712 0.30000001
3.8889999 4.2119999 -1.7130001 0.30000001
3.869 4.217 -1.71 0.31999999
3.8610001 4.2350001 -1.712 0.31999999
3.8499999 4.25 -1.714 0.30000001
3.8180001 4.2410002 -1.704 0.27000001
3.812 4.2610002 -1.7079999 0.36000001
3.8169999 4.2800002 -1.714 0.28999999
3.793 4.2810001 -1.709 0.33000001
3.7750001 4.2870002 -1.706 0.28999999
3.7620001 4.3000002 -1.707 0.28
3.7460001 4.309 -1.706 0.34
3.7279999 4.3150001 -1.7029999 0.31
3.7360001 4.3379998 -1.71 0.30000001
3.707 4.3330002 -1.7029999 0.31
3.684 4.3330002 -1.698 0.28999999
3.6849999 4.362 -1.706 0.28999999
3.655 4.3540001 -1.698 0.31999999
3.645 4.3699999 -1.7 0.31999999
3.6400001 4.3920002 -1.704 0.46000001
3.6329999 4.3969998 -1.704 0.41
3.619 4.4089999 -1.704 0.31999999
3.6010001 4.414 -1.701 0.25
3.5840001 4.4229999 -1.7 0.38
3.5639999 4.4260001 -1.697 0.30000001
3.553 4.441 -1.698 0.31999999
3.5339999 4.4460001 -1.696 0.34
3.533 4.4590001 -1.699 0.33000001
3.5209999 4.473 -1.7 0.33000001
3.494 4.467 -1.693 0.33000001
3.4860001 4.4860001 -1.696 0.37
3.47 4.494 -1.6950001 0.28999999
3.447 4.494 -1.691 0.33000001
3.444 4.5190001 -1.696 0.34999999
3.427 4.5120001 -1.692 0.28
3.4159999 4.526 -1.693 0.36000001
3.3989999 4.533 -1.692 0.28999999
3.382 4.5409999 -1.6900001 0.33000001
3.3610001 4.5419998 -1.687 0.31999999
3.342 4.5469999 -1.684 0.28
3.3440001 4.5640001 -1.689 0.43000001
3.3329999 4.579 -1.691 0.34999999
3.3080001 4.5739999 -1.6849999 0.31999999
3.289 4.579 -1.682 0.31
3.279 4.5949998 -1.6849999 0.34
3.2620001 4.6020002 -1.684 0.33000001
3.25 4.6160002 -1.6849999 0.31999999
3.233 4.6069999 -1.679 0.31999999
3.223 4.6230001 -1.682 0.30000001
3.207 4.632 -1.681 0.33000001
3.1960001 4.6459999 -1.683 0.37
3.1700001 4.6409998 -1.677 0.31999999
3.158 4.6539998 -1.678 0.34999999
3.1359999 4.6529999 -1.674 0.31999999
3.132 4.6620002 -1.676 0.31
3.119 4.6750002 -1.677 0.31
3.099 4.677 -1.674 0.34
3.0880001 4.6919999 -1.676 0.34999999
3.062 4.6849999 -1.67 0.30000001
3.0469999 4.6929998 -1.669 0.30000001
3.0380001 4.7129998 -1.673 0.33000001
3.0380001 4.7280002 -1.677 0.36000001
3.017 4.7280002 -1.673 0.34
3.0020001 4.7379999 -1.673 0.31999999
2.994 4.7589998 -1.678 0.31999999
2.971 4.7550001 -1.673 0.33000001
2.9519999 4.7579999 -1.67 0.31
2.9489999 4.7690001 -1.673 0.31
2.9289999 4.77 -1.67 0.30000001
2.914 4.7789998 -1.67 0.31999999
2.901 4.7919998 -1.671 0.33000001
2.8840001 4.7979999 -1.67 0.31
2.868 4.8049998 -1.669 0.31999999
2.8540001 4.8169999 -1.67 0.31999999
2.8429999 4.8150001 -1.668 0.33000001
2.829 4.8260002 -1.668 0.31999999
2.8099999 4.8280001 -1.666 0.31
2.793 4.8330002 -1.665 0.31999999
2.7809999 4.849 -1.6670001 0.34
2.7650001 4.8559999 -1.6670001 0.31999999
2.747 4.8600001 -1.665 0.31999999
2.737 4.8610001 -1.664 0.31999999
2.7190001 4.8639998 -1.6619999 0.31
2.6989999 4.8639998 -1.659 0.33000001
2.6849999 4.8740001 -1.659 0.31999999
2.668 4.8800001 -1.658 0.31
2.6559999 4.895 -1.661 0.31999999
2.635 4.8930001 -1.6569999 0.30000001
2.6289999 4.9000001 -1.658 0.33000001
2.6099999 4.902 -1.656 0.36000001
2.5940001 4.908 -1.655 0.31
2.5799999 4.9200001 -1.656 0.38
2.559 4.9159999 -1.652 0.31999999
2.5469999 4.9310002 -1.654 0.34999999
2.5320001 4.941 -1.655 0.34
2.517 4.9310002 -1.65 0.33000001
2.506 4.947 -1.653 0.31
2.4890001 4.9520001 -1.652 0.31999999
2.474 4.961 -1.653 0.31
2.4560001 4.9640002 -1.651 0.25999999
2.4449999 4.98 -1.654 0.41999999
2.4349999 4.9809999 -1.653 0.31999999
2.421 4.9920001 -1.654 0.31
2.4030001 4.994 -1.652 0.31
2.3870001 5 -1.651 0.31999999
2.3740001 5.0139999 -1.654 0.34
2.3529999 5.0110002 -1.65 0.28
2.339 5.0219998 -1.651 0.33000001
2.329 5.0209999 -1.65 0.31999999
2.3150001 5.0310001 -1.651 0.31999999
2.293 5.0250001 -1.646 0.27000001
2.2820001 5.0440001 -1.65 0.34
2.2639999 5.046 -1.648 0.31999999
2.244 5.0440001 -1.645 0.28999999
2.2320001 5.0599999 -1.648 0.34
2.2219999 5.0580001 -1.647 0.31
2.2049999 5.0619998 -1.645 0.31
2.1889999 5.0689998 -1.645 0.30000001
2.1730001 5.0760002 -1.645 0.30000001
2.1489999 5.0630002 -1.6390001 0.27000001
2.142 5.0929999 -1.647 0.38999999
2.122 5.0890002 -1.643 0.31999999
2.112 5.0890002 -1.642 0.30000001
2.098 5.099 -1.643 0.31999999
2.0799999 5.1020002 -1.642 0.31
2.066 5.112 -1.643 0.31999999
2.043 5.1009998 -1.637 0.28999999
2.0280001 5.1110001 -1.638 0.33000001
2.0150001 5.1259999 -1.641 0.31999999
2.0050001 5.1220002 -1.6390001 0.33000001
1.989 5.1279998 -1.6390001 0.30000001
1.973 5.1360002 -1.6390001 0.30000001
1.954 5.1350002 -1.637 0.28999999
1.947 5.165 -1.645 0.36000001
1.929 5.1669998 -1.643 0.33000001
1.913 5.1729999 -1.643 0.25999999
1.168 3.233 -0.97899997 0.37
1.16 3.244 -0.98100001 0.34
1.1440001 3.2290001 -0.97500002 0.56
1.137 3.2420001 -0.97799999 0.34
1.1210001 3.2290001 -0.97299999 0.46000001
1.115 3.2290001 -0.972 0.43000001
1.102 3.2249999 -0.97000003 0.41999999
1.089 3.22 -0.96700001 0.41
1.076 3.214 -0.96399999 0.38999999
1.062 3.207 -0.95999998 0.46000001
1.05 3.2030001 -0.958 0.41999999
1.038 3.2030001 -0.95599997 0.38
1.031 3.197 -0.954 0.40000001
1.018 3.191 -0.95099998 0.38999999
1.005 3.187 -0.949 0.38
0.99599999 3.1919999 -0.949 0.31999999
0.98799998 3.201 -0.95099998 0.38
0.977 3.2019999 -0.94999999 0.34
0.96399999 3.194 -0.94700003 0.25
0.95499998 3.1830001 -0.94199997 0.25
0.94 3.171 -0.93800002 0.090000004
0.93300003 3.1830001 -0.94099998 0
0.90600002 3.128 -0.921 0
0.88700002 3.1010001 -0.91100001 0
0.86799997 3.0710001 -0.89999998 0
0.861 3.0829999 -0.903 0
0.84299999 3.039 -0.88800001 0.02
0.82700002 3.017 -0.88 0.029999999
0.815 3.013 -0.87800002 0
0.81300002 3.0409999 -0.88599998 0
0.78600001 2.9809999 -0.866 0
0.77499998 2.9760001 -0.86299998 0.1
0.78299999 3.027 -0.88 0.23
0.76599997 3 -0.87 0.23
0.75800002 3.006 -0.87099999 0.23999999
0.74400002 2.994 -0.866 0.20999999
0.73799998 3.0090001 -0.87099999 0.25999999
0.72100002 2.9820001 -0.861 0.25
0.71399999 2.9909999 -0.86299998 0.25999999
0.69999999 2.977 -0.85799998 0.25999999
0.69800001 2.987 -0.861 0.25999999
0.68400002 2.973 -0.85500002 0.28
0.671 2.9560001 -0.84899998 0.25
0.667 2.9820001 -0.85699999 0.28
0.65799999 2.9860001 -0.85799998 0.1
0.63099998 2.9089999 -0.83200002 0.18000001
0.62599999 2.908 -0.83099997 0
0.60500002 2.858 -0.81400001 0
0.59500003 2.8559999 -0.81300002 0
0.56199998 2.7460001 -0.77600002 0.039999999
0.55299997 2.7460001 -0.77600002 0
0.542 2.733 -0.77100003 0
1.068 5.3940001 -1.638 0
1.0549999 5.4169998 -1.645 0
0.50999999 2.622 -0.73400003 0
1.0470001 5.4660001 -1.659 0
1.035 5.4949999 -1.668 0
1.026 5.5430002 -1.682 0
1.012 5.5609999 -1.687 0
1.012 5.6620002 -1.719 0
0.995 5.619 -1.704 0
0.122 2.0699999 -0.54299998 0
0.114 2.049 -0.53600001 0
0.109 2.072 -0.54299998 0
0.102 2.0539999 -0.537 0
0.097999997 2.0539999 -0.537 0
0.092 2.062 -0.54000002 0
0.085000001 2.056 -0.53799999 0
0.079999998 2.075 -0.54400003 0
0.071999997 2.0409999 -0.53299999 0
0.066 2.0469999 -0.53500003 0
0.061000001 2.089 -0.54799998 0
-0.090999998 3.2909999 -0.93300003 0.029999999
-0.096000001 3.2869999 -0.93099999 0
-0.106 3.2939999 -0.93400002 0
-0.117 3.2939999 -0.93400002 0
-0.54400003 3.2820001 -0.94400001 0
-0.56900001 3.1500001 -0.903 0
-0.57800001 3.145 -0.90200001 0
-0.58700001 3.1370001 -0.89999998 0
-0.58999997 3.125 -0.89700001 0
-0.59600002 3.1059999 -0.89099997 0
-0.60399997 3.095 -0.88800001 0
-0.66399997 2.0739999 -0.57599998 0
-0.65899998 2.036 -0.56400001 0
-0.67000002 2.05 -0.56999999 0
-0.68300003 2.0680001 -0.57599998 0
-1.304 3.1140001 -0.95899999 0
-1.312 3.1070001 -0.958 0
-1.322 3.1029999 -0.958 0
-1.324 3.0810001 -0.95200002 0
-1.347 3.0669999 -0.95099998 0
-1.3430001 3.0309999 -0.94 0
-1.346 3.013 -0.935 0
-1.346 2.9860001 -0.92699999 0
-1.353 2.977 -0.92500001 0
-1.349 2.9549999 -0.91900003 0
-1.349 2.9300001 -0.91100001 0
-1.3430001 2.8929999 -0.89999998 0
-1.3559999 2.8970001 -0.903 0
-1.349 2.859 -0.89099997 0
-1.354 2.846 -0.88800001 0
-1.347 2.8069999 -0.875 0
-1.346 2.7939999 -0.87199998 0
-1.345 2.7679999 -0.86400002 0
-1.347 2.75 -0.85900003 0
-1.34 2.7130001 -0.847 0
-1.341 2.6930001 -0.84200001 0
-1.3430001 2.677 -0.838 0
-1.3430001 2.6559999 -0.83200002 0
-1.337 2.6329999 -0.824 0
-1.339 2.615 -0.81900001 0
-1.344 2.6059999 -0.81800002 0
-1.355 2.6070001 -0.81900001 0
-1.3609999 2.598 -0.81800002 0
-1.3380001 2.5339999 -0.796 0
-1.335 2.5079999 -0.78799999 0
-1.339 2.506 -0.78799999 0
-1.334 2.4779999 -0.77999997 0
-1.3380001 2.467 -0.77700001 0
-1.341 2.4530001 -0.77399999 0
-1.3430001 2.438 -0.76999998 0
-1.347 2.428 -0.76800001 0
-1.369 2.22 -0.71399999 0
-1.38 2.2219999 -0.71600002 0
-1.38 2.207 -0.71200001 0
-1.382 2.194 -0.70899999 0
-1.397 2.2030001 -0.71399999 0
-1.399 2.1900001 -0.71100003 0
-1.416 2.2090001 -0.71899998 0
-1.418 2.198 -0.71600002 0
-1.431 2.2019999 -0.72000003 0
-1.385 2.0650001 -0.67500001 0
-1.392 2.0610001 -0.67500001 0
-1.576 2.066 -0.71100003 0
-1.591 2.072 -0.71499997 0
-1.632 2.1129999 -0.73400003 0
-3.4719999 4.4850001 -1.693 0.20999999
-3.49 4.4780002 -1.6950001 0.31999999
-3.497 4.4580002 -1.692 0.34
-3.5 4.448 -1.6900001 0.34
-3.5239999 4.4489999 -1.6950001 0.28999999
-3.5280001 4.4260001 -1.6900001 0.36000001
-3.543 4.4169998 -1.6900001 0.31
-3.5710001 4.4229999 -1.698 0.36000001
-3.573 4.3969998 -1.692 0.31999999
-3.5910001 4.3899999 -1.693 0.31999999
-3.5999999 4.388 -1.6950001 0.31999999
-3.608 4.369 -1.692 0.31999999
-3.6240001 4.3610001 -1.693 0.31999999
-3.6459999 4.3590002 -1.697 0.38
-3.6470001 4.3330002 -1.691 0.36000001
-3.6659999 4.3280001 -1.693 0.37
-3.684 4.322 -1.696 0.30000001
-3.6789999 4.302 -1.6900001 0.31999999
-3.6960001 4.2940001 -1.692 0.31999999
-3.7179999 4.2930002 -1.696 0.31999999
-3.7290001 4.2779999 -1.6950001 0.36000001
-3.74 4.2639999 -1.693 0.31
-3.7639999 4.263 -1.698 0.34999999
-3.7679999 4.2420001 -1.694 0.28999999
-3.7839999 4.2459998 -1.698 0.40000001
-3.8 4.237 -1.7 0.34
-3.8050001 4.2160001 -1.696 0.31
-3.822 4.2080002 -1.698 0.31999999
-3.8410001 4.2020001 -1.7 0.38999999
-3.845 4.1799998 -1.696 0.30000001
-3.8529999 4.1750002 -1.696 0.34
-3.8759999 4.1750002 -1.701 0.33000001
-3.892 4.165 -1.7029999 0.38
-3.8970001 4.145 -1.699 0.28999999
-3.9200001 4.1430001 -1.704 0.31999999
-3.9349999 4.132 -1.704 0.38
-3.95 4.1230001 -1.706 0.31
-3.9549999 4.1149998 -1.705 0.28
-3.964 4.099 -1.7029999 0.36000001
-3.9790001 4.0879998 -1.704 0.31999999
-4.0009999 4.085 -1.7079999 0.37
-4.0029998 4.0609999 -1.7029999 0.30000001
-4.0240002 4.0570002 -1.707 0.37
-4.0380001 4.0450001 -1.707 0.31999999
-4.0430002 4.0380001 -1.707 0.36000001
-4.0489998 4.0180001 -1.704 0.30000001
-4.0710001 4.0149999 -1.7079999 0.36000001
-4.072 3.9909999 -1.7029999 0.31999999
-4.0960002 3.9890001 -1.7079999 0.37
-4.1069999 3.9749999 -1.707 0.34
-4.1240001 3.9660001 -1.709 0.34
-4.1240001 3.954 -1.707 0.33000001
-4.1440001 3.948 -1.71 0.34
-4.1560001 3.9349999 -1.71 0.34999999
-4.164 3.918 -1.7079999 0.34
-4.1760001 3.905 -1.7079999 0.28999999
-4.1869998 3.8900001 -1.707 0.33000001
-4.2049999 3.882 -1.71 0.41999999
-4.211 3.8759999 -1.71 0.30000001
-4.2290001 3.868 -1.712 0.38
-4.2329998 3.8469999 -1.709 0.28999999
-4.257 3.845 -1.714 0.34999999
-4.2620001 3.825 -1.711 0.30000001
-4.2789998 3.8150001 -1.7130001 0.34999999
-4.2950001 3.806 -1.715 0.31999999
-4.2989998 3.7980001 -1.714 0.34
-4.3140001 3.7869999 -1.715 0.34
-4.3249998 3.7720001 -1.715 0.28
-4.3340001 3.756 -1.714 0.36000001
-4.3499999 3.7460001 -1.715 0.30000001
-4.3639998 3.7349999 -1.717 0.31999999
-4.375 3.72 -1.716 0.34
-4.3769999 3.71 -1.715 0.31999999
-4.3909998 3.698 -1.715 0.38999999
-4.395 3.678 -1.712 0.28999999
-4.4169998 3.6730001 -1.717 0.36000001
-4.4299998 3.6600001 -1.717 0.28999999
-4.4380002 3.6440001 -1.716 0.38
-4.447 3.6270001 -1.715 0.28999999
-4.46 3.6259999 -1.7180001 0.28999999
-4.4699998 3.6110001 -1.717 0.38
-4.4780002 3.595 -1.716 0.34999999
-4.5159998 3.602 -1.727 0.34999999
-4.5209999 3.5829999 -1.724 0.31
-4.5159998 3.556 -1.7180001 0.27000001
-4.5409999 3.5639999 -1.726 0.33000001
-4.5339999 3.536 -1.7180001 0.25
-4.5560002 3.53 -1.723 0.36000001
-4.5710001 3.5190001 -1.724 0.31
-4.5869999 3.5079999 -1.726 0.33000001
-4.6009998 3.4960001 -1.728 0.31999999
-4.6100001 3.48 -1.727 0.27000001
-4.6160002 3.473 -1.727 0.34
-4.6339998 3.464 -1.73 0.31999999
-4.6469998 3.451 -1.7309999 0.31999999
-4.6560001 3.4349999 -1.73 0.33000001
-4.6589999 3.415 -1.727 0.30000001
-4.6849999 3.411 -1.733 0.34
-4.684 3.388 -1.728 0.34
-4.698 3.3870001 -1.732 0.34
-4.7129998 3.375 -1.734 0.34
-4.7090001 3.3499999 -1.728 0.31
-4.7140002 3.3310001 -1.726 0.27000001
-4.7420001 3.329 -1.732 0.31999999
-4.7540002 3.3150001 -1.733 0.34
-4.75 3.29 -1.728 0.36000001
-4.7789998 3.299 -1.737 0.33000001
-4.77 3.2709999 -1.729 0.31
-4.7729998 3.2509999 -1.726 0.28999999
-4.802 3.2479999 -1.734 0.34999999
-4.7950001 3.2219999 -1.727 0.30000001
-4.8060002 3.2079999 -1.728 0.36000001
-4.8319998 3.2030001 -1.734 0.28999999
-4.8330002 3.1919999 -1.732 0.38999999
-4.836 3.1730001 -1.729 0.30000001
-4.8559999 3.164 -1.733 0.31999999
-4.8499999 3.138 -1.727 0.28999999
-4.8660002 3.1270001 -1.729 0.34999999
-4.882 3.1159999 -1.732 0.34
-4.8790002 3.092 -1.727 0.34
-4.8899999 3.089 -1.729 0.27000001
-4.914 3.0829999 -1.735 0.36000001
-4.8979998 3.0510001 -1.725 0.31999999
-4.9190001 3.043 -1.729 0.31999999
-4.9260001 3.0250001 -1.728 0.28999999
-4.9380002 3.0120001 -1.729 0.34999999
-4.941 2.9920001 -1.727 0.31999999
-4.954 2.9890001 -1.73 0.33000001
-4.9549999 2.9690001 -1.727 0.34999999
-4.9660001 2.954 -1.728 0.31
-4.9790001 2.941 -1.729 0.27000001
-4.9809999 2.921 -1.726 0.36000001
-4.994 2.9070001 -1.728 0.31999999
-5.0110002 2.9070001 -1.732 0.31999999
-5.0139999 2.888 -1.73 0.34999999
-5.0180001 2.869 -1.728 0.31999999
-5.0289998 2.8540001 -1.729 0.28999999
-5.0339999 2.836 -1.728 0.33000001
-5.04 2.819 -1.726 0.31999999
-5.0489998 2.803 -1.726 0.28999999
-5.0500002 2.793 -1.725 0.27000001
-5.0669999 2.7820001 -1.728 0.36000001
-5.0760002 2.766 -1.728 0.31999999
-5.073 2.743 -1.724 0.31999999
-5.0900002 2.7320001 -1.727 0.31
-5.098 2.7160001 -1.727 0.34
-5.1020002 2.697 -1.725 0.31999999
-5.1040001 2.688 -1.724 0.34
-5.118 2.675 -1.726 0.31999999
-5.1160002 2.654 -1.723 0.31999999
-5.1240001 2.638 -1.723 0.30000001
-5.1490002 2.6300001 -1.729 0.34999999
-5.1560001 2.6129999 -1.728 0.34
-5.178 2.6040001 -1.733 0.34
-5.2189999 2.615 -1.7460001 0.36000001
-5.2459998 2.608 -1.753 0.33000001
-5.2870002 2.6070001 -1.765 0.30000001
-5.3080001 2.5969999 -1.77 0.37
-5.3390002 2.592 -1.777 0.31999999
-5.3709998 2.5869999 -1.786 0.27000001
-5.3909998 2.575 -1.79 0.36000001
-5.4039998 2.5710001 -1.793 0.28999999
-5.408 2.553 -1.7920001 0.47999999
-5.48 2.566 -1.8150001 0.38999999
-5.4860001 2.5480001 -1.814 0.38999999
-5.5029998 2.5339999 -1.817 0.27000001
-5.5190001 2.5209999 -1.8200001 0.55000001
-5.5359998 2.5079999 -1.823 0.30000001
-5.5430002 2.5009999 -1.824 0.31999999
-5.5409999 2.4779999 -1.821 0.31999999
-5.5310001 2.4530001 -1.8150001 0.28999999
-5.5479999 2.4400001 -1.818 0.38
-5.5359998 2.414 -1.811 0.30000001
-5.5510001 2.3989999 -1.813 0.34999999
-5.5349998 2.382 -1.807 0.28
-5.5339999 2.3610001 -1.804 0.23
-5.552 2.348 -1.807 0.31999999
-5.552 2.3280001 -1.8049999 0
-5.5679998 2.3139999 -1.808 0
-5.6609998 1.671 -1.767 0.059999999
-5.6500001 1.648 -1.762 0.20999999
-5.6789999 1.637 -1.77 0.25999999
-5.665 1.614 -1.763 0.28
-5.665 1.595 -1.762 0.28
-5.6789999 1.579 -1.765 0.28999999
-5.6789999 1.5599999 -1.763 0.28999999
-5.6750002 1.55 -1.761 0.30000001
-5.691 1.535 -1.765 0.31999999
-5.6830001 1.513 -1.76 0.31
-5.6919999 1.497 -1.762 0.31
-5.6929998 1.478 -1.76 0.28
-5.6989999 1.46 -1.761 0.33000001
-5.7069998 1.443 -1.762 0.30000001
-5.7129998 1.4349999 -1.763 0.27000001
-5.7119999 1.416 -1.762 0.33000001
-5.717 1.398 -1.762 0.33000001
-5.7360001 1.3839999 -1.767 0.33000001
-5.7179999 1.36 -1.7589999 0.31
-5.7220001 1.342 -1.7589999 0.28999999
-5.737 1.327 -1.763 0.30000001
-5.7340002 1.317 -1.761 0.34999999
-5.7360001 1.298 -1.76 0.31
-5.7529998 1.283 -1.765 0.33000001
-5.7480001 1.263 -1.762 0.31999999
-5.737 1.242 -1.757 0.30000001
-5.763 1.228 -1.7640001 0.34999999
-5.7470002 1.206 -1.757 0.31999999
-5.7540002 1.198 -1.7589999 0.31999999
-5.7670002 1.182 -1.762 0.31999999
-5.7480001 1.159 -1.755 0.30000001
-5.7649999 1.1440001 -1.7589999 0.33000001
-5.7719998 1.126 -1.76 0.31999999
-5.763 1.1059999 -1.756 0.31999999
-5.7659998 1.097 -1.757 0.31999999
-5.7750001 1.08 -1.7589999 0.31999999
-5.7579999 1.058 -1.752 0.31999999
-5.7600002 1.039 -1.751 0.31999999
-5.7719998 1.023 -1.7539999 0.30000001
-5.7620001 1.003 -1.75 0.31999999
-5.7620001 0.98400003 -1.749 0.28
-5.776 0.977 -1.753 0.33000001
-5.763 0.95599997 -1.748 0.31
-5.7670002 0.93800002 -1.748 0.31
-5.7800002 0.92199999 -1.751 0.31999999
-5.7519999 0.89899999 -1.742 0.28
-5.7610002 0.88099998 -1.743 0.34
-5.7789998 0.866 -1.748 0.28999999
-5.7740002 0.85600001 -1.7460001 0.31999999
-5.7620001 0.83499998 -1.742 0.31999999
-5.7740002 0.81900001 -1.745 0.30000001
-5.7670002 0.79900002 -1.742 0.30000001
-5.7719998 0.78100002 -1.742 0.31
-5.776 0.76300001 -1.743 0.27000001
-5.7740002 0.745 -1.742 0.33000001
-5.7810001 0.736 -1.743 0.31999999
-5.7849998 0.71799999 -1.744 0.31999999
-5.776 0.699 -1.74 0.31
-5.777 0.68099999 -1.74 0.30000001
-5.7839999 0.66299999 -1.742 0.30000001
-5.7750001 0.64399999 -1.738 0.31
-5.7789998 0.62599999 -1.738 0.31
-5.7870002 0.61699998 -1.7410001 0.31
-5.7859998 0.59899998 -1.74 0.30000001
-5.7820001 0.57999998 -1.738 0.28999999
-5.7930002 0.56300002 -1.7410001 0.31999999
-5.7849998 0.54400003 -1.738 0.28999999
-5.7849998 0.52499998 -1.737 0.30000001
-5.7909999 0.50700003 -1.738 0.30000001
-5.7800002 0.49700001 -1.735 0.30000001
-5.7800002 0.479 -1.734 0.28999999
-5.7870002 0.461 -1.7359999 0.28999999
-5.7880001 0.44299999 -1.7359999 0.30000001
-5.7859998 0.42500001 -1.735 0.30000001
-5.7870002 0.40700001 -1.735 0.30000001
-5.7750001 0.38699999 -1.7309999 0.31
-5.789 0.37900001 -1.735 0.34
-5.7880001 0.361 -1.734 0.28999999
-5.776 0.34200001 -1.73 0.30000001
-5.7750001 0.324 -1.729 0.28999999
-5.7839999 0.30599999 -1.732 0.30000001
-5.7810001 0.28799999 -1.7309999 0.28999999
-5.7789998 0.278 -1.73 0.31
-5.7779999 0.25999999 -1.729 0.31
-5.7750001 0.242 -1.728 0.31
-5.7820001 0.22400001 -1.73 0.30000001
-5.7839999 0.206 -1.7309999 0.31999999
-5.777 0.18700001 -1.728 0.31
-5.7740002 0.169 -1.727 0.33000001
-5.7649999 0.16 -1.724 0.30000001
-5.7839999 0.142 -1.73 0.34999999
-5.7810001 0.124 -1.729 0.34999999
-5.7719998 0.105 -1.726 0.28
-5.7639999 0.086999997 -1.723 0.31999999
-5.776 0.068999998 -1.727 0.31999999
-5.776 0.050999999 -1.727 0.30000001
-5.7709999 0.041999999 -1.725 0.34
-5.776 0.024 -1.727 0.31999999
-5.7690001 0.0060000001 -1.724 0.31999999
-5.7589998 -0.012 -1.721 0.28
-5.7519999 -0.030999999 -1.719 0.30000001
-5.7649999 -0.048999999 -1.723 0.33000001
-5.7610002 -0.067000002 -1.722 0.31999999
-5.744 -0.075999998 -1.717 0.30000001
-5.757 -0.093999997 -1.721 0.36000001
-5.7389998 -0.112 -1.715 0.28999999
-5.743 -0.13 -1.717 0.31
-5.75 -0.148 -1.719 0.34999999
-5.7420001 -0.16599999 -1.717 0.31999999
-5.7449999 -0.184 -1.7180001 0.28999999
-5.7519999 -0.193 -1.72 0.34
-5.7420001 -0.211 -1.717 0.30000001
-5.743 -0.229 -1.7180001 0.33000001
-5.7389998 -0.24699999 -1.717 0.31999999
-5.7319999 -0.26499999 -1.715 0.27000001
-5.7329998 -0.28299999 -1.715 0.33000001
-5.7420001 -0.301 -1.7180001 0.31
-5.73 -0.31 -1.715 0.31999999
-5.7389998 -0.32800001 -1.7180001 0.28999999
-5.7470002 -0.347 -1.721 0.31
-5.7340002 -0.36399999 -1.717 0.31999999
-5.7410002 -0.38299999 -1.72 0.30000001
-5.7449999 -0.40099999 -1.721 0.31999999
-5.7309999 -0.41800001 -1.717 0.31999999
-5.73 -0.42699999 -1.717 0.28999999
-5.7360001 -0.44600001 -1.72 0.31
-5.777 -0.46700001 -1.733 0.31999999
-5.7719998 -0.47600001 -1.732 0.31999999
-5.7779999 -0.495 -1.734 0.30000001
-5.763 -0.51200002 -1.73 0.31
-5.7579999 -0.52899998 -1.729 0.31
-5.7750001 -0.54900002 -1.735 0.31999999
-5.7579999 -0.56599998 -1.73 0.30000001
-5.7529998 -0.58399999 -1.729 0.31999999
-5.7589998 -0.59299999 -1.7309999 0.31999999
-5.7540002 -0.611 -1.73 0.30000001
-5.75 -0.62900001 -1.729 0.31999999
-5.7519999 -0.64700001 -1.7309999 0.30000001
-5.744 -0.66500002 -1.729 0.30000001
-5.744 -0.68300003 -1.729 0.31999999
-5.757 -0.70300001 -1.734 0.30000001
-5.744 -0.71100003 -1.7309999 0.28999999
-5.7420001 -0.72899997 -1.7309999 0.30000001
-5.7449999 -0.74699998 -1.732 0.31
-5.7449999 -0.76599997 -1.733 0.34
-5.7399998 -0.78399998 -1.732 0.30000001
-5.744 -0.80199999 -1.734 0.28999999
-5.7280002 -0.81900001 -1.73 0.28999999
-5.7379999 -0.829 -1.734 0.28999999
-5.7329998 -0.847 -1.733 0.31999999
-5.7270002 -0.86400002 -1.732 0.28
-5.7199998 -0.88200003 -1.7309999 0.28999999
-5.7309999 -0.90200001 -1.735 0.31999999
-5.711 -0.917 -1.729 0.27000001
-5.704 -0.92500001 -1.728 0.30000001
-5.724 -0.94700003 -1.735 0.30000001
-5.711 -0.963 -1.732 0.30000001
-5.704 -0.98000002 -1.7309999 0.30000001
-5.7160001 -1.001 -1.735 0.31999999
-5.717 -1.02 -1.737 0.31
-5.697 -1.034 -1.7309999 0.25999999
-5.691 -1.043 -1.73 0.30000001
-5.6880002 -1.061 -1.73 0.30000001
-5.6789999 -1.077 -1.728 0.30000001
-5.6939998 -1.099 -1.734 0.30000001
-5.6799998 -1.115 -1.7309999 0.31
-5.6869998 -1.135 -1.734 0.31999999
-5.684 -1.152 -1.734 0.30000001
-5.6560001 -1.156 -1.726 0.28
-5.658 -1.175 -1.728 0.30000001
-5.6669998 -1.196 -1.732 0.33000001
-5.6539998 -1.211 -1.729 0.31999999
-5.6539998 -1.23 -1.73 0.31
-5.6560001 -1.249 -1.732 0.30000001
-5.6440001 -1.265 -1.729 0.31
-5.638 -1.273 -1.728 0.30000001
-5.6550002 -1.295 -1.735 0.34999999
-5.632 -1.309 -1.729 0.31
-5.632 -1.327 -1.73 0.31
-5.6370001 -1.347 -1.733 0.31
-5.6079998 -1.359 -1.725 0.28999999
-5.6059999 -1.377 -1.726 0.34
-5.6279998 -1.392 -1.734 0.31999999
-5.6160002 -1.408 -1.7309999 0.31999999
-5.6009998 -1.423 -1.728 0.31
-5.605 -1.443 -1.7309999 0.28
-5.5970001 -1.459 -1.729 0.34
-5.5999999 -1.479 -1.732 0.31999999
-5.5949998 -1.4960001 -1.732 0.30000001
-5.5869999 -1.5039999 -1.73 0.34
-5.573 -1.5190001 -1.727 0.25999999
-5.5830002 -1.54 -1.732 0.28999999
-5.5799999 -1.558 -1.732 0
-5.5679998 -1.574 -1.73 0
-5.4060001 -2.1240001 -1.737 0
-5.4070001 -2.1440001 -1.74 0.059999999
-5.395 -2.1589999 -1.738 0.19
-5.4159999 -2.177 -1.7460001 0.25
-5.4000001 -2.191 -1.743 0.25
-5.388 -2.2060001 -1.742 0.28999999
-5.3870001 -2.2249999 -1.743 0.30000001
-5.369 -2.237 -1.74 0.28
-5.3730001 -2.2579999 -1.743 0.33000001
-5.3779998 -2.2709999 -1.7460001 0.30000001
-5.3639998 -2.2850001 -1.744 0.30000001
-5.3600001 -2.303 -1.745 0.30000001
-5.3579998 -2.322 -1.747 0.28999999
-5.3309999 -2.3299999 -1.74 0.25999999
-5.3270001 -2.349 -1.742 0.34
-5.3410001 -2.375 -1.749 0.28999999
-5.329 -2.3789999 -1.7460001 0.33000001
-5.3119998 -2.392 -1.743 0.30000001
-5.3130002 -2.4130001 -1.7460001 0.31999999
-5.3039999 -2.428 -1.745 0.34
-5.2789998 -2.437 -1.739 0.22
-5.2280002 -2.434 -1.724 0.07
-5.1479998 -2.4170001 -1.698 0
-4.6869998 -2.2119999 -1.5369999 0
-4.6160002 -2.1960001 -1.5140001 0
-4.5710001 -2.1930001 -1.501 0
-4.5180001 -2.1849999 -1.485 0
-4.473 -2.181 -1.471 0
-4.4219999 -2.174 -1.455 0
-4.3839998 -2.1719999 -1.444 0
-4.3330002 -2.1559999 -1.427 0
-4.2800002 -2.1470001 -1.411 0
-4.237 -2.142 -1.398 0
-4.2030001 -2.142 -1.388 0
-4.1339998 -2.1229999 -1.3660001 0.1
-4.0760002 -2.1099999 -1.347 0.15000001
-4.1009998 -2.1389999 -1.359 0.15000001
-4.0830002 -2.138 -1.354 0
-4.0219998 -2.1229999 -1.334 0
-3.9449999 -2.098 -1.308 0
-3.9230001 -2.102 -1.303 0
-3.908 -2.1099999 -1.3 0
-3.8540001 -2.0969999 -1.283 0
-3.8310001 -2.0929999 -1.276 0
-3.839 -2.1129999 -1.281 0
-3.822 -2.119 -1.277 0
-3.7420001 -2.0910001 -1.251 0
-3.6989999 -2.082 -1.237 0
-3.6730001 -2.0829999 -1.23 0.029999999
-3.6129999 -2.0639999 -1.21 0.029999999
-3.5999999 -2.0639999 -1.207 0.039999999
-3.6029999 -2.0810001 -1.21 0.07
-3.5799999 -2.0829999 -1.204 0.079999998
-3.5550001 -2.0840001 -1.198 0.039999999
-3.5539999 -2.098 -1.199 0.07
-3.5179999 -2.092 -1.188 0.039999999
-3.4649999 -2.076 -1.171 0.17
-3.4619999 -2.0810001 -1.171 0.20999999
-3.424 -2.073 -1.16 0.18000001
-3.421 -2.086 -1.161 0.25
-3.411 -2.095 -1.16 0.25
-3.3800001 -2.0910001 -1.151 0.25
-3.3729999 -2.1010001 -1.151 0.2
-3.365 -2.1110001 -1.15 0.1
-3.336 -2.0999999 -1.14 0.18000001
-3.323 -2.1070001 -1.138 0.2
-3.3099999 -2.1129999 -1.136 0.1
-3.2820001 -2.1099999 -1.128 0.19
-3.276 -2.1199999 -1.128 0.1
-3.2590001 -2.125 -1.124 0.18000001
-3.2409999 -2.128 -1.12 0.22
-3.217 -2.119 -1.112 0.19
-3.223 -2.138 -1.117 0.25
-3.188 -2.1289999 -1.1059999 0.23999999
-3.191 -2.145 -1.109 0.25
-3.165 -2.142 -1.102 0.23999999
-3.1600001 -2.1530001 -1.103 0.2
-3.1359999 -2.152 -1.096 0.38
-3.1470001 -2.1659999 -1.101 0.28999999
-3.1240001 -2.165 -1.095 0.62
-3.1630001 -2.2060001 -1.113 0.31
-3.148 -2.211 -1.11 0.23
-3.138 -2.2190001 -1.109 0.2
-3.1340001 -2.2309999 -1.11 0.27000001
-3.135 -2.2390001 -1.112 0.19
-3.1159999 -2.24 -1.107 0.2
-3.1210001 -2.2590001 -1.112 0.47
-3.1070001 -2.2780001 -1.112 0.36000001
-3.1700001 -2.339 -1.14 0.19
-3.178 -2.3610001 -1.146 0.34
-3.0320001 -2.276 -1.092 0.18000001
-3.115 -2.3529999 -1.128 0.20999999
-3.1070001 -2.3610001 -1.128 0.050000001
-3.1099999 -2.3789999 -1.132 0.16
-3.1199999 -2.4030001 -1.1390001 0.2
-3.0669999 -2.378 -1.1210001 0.16
-3.0550001 -2.375 -1.117 0.36000001
-3.0469999 -2.385 -1.117 0.34
-3.0699999 -2.418 -1.1289999 0.1
-3.0669999 -2.431 -1.131 0.079999998
-3.0840001 -2.461 -1.142 0.079999998
-3.099 -2.4879999 -1.151 0.16
-3.053 -2.467 -1.135 0.2
-3.0550001 -2.477 -1.137 0.28999999
-3.053 -2.4909999 -1.14 0.1
-3.049 -2.5039999 -1.142 0.15000001
-3.0250001 -2.5 -1.135 0.18000001
-3.0009999 -2.497 -1.128 0.41999999
-2.9960001 -2.5079999 -1.1289999 0.23
-2.9909999 -2.5120001 -1.1289999 0.36000001
-3.0050001 -2.54 -1.138 0.31999999
-3.0569999 -2.599 -1.163 0.75
-2.9690001 -2.5409999 -1.1289999 0.31999999
-2.9300001 -2.5250001 -1.117 0.17
-2.9119999 -2.5250001 -1.112 0.14
-2.8970001 -2.5280001 -1.109 0.23
-2.8870001 -2.5280001 -1.107 0.61000001
-2.8829999 -2.5409999 -1.109 0.34
-2.914 -2.5829999 -1.125 0.050000001
-2.9100001 -2.596 -1.127 0.17
-2.905 -2.608 -1.128 0.050000001
-2.9489999 -2.664 -1.151 0.15000001
-2.9130001 -2.648 -1.1390001 0.050000001
-2.918 -2.661 -1.143 0.079999998
-2.8959999 -2.658 -1.137 0.14
-2.8970001 -2.6760001 -1.141 0.17
-2.892 -2.687 -1.142 0.16
-2.882 -2.6949999 -1.142 0.16
-2.8900001 -2.72 -1.149 0.16
-2.862 -2.711 -1.14 0.039999999
-2.9000001 -2.7539999 -1.159 0.07
-2.855 -2.7290001 -1.143 0.090000004
-2.8570001 -2.7490001 -1.148 0.15000001
-2.8499999 -2.7590001 -1.148 0.039999999
-2.8299999 -2.757 -1.143 0.07
-2.8299999 -2.7739999 -1.147 0.039999999
-2.825 -2.7869999 -1.149 0.039999999
-2.8110001 -2.7820001 -1.145 0.039999999
-2.8199999 -2.8080001 -1.153 0.07
-2.8110001 -2.8169999 -1.153 0.13
-2.8150001 -2.8380001 -1.158 0.23999999
-2.786 -2.8269999 -1.149 0.18000001
-2.7969999 -2.8559999 -1.158 0.23999999
-2.7820001 -2.849 -1.153 0.23999999
-2.7809999 -2.8659999 -1.1569999 0.20999999
-2.7850001 -2.8889999 -1.163 0.25
-2.779 -2.9000001 -1.164 0.2
-2.7679999 -2.9070001 -1.164 0.25
-2.767 -2.924 -1.1670001 0.23999999
-2.7539999 -2.9289999 -1.165 0.20999999
-2.766 -2.951 -1.173 0.25
-2.756 -2.9579999 -1.173 0.23
-2.744 -2.964 -1.171 0.2
-2.7490001 -2.9879999 -1.178 0.25
-2.744 -3.0020001 -1.181 0.23
-2.7409999 -3.0179999 -1.184 0.2
-2.7360001 -3.0309999 -1.1849999 0.25
-2.737 -3.0420001 -1.188 0.22
-2.7290001 -3.052 -1.189 0.2
-2.7349999 -3.0780001 -1.196 0.25
-2.7260001 -3.0880001 -1.197 0.20999999
-2.7179999 -3.098 -1.198 0.12
-2.72 -3.119 -1.2029999 0.2
-2.7249999 -3.145 -1.21 0.14
-2.7420001 -3.175 -1.221 0.15000001
-2.727 -3.178 -1.219 0.55000001
-2.664 -3.1240001 -1.193 0.36000001
-2.7160001 -3.2049999 -1.223 0.1
-2.7179999 -3.2279999 -1.229 0.090000004
-2.723 -3.2539999 -1.237 0.039999999
-2.733 -3.276 -1.244 0.039999999
-2.7479999 -3.3150001 -1.257 0
-2.74 -3.326 -1.258 0
-2.743 -3.3510001 -1.265 0
-2.7520001 -3.3829999 -1.274 0
-2.7820001 -3.4419999 -1.295 0
-2.767 -3.4449999 -1.293 0.059999999
-3.438 -4.2839999 -1.636 0.12
-3.434 -4.3070002 -1.641 0.28
-3.415 -4.3109999 -1.6390001 0.36000001
-3.4030001 -4.3239999 -1.6390001 0.31999999
-3.398 -4.3449998 -1.643 0.34
-3.375 -4.3429999 -1.6390001 0.34
-3.3610001 -4.3540001 -1.6390001 0.31999999
-3.346 -4.349 -1.6339999 0.28
-3.3340001 -4.362 -1.636 0.34999999
-3.323 -4.3759999 -1.637 0.34
-3.3210001 -4.401 -1.643 0.31999999
-3.2980001 -4.4000001 -1.638 0.31
-3.279 -4.4039998 -1.636 0.31999999
-3.2620001 -4.4099998 -1.6339999 0.31999999
-3.2539999 -4.4130001 -1.633 0.28
-3.2479999 -4.434 -1.637 0.37
-3.233 -4.4429998 -1.637 0.28999999
-3.2079999 -4.4369998 -1.631 0.30000001
-3.191 -4.4429998 -1.6289999 0.36000001
-3.1830001 -4.4619999 -1.633 0.40000001
-3.178 -4.4699998 -1.6339999 0.38
-3.1530001 -4.4650002 -1.628 0.30000001
-3.1559999 -4.4980001 -1.637 0.38
-3.1270001 -4.4879999 -1.6289999 0.2
-1.492 -2.1789999 -0.72399998 0.2
-1.47 -2.1619999 -0.71600002 0.41999999
-1.466 -2.171 -0.71799999 0.33000001
-1.455 -2.1619999 -0.713 0.44
-1.4529999 -2.1730001 -0.71600002 0.34
-1.429 -2.1530001 -0.70599997 0.44999999
-1.429 -2.1670001 -0.70999998 0.34
-1.406 -2.1470001 -0.70099998 0.58999997
-1.399 -2.152 -0.70099998 0.25999999
-1.387 -2.148 -0.69800001 0.41
-1.386 -2.1530001 -0.699 0.34
-1.364 -2.135 -0.69 0.52999997
-1.364 -2.1489999 -0.69400001 0.33000001
-1.354 -2.1489999 -0.69199997 0.44999999
-1.344 -2.148 -0.69 0.34999999
-1.325 -2.1329999 -0.68300003 0.56
-1.33 -2.155 -0.69 0.33000001
-1.312 -2.135 -0.68099999 0.47
-1.308 -2.1440001 -0.68300003 0.34999999
-1.298 -2.141 -0.68099999 0.46000001
-1.29 -2.1440001 -0.68000001 0.34999999
-1.276 -2.1359999 -0.676 0.47
-1.271 -2.142 -0.676 0.34999999
-1.258 -2.1289999 -0.671 0.46000001
-1.2539999 -2.1359999 -0.67199999 0.34
-1.25 -2.145 -0.67400002 0.46000001
-1.232 -2.131 -0.667 0.34999999
-1.22 -2.125 -0.66299999 0.56999999
-1.215 -2.132 -0.66500002 0.34
-1.201 -2.1229999 -0.66000003 0.46000001
-1.2 -2.1300001 -0.662 0.34
-1.187 -2.122 -0.65700001 0.46000001
-1.184 -2.132 -0.66000003 0.34999999
-1.1720001 -2.1259999 -0.65600002 0.46000001
-1.168 -2.135 -0.65799999 0.34999999
-1.149 -2.1170001 -0.64999998 0.56999999
-1.149 -2.132 -0.65399998 0.34
-1.141 -2.125 -0.65100002 0.46000001
-1.132 -2.1240001 -0.64899999 0.36000001
-1.1210001 -2.1210001 -0.64700001 0.5
-1.12 -2.1340001 -0.65100002 0.38
-1.108 -2.128 -0.64700001 0.50999999
-1.107 -2.1429999 -0.65100002 0.38999999
-1.0880001 -2.1229999 -0.64300001 0.60000002
-1.023 -2.007 -0.60000002 0
-1.084 -2.138 -0.64600003 0
-1.082 -2.152 -0.64999998 0
-1.072 -2.148 -0.648 0
-1.249 -2.533 -0.78299999 0.25999999
-1.248 -2.5409999 -0.78500003 0.31999999
-1.248 -2.5610001 -0.79100001 0.36000001
-1.252 -2.5880001 -0.79900002 0.44999999
-1.152 -2.4059999 -0.73299998 0
-1.2180001 -2.5599999 -0.78600001 0
-1.197 -2.5369999 -0.77700001 0
-1.2 -2.5639999 -0.78500003 0
-1.199 -2.573 -0.78799999 0.02
-1.204 -2.605 -0.79699999 0.15000001
-1.199 -2.615 -0.80000001 0.25
-1.181 -2.596 -0.792 0.28
-1.174 -2.6040001 -0.79299998 0.28
-1.161 -2.5969999 -0.79000002 0.31
-1.158 -2.6110001 -0.79299998 0.34999999
-1.1569999 -2.6199999 -0.796 0.31999999
-1.145 -2.615 -0.79299998 0.31999999
-1.136 -2.6170001 -0.792 0.27000001
-1.1390001 -2.6459999 -0.801 0.34999999
-1.125 -2.6359999 -0.796 0.27000001
-1.1210001 -2.6500001 -0.80000001 0.31
-1.122 -2.674 -0.80699998 0.34
-1.112 -2.664 -0.80299997 0.28999999
-1.1059999 -2.6730001 -0.80500001 0.34
-1.058 -2.5829999 -0.77200001 0.25
-1.0319999 -2.5420001 -0.75700003 0.41
-1.033 -2.5669999 -0.76499999 0.37
-1.028 -2.579 -0.76800001 0.28999999
-1.0190001 -2.5680001 -0.76300001 0.28999999
-1.003 -2.552 -0.75700003 0.23999999
-0.99900001 -2.5639999 -0.75999999 0.27000001
-0.98100001 -2.5420001 -0.75099999 0.23999999
-0.96399999 -2.5220001 -0.74299997 0.1
-0.954 -2.52 -0.741 0.2
-0.93099999 -2.484 -0.72799999 0.19
-0.92500001 -2.4820001 -0.727 0.20999999
-0.91799998 -2.4860001 -0.727 0.27000001
-0.90600002 -2.4779999 -0.72399998 0.25999999
-0.898 -2.4790001 -0.72299999 0.25999999
-0.93599999 -2.6059999 -0.76499999 0.27000001
-0.96399999 -2.707 -0.79900002 0.34
-0.95999998 -2.7219999 -0.80299997 0.38999999
-0.95899999 -2.7349999 -0.80699998 0.34999999
-0.95099998 -2.7379999 -0.80699998 0.37
-0.94 -2.7349999 -0.80500001 0.38
-0.93199998 -2.7379999 -0.80500001 0.44999999
-0.92000002 -2.7320001 -0.80199999 0.36000001
-0.91100001 -2.7349999 -0.80199999 0.41999999
-0.89999998 -2.7309999 -0.79900002 0.37
-0.89499998 -2.7279999 -0.79799998 0.38999999
-0.88599998 -2.7290001 -0.79699999 0.38999999
-0.87900001 -2.7379999 -0.79900002 0.40000001
-0.86299998 -2.7190001 -0.792 0.38
-0.85500002 -2.723 -0.79299998 0.38999999
-0.85000002 -2.737 -0.796 0.34999999
-0.84200001 -2.7249999 -0.792 0.41
-0.83200002 -2.724 -0.79100001 0.36000001
-0.82499999 -2.7309999 -0.792 0.37
-0.81099999 -2.717 -0.78600001 0.44
-0.81599998 -2.763 -0.801 0.37
-0.81199998 -2.7820001 -0.80699998 0.38
-0.773 -2.6819999 -0.77200001 0.18000001
-0.77999997 -2.7219999 -0.78500003 0
-0.63700002 -2.2650001 -0.63200003 0
-0.597 -2.1559999 -0.59500003 0
-0.583 -2.132 -0.58700001 0
-0.57999998 -2.1470001 -0.59100002 0
-0.55299997 -2.1140001 -0.579 0.31
-0.54299998 -2.1029999 -0.57499999 0.43000001
-0.54000002 -2.118 -0.579 0.37
-0.54299998 -2.155 -0.58999997 0.63
-0.449 -1.823 -0.47999999 0
-0.51099998 -2.0880001 -0.56699997 0
-0.51599997 -2.122 -0.57800001 0
-0.759 -3.155 -0.917 0.19
-0.74400002 -3.1329999 -0.91000003 0.47999999
-0.72299999 -3.089 -0.89399999 0.30000001
-0.71499997 -3.102 -0.898 0.31
-0.70700002 -3.108 -0.89899999 0.27000001
-0.708 -3.135 -0.90799999 0.36000001
-0.70200002 -3.1559999 -0.91399997 0.34
-0.69700003 -3.177 -0.92000002 0.34
-0.71799999 -3.3199999 -0.96600002 0.25999999
-0.72299999 -3.3900001 -0.98799998 0.47
-0.67699999 -3.23 -0.935 0.23
-0.46399999 -2.2880001 -0.62599999 0.28
-0.46000001 -2.286 -0.62599999 0.28999999
-0.45199999 -2.286 -0.625 0.34
-0.44400001 -2.28 -0.62300003 0.37
-0.43799999 -2.2869999 -0.62400001 0.37
-0.43200001 -2.2939999 -0.62599999 0.38
-0.42300001 -2.2880001 -0.62400001 0.36000001
-0.421 -2.2980001 -0.62699997 0.36000001
-0.417 -2.3139999 -0.63200003 0.36000001
-0.412 -2.3269999 -0.63499999 0.38
-0.40400001 -2.3280001 -0.63499999 0.34999999
-0.40099999 -2.3499999 -0.64200002 0.31999999
-0.398 -2.375 -0.64999998 0.34
-0.391 -2.3800001 -0.65100002 0.31
-0.39300001 -2.4170001 -0.66299999 0.31999999
-0.38699999 -2.424 -0.66500002 0.28
-0.38499999 -2.457 -0.67500001 0.31
-0.38 -2.48 -0.68199998 0.28999999
-0.37599999 -2.5 -0.68800002 0
-0.40200001 -2.7179999 -0.75800002 0
-0.40200001 -2.776 -0.77700001 0
-0.39399999 -2.75 -0.76800001 0
-0.39300001 -2.806 -0.78600001 0.11
-0.38699999 -2.822 -0.79100001 0.12
-0.38100001 -2.842 -0.79699999 0.34
-0.373 -2.8570001 -0.801 0.34999999
-0.36700001 -2.8789999 -0.80800003 0.34
-0.35800001 -2.878 -0.80699998 0.31
-0.35800001 -2.914 -0.81900001 0.38999999
-0.352 -2.9400001 -0.82700002 0.38999999
-0.34299999 -2.941 -0.82700002 0.31999999
-0.338 -2.974 -0.83700001 0.31
-0.333 -3.013 -0.84899998 0.36000001
-0.32499999 -3.0309999 -0.85500002 0.38
-0.32100001 -3.0339999 -0.85500002 0.37
-0.31299999 -3.046 -0.85900003 0.28
-0.30599999 -3.075 -0.86799997 0.36000001
-0.29899999 -3.0969999 -0.875 0.44999999
-0.29100001 -3.1210001 -0.88200003 0.36000001
-0.28099999 -3.1199999 -0.88200003 0.31
-0.273 -3.1400001 -0.88800001 0.36000001
-0.26899999 -3.1530001 -0.89200002 0.36000001
-0.25999999 -3.158 -0.89300001 0.34
-0.25099999 -3.1719999 -0.89700001 0.36000001
-0.244 -3.2030001 -0.90700001 0.38
-0.233 -3.191 -0.903 0.36000001
-0.22499999 -3.224 -0.91299999 0.34999999
-0.22400001 -3.348 -0.95300001 0.31
-0.22 -3.3610001 -0.95700002 0.37
-0.20900001 -3.3529999 -0.954 0.31
-0.2 -3.3800001 -0.963 0.34999999
-0.18799999 -3.358 -0.95499998 0.31
-0.178 -3.3640001 -0.95700002 0.33000001
-0.167 -3.372 -0.95899999 0.31999999
-0.161 -3.3510001 -0.95300001 0.33000001
-0.15099999 -3.3629999 -0.95599997 0.31999999
-0.141 -3.368 -0.958 0.34
-0.13 -3.358 -0.95499998 0.33000001
-0.119 -3.3629999 -0.95599997 0.31999999
-0.109 -3.369 -0.958 0.36000001
-0.097999997 -3.348 -0.95099998 0.31
-0.093000002 -3.358 -0.954 0.31999999
-0.082000002 -3.362 -0.95499998 0.31999999
-0.071000002 -3.3529999 -0.95200002 0.33000001
-0.061000001 -3.3429999 -0.949 0.33000001
-0.050000001 -3.3570001 -0.95300001 0.34
-0.039999999 -3.345 -0.94999999 0.34
-0.028999999 -3.3440001 -0.949 0.33000001
-0.024 -3.359 -0.954 0.34
-0.013 -3.348 -0.94999999 0.34
-0.003 -3.346 -0.94999999 0.34999999
0.0080000004 -3.3570001 -0.95300001 0.34999999
0.017999999 -3.348 -0.94999999 0.34999999
0.028999999 -3.348 -0.94999999 0.34
0.039000001 -3.3529999 -0.95200002 0.34
0.044 -3.355 -0.95300001 0.34
0.055 -3.345 -0.94999999 0.34999999
0.066 -3.358 -0.954 0.36000001
0.075999998 -3.339 -0.94800001 0.34999999
0.086000003 -3.3429999 -0.949 0.36000001
0.097000003 -3.342 -0.949 0.34999999
0.102 -3.3380001 -0.94800001 0.36000001
0.112 -3.3340001 -0.94700003 0.34999999
0.123 -3.342 -0.949 0.33000001
0.134 -3.339 -0.949 0.37
0.14399999 -3.3410001 -0.949 0.33000001
0.155 -3.3380001 -0.949 0.34
0.16500001 -3.3299999 -0.94599998 0.34
0.17 -3.332 -0.94700003 0.34999999
0.18099999 -3.3410001 -0.94999999 0.34999999
0.192 -3.3440001 -0.95099998 0.34
0.20100001 -3.326 -0.94499999 0.34999999
0.212 -3.3369999 -0.949 0.34
0.223 -3.3340001 -0.949 0.37
0.233 -3.332 -0.94800001 0.36000001
0.23899999 -3.339 -0.94999999 0.34999999
0.248 -3.3269999 -0.94700003 0.31999999
0.26100001 -3.358 -0.95700002 0.15000001
0.26800001 -3.312 -0.94199997 0.13
0.185 -2.0780001 -0.54699999 0.22
0.189 -2.053 -0.53899997 0.18000001
0.19499999 -2.0769999 -0.54699999 0.20999999
0.20100001 -2.0710001 -0.54500002 0.34
0.20900001 -2.0929999 -0.55299997 0.28
0.215 -2.085 -0.55000001 0.52999997
0.221 -2.082 -0.55000001 0.31999999
0.228 -2.0799999 -0.54900002 0.58999997
0.235 -2.0829999 -0.55000001 0.43000001
0.237 -2.073 -0.54699999 0.25
0.244 -2.0739999 -0.54799998 0.37
0.25299999 -2.1040001 -0.55699998 0.30000001
0.25799999 -2.0840001 -0.551 0.47999999
0.26499999 -2.089 -0.55299997 0.37
0.27200001 -2.0940001 -0.55500001 0.43000001
0.27500001 -2.0910001 -0.55400002 0.52999997
0.278 -2.056 -0.54299998 0
0.289 -2.0969999 -0.55699998 0
0.294 -2.079 -0.551 0
0.294 -2.033 -0.537 0
0.49000001 -3.3559999 -0.96399999 0
1.546 -2.848 -0.91600001 0
1.541 -2.8269999 -0.91000003 0
1.551 -2.8239999 -0.91000003 0.050000001
1.564 -2.8280001 -0.91299999 0.079999998
1.572 -2.8210001 -0.91299999 0.2
1.58 -2.8150001 -0.912 0.23999999
1.599 -2.8280001 -0.91900003 0.28999999
1.6059999 -2.8299999 -0.92000002 0.28999999
1.608 -2.8139999 -0.91600001 0.30000001
1.623 -2.819 -0.92000002 0.31999999
1.64 -2.8280001 -0.92500001 0.31
1.652 -2.8280001 -0.92699999 0.34999999
1.6619999 -2.825 -0.92799997 0.30000001
1.679 -2.8340001 -0.93300003 0.30000001
1.689 -2.8410001 -0.93699998 0.33000001
1.698 -2.836 -0.93699998 0.30000001
1.716 -2.845 -0.94199997 0.34
1.725 -2.8399999 -0.94199997 0.31999999
1.738 -2.8410001 -0.94499999 0.30000001
1.7640001 -2.865 -0.95599997 0.31999999
1.771 -2.865 -0.95700002 0.30000001
1.776 -2.8529999 -0.95499998 0.23
1.806 -2.882 -0.96700001 0.27000001
1.7869999 -2.8310001 -0.94999999 0.12
2.938 -4.6539998 -1.64 0.22
2.938 -4.6209998 -1.631 0.40000001
2.9530001 -4.6129999 -1.631 0.31
2.9649999 -4.6149998 -1.6339999 0.5
2.984 -4.6139998 -1.637 0.40000001
3.0020001 -4.6090002 -1.6390001 0.31
3.006 -4.5840001 -1.633 0.38
3.03 -4.5879998 -1.638 0.38
3.0409999 -4.5739999 -1.636 0.31
3.0539999 -4.5630002 -1.636 0.36000001
3.063 -4.5609999 -1.637 0.34999999
3.072 -4.5440001 -1.6339999 0.38
3.0880001 -4.5359998 -1.6339999 0.40000001
3.112 -4.54 -1.64 0.34999999
3.118 -4.5190001 -1.636 0.38
3.1389999 -4.5190001 -1.6390001 0.44999999
3.1559999 -4.5139999 -1.641 0.38999999
3.154 -4.4949999 -1.636 0.36000001
3.1719999 -4.4910002 -1.638 0.36000001
3.1949999 -4.493 -1.643 0.38
3.2019999 -4.473 -1.6390001 0.34999999
3.217 -4.4640002 -1.6390001 0.43000001
3.234 -4.4580002 -1.641 0.34
3.24 -4.4520001 -1.64 0.40000001
3.257 -4.4460001 -1.642 0.41
3.2720001 -4.4380002 -1.643 0.36000001
3.2820001 -4.421 -1.64 0.37
3.299 -4.415 -1.642 0.41
3.316 -4.4099998 -1.6440001 0.36000001
3.3280001 -4.3959999 -1.643 0.38999999
3.336 -4.3920002 -1.643 0.34
3.3529999 -4.3860002 -1.645 0.33000001
3.3629999 -4.3709998 -1.643 0.31999999
3.385 -4.3709998 -1.648 0.31
3.395 -4.3559999 -1.646 0.31999999
3.4070001 -4.342 -1.645 0.25
3.4260001 -4.3390002 -1.648 0.38
3.441 -4.3439999 -1.652 0.38999999
3.448 -4.3249998 -1.648 0.28
3.464 -4.3169999 -1.65 0.30000001
3.4809999 -4.3099999 -1.651 0.34
3.4920001 -4.296 -1.65 0.31999999
3.5020001 -4.2810001 -1.648 0.31999999
3.5239999 -4.2800002 -1.653 0.34
3.5179999 -4.2600002 -1.647 0.27000001
3.5439999 -4.2639999 -1.653 0.34999999
3.5599999 -4.2550001 -1.654 0.34
3.569 -4.2399998 -1.652 0.30000001
3.5829999 -4.2280002 -1.652 0.38999999
3.5999999 -4.2220001 -1.654 0.28999999
3.608 -4.217 -1.654 0.34999999
3.6240001 -4.21 -1.656 0.31999999
3.641 -4.2030001 -1.658 0.33000001
3.6470001 -4.1830001 -1.654 0.28999999
3.6600001 -4.1719999 -1.654 0.28999999
3.6830001 -4.1719999 -1.659 0.33000001
3.694 -4.1570001 -1.658 0.34
3.704 -4.1560001 -1.66 0.40000001
3.724 -4.151 -1.663 0.43000001
3.7320001 -4.1339998 -1.661 0.41
3.7509999 -4.1290002 -1.664 0.37
3.7590001 -4.112 -1.661 0.31999999
3.7720001 -4.0999999 -1.661 0.30000001
3.7780001 -4.0939999 -1.661 0.28
3.799 -4.0900002 -1.665 0.36000001
3.8039999 -4.0700002 -1.661 0.33000001
3.8269999 -4.0689998 -1.666 0.36000001
3.845 -4.0630002 -1.668 0.28999999
3.852 -4.0450001 -1.666 0.33000001
3.858 -4.026 -1.663 0.31
3.8740001 -4.0300002 -1.6670001 0.34999999
3.875 -4.0050001 -1.6619999 0.31999999
3.8940001 -4 -1.665 0.31
3.914 -3.9960001 -1.668 0.31999999
3.9260001 -3.9820001 -1.668 0.31
3.9419999 -3.974 -1.67 0.31
3.9549999 -3.961 -1.67 0.30000001
3.9549999 -3.95 -1.6670001 0.31
3.9809999 -3.951 -1.673 0.34
3.9990001 -3.944 -1.676 0.33000001
3.994 -3.914 -1.668 0.25
4.0089998 -3.904 -1.669 0.34
4.0289998 -3.8989999 -1.673 0.36000001
4.026 -3.8829999 -1.668 0.37
4.0370002 -3.869 -1.668 0.28999999
4.0650001 -3.8729999 -1.675 0.36000001
4.0619998 -3.845 -1.668 0.27000001
4.0830002 -3.8399999 -1.6720001 0.40000001
4.1020002 -3.8340001 -1.675 0.36000001
4.1110001 -3.819 -1.674 0.38
4.1199999 -3.8150001 -1.675 0.34
4.1409998 -3.8110001 -1.679 0.31
4.1420002 -3.7869999 -1.675 0.31999999
4.1550002 -3.776 -1.675 0.34
4.178 -3.773 -1.6799999 0.31999999
4.1830001 -3.753 -1.677 0.31999999
4.1880002 -3.7460001 -1.676 0.31999999
4.2119999 -3.744 -1.682 0.33000001
4.21 -3.7179999 -1.676 0.31999999
4.2340002 -3.7160001 -1.681 0.34
4.2470002 -3.704 -1.682 0.31999999
4.2529998 -3.6860001 -1.679 0.31999999
4.2729998 -3.6800001 -1.683 0.31
4.2880001 -3.6800001 -1.687 0.36000001
4.2859998 -3.6559999 -1.681 0.28999999
4.3010001 -3.645 -1.682 0.25
4.3210001 -3.6389999 -1.686 0.31999999
4.3319998 -3.625 -1.686 0.47
4.3449998 -3.6129999 -1.687 0.30000001
4.3610001 -3.6029999 -1.689 0.30000001
4.3610001 -3.5910001 -1.686 0.31
4.3730001 -3.5780001 -1.687 0.30000001
4.395 -3.573 -1.691 0.30000001
4.3899999 -3.546 -1.684 0.27000001
4.3969998 -3.529 -1.682 0.30000001
4.4219999 -3.527 -1.689 0.34
4.434 -3.5250001 -1.691 0.41
4.4380002 -3.5050001 -1.688 0.30000001
4.4629998 -3.503 -1.694 0.31
4.4650002 -3.4809999 -1.6900001 0.31
4.4840002 -3.473 -1.693 0.31
4.5009999 -3.464 -1.696 0.31
4.5 -3.4400001 -1.691 0.30000001
4.5159998 -3.441 -1.6950001 0.33000001
4.5349998 -3.434 -1.699 0.34
4.5279999 -3.4059999 -1.692 0.33000001
4.552 -3.402 -1.697 0.30000001
4.5710001 -3.3940001 -1.7 0.34
4.5799999 -3.378 -1.7 0.31
4.5840001 -3.359 -1.697 0.31999999
4.5939999 -3.355 -1.699 0.34
4.5999999 -3.3369999 -1.697 0.31
4.6269999 -3.335 -1.704 0.36000001
4.638 -3.3210001 -1.704 0.31999999
4.6360002 -3.2969999 -1.699 0.31
4.651 -3.286 -1.701 0.34
4.6669998 -3.286 -1.705 0.28999999
4.6599998 -3.26 -1.698 0.31
4.6859999 -3.256 -1.704 0.34
4.7010002 -3.2449999 -1.706 0.28999999
4.7020001 -3.223 -1.7029999 0.34
4.7160001 -3.2119999 -1.704 0.34
4.744 -3.2090001 -1.711 0.36000001
4.7309999 -3.1889999 -1.704 0.28999999
4.7490001 -3.1800001 -1.707 0.34
4.7639999 -3.168 -1.709 0.28999999
4.7550001 -3.1400001 -1.702 0.34999999
4.7810001 -3.1359999 -1.7079999 0.34
4.7969999 -3.125 -1.71 0.31999999
4.7880001 -3.098 -1.7029999 0.34
4.7969999 -3.0929999 -1.705 0.34
4.816 -3.0840001 -1.709 0.28
4.8260002 -3.069 -1.709 0.34999999
4.8330002 -3.052 -1.707 0.31999999
4.8520002 -3.043 -1.711 0.31
4.8530002 -3.023 -1.7079999 0.33000001
4.8660002 -3.02 -1.711 0.34
4.882 -3.0090001 -1.714 0.31
4.8829999 -2.9879999 -1.71 0.34
4.8959999 -2.9749999 -1.712 0.34
4.9200001 -2.9690001 -1.717 0.31999999
4.9180002 -2.9460001 -1.7130001 0.31999999
4.9320002 -2.934 -1.715 0.34
4.9429998 -2.9300001 -1.717 0.28999999
4.9460001 -2.9100001 -1.715 0.36000001
4.96 -2.898 -1.717 0.34
4.9699998 -2.8829999 -1.717 0.31
4.9759998 -2.8659999 -1.716 0.31999999
4.9770002 -2.845 -1.7130001 0.28999999
5.0120001 -2.845 -1.723 0.34999999
4.9980001 -2.826 -1.716 0.33000001
5.0170002 -2.816 -1.72 0.31
5.0339999 -2.8050001 -1.723 0.31
5.0320001 -2.783 -1.7180001 0.31999999
5.0469999 -2.7709999 -1.721 0.38
5.059 -2.757 -1.722 0.31
5.0650001 -2.75 -1.723 0.38
5.072 -2.733 -1.722 0.28999999
5.0960002 -2.7249999 -1.728 0.34999999
5.0939999 -2.704 -1.724 0.31999999
