# .PCD v0.7 - Point Cloud Data file format
VERSION 0.7
FIELDS x y z intensity
SIZE 4 4 4 4
TYPE F F F F
COUNT 1 1 1 1
WIDTH 1428
HEIGHT 1
VIEWPOINT 0 0 0 1 0 0 0
POINTS 1428
DATA ascii
0.89200002 4.4699998 -1.39 0.41
0.90399998 4.5700002 -1.423 0.34999999
0.884 4.5409999 -1.413 0.46000001
0.90399998 4.7290001 -1.475 0.38999999
0.861 4.5799999 -1.424 0.19
0.83099997 4.4970002 -1.395 0.51999998
0.81 4.4590001 -1.381 0.28999999
0.787 4.4070001 -1.363 0.58999997
0.78500003 4.4400001 -1.374 0.34
0.78399998 4.5170002 -1.399 0.28999999
0.75700003 4.441 -1.372 0.47999999
0.73500001 4.3969998 -1.357 0.43000001
0.71799999 4.3740001 -1.348 0.25
0.713 4.4390001 -1.369 0.5
0.69700003 4.4260001 -1.364 0.34999999
0.68699998 4.4060001 -1.357 0.47
0.67900002 4.4499998 -1.3710001 0.27000001
0.671 4.493 -1.385 0.55000001
0.66000003 4.5120001 -1.391 0.40000001
0.63499999 4.4390001 -1.365 0.38
0.62699997 4.4840002 -1.38 0.40000001
0.616 4.5139999 -1.3890001 0.38
0.60600001 4.4889998 -1.38 0.40000001
0.58200002 4.4159999 -1.355 0.34999999
0.57200003 4.4489999 -1.3660001 0.38
0.56999999 4.5469999 -1.398 0.41
0.54900002 4.494 -1.38 0.41999999
0.528 4.4320002 -1.358 0.41
0.51700002 4.4559999 -1.3660001 0.23
0.49200001 4.2950001 -1.312 0.50999999
0.498 4.487 -1.375 0.28
0.465 4.303 -1.314 0.44
0.45199999 4.309 -1.3150001 0.38
0.43900001 4.316 -1.317 0.44
0.42500001 4.3109999 -1.3150001 0.41999999
0.414 4.335 -1.323 0.28999999
0.40599999 4.3299999 -1.321 0.50999999
0.39300001 4.3390002 -1.323 0.34
0.37799999 4.3140001 -1.314 0.46000001
0.36700001 4.3509998 -1.326 0.41
0.35100001 4.322 -1.316 0.44999999
0.338 4.3340001 -1.3200001 0.34
0.31999999 4.2670002 -1.2970001 0.41
0.31400001 4.2750001 -1.3 0.38999999
0.30199999 4.3080001 -1.311 0.38999999
0.29100001 4.3429999 -1.322 0.34999999
0.27399999 4.2870002 -1.303 0.38
0.26199999 4.3150001 -1.312 0.33000001
0.24699999 4.2870002 -1.303 0.44
0.237 4.3559999 -1.325 0.43000001
0.21699999 4.2220001 -1.281 0.27000001
0.213 4.283 -1.301 0.43000001
0.199 4.2800002 -1.299 0.43000001
0.18799999 4.3340001 -1.317 0.30000001
0.175 4.3530002 -1.323 0.44999999
0.16 4.3239999 -1.313 0.41999999
0.146 4.2859998 -1.301 0.34
0.133 4.3130002 -1.309 0.41999999
0.124 4.23 -1.2819999 0.44999999
0.112 4.3060002 -1.307 0.23999999
0.1 4.3670001 -1.327 0.38
0.085000001 4.3049998 -1.306 0.46000001
0.071999997 4.2859998 -1.3 0.38999999
0.057999998 4.303 -1.306 0.38
0.045000002 4.2670002 -1.294 0.40000001
0.037999999 4.2449999 -1.286 0.38999999
0.024 4.2470002 -1.2869999 0.43000001
0.011 4.2940001 -1.303 0.25
-0.0020000001 4.256 -1.29 0.52999997
-0.016000001 4.2579999 -1.291 0.40000001
-0.028999999 4.243 -1.286 0.27000001
-0.041999999 4.2470002 -1.2869999 0.50999999
-0.048999999 4.2579999 -1.291 0.37
-0.061999999 4.2579999 -1.291 0.46000001
-0.075999998 4.2540002 -1.289 0.30000001
-0.089000002 4.2589998 -1.291 0.62
-0.103 4.2649999 -1.293 0.36000001
-0.117 4.2930002 -1.303 0.33000001
-0.12899999 4.2600002 -1.2920001 0.47999999
-0.132 4.1440001 -1.253 0.34999999
-0.148 4.21 -1.275 0.40000001
-0.161 4.211 -1.276 0.38
-0.176 4.2410002 -1.286 0.34999999
-0.192 4.3010001 -1.306 0.37
-0.206 4.3060002 -1.308 0.43000001
-0.219 4.2930002 -1.304 0.43000001
-0.226 4.3039999 -1.308 0.23999999
-0.252 4.5089998 -1.376 0.54000002
-0.255 4.336 -1.319 0.41
-0.27000001 4.3520002 -1.325 0.28
-0.28400001 4.3590002 -1.327 0.44999999
-0.33000001 4.7969999 -1.473 0.36000001
-0.34999999 4.848 -1.49 0.2
-0.35600001 4.8299999 -1.484 0.41
-0.39199999 5.0799999 -1.568 0.30000001
-0.40599999 5.0640001 -1.563 0.52999997
-0.37200001 4.5009999 -1.376 0.25999999
-0.36899999 4.3049998 -1.311 0.47999999
-0.396 4.4530001 -1.3609999 0.20999999
-0.38999999 4.244 -1.2920001 0.38999999
-0.40200001 4.2979999 -1.3099999 0.37
-0.46799999 4.8010001 -1.478 0.34
-0.52100003 5.1589999 -1.597 0.31999999
-0.53200001 5.112 -1.582 0.47999999
-0.54900002 5.1230001 -1.587 0.34999999
-0.551 4.9970002 -1.545 0.43000001
-0.52499998 4.6389999 -1.426 0.38
-0.51800001 4.5209999 -1.387 0.28999999
-0.52200001 4.4419999 -1.362 0.38999999
-0.58600003 4.8340001 -1.493 0.27000001
-0.61199999 4.9130001 -1.52 0.28999999
-0.58200002 4.5689998 -1.406 0.41
-0.58899999 4.5159998 -1.3890001 0.38
-0.58200002 4.3600001 -1.337 0.34
-0.56699997 4.2049999 -1.286 0.36000001
-0.63300002 4.572 -1.409 0.27000001
-0.64999998 4.585 -1.414 0.43000001
-0.639 4.4130001 -1.357 0.38999999
-0.63 4.2649999 -1.308 0.23
-0.64200002 4.256 -1.306 0.52999997
-0.65700001 4.263 -1.309 0.36000001
-0.66299999 4.2540002 -1.306 0.38999999
-0.68599999 4.3119998 -1.326 0.46000001
-0.70999998 4.3720002 -1.347 0.23
-0.72100002 4.3530002 -1.342 0.52999997
-0.76999998 4.552 -1.409 0.28999999
-0.77600002 4.507 -1.395 0.28
-0.75300002 4.2989998 -1.326 0.51999998
-0.78299999 4.4250002 -1.369 0.27000001
-0.81800002 4.5339999 -1.406 0.37
-0.80000001 4.3600001 -1.348 0.36000001
-0.79799998 4.277 -1.321 0.31
-0.80699998 4.2509999 -1.313 0.46000001
-0.83600003 4.3280001 -1.34 0.34
-0.85100001 4.3330002 -1.3430001 0.36000001
-0.85299999 4.3070002 -1.335 0.27000001
-0.87199998 4.3309999 -1.3430001 0.43000001
-0.90700001 4.4320002 -1.3789999 0.36000001
-0.93000001 4.4679999 -1.392 0.41999999
-0.95700002 4.5250001 -1.4119999 0.36000001
-0.986 4.5900002 -1.4349999 0.20999999
-0.94999999 4.3629999 -1.359 0.44999999
-1.012 4.573 -1.431 0.34
-1.002 4.493 -1.405 0.31
-0.99900001 4.4159999 -1.38 0.28999999
-1.0039999 4.3759999 -1.367 0.46000001
-1.044 4.4840002 -1.405 0.56999999
-1.096 4.6360002 -1.4579999 0.28999999
-1.141 4.7589998 -1.501 0.23999999
-1.107 4.559 -1.434 0.19
-1.114 4.5549998 -1.433 0.5
-1.127 4.546 -1.431 0.44
-1.163 4.6269999 -1.46 0.16
-1.229 4.822 -1.528 0.61000001
-1.2640001 4.8909998 -1.553 0.31999999
-1.253 4.79 -1.52 0.5
-1.335 5.0320001 -1.604 0.31
-1.252 4.6960001 -1.49 0.31
-1.249 4.6279998 -1.4680001 0.38
-1.391 5.0830002 -1.626 0.23
-1.424 5.1370001 -1.646 0.46000001
-1.304 4.6560001 -1.482 0.23999999
-1.281 4.5229998 -1.437 0.41999999
-1.323 4.6129999 -1.47 0.28999999
-1.295 4.493 -1.429 0.34
-1.3 4.4559999 -1.418 0.28999999
-1.299 4.4029999 -1.401 0.41999999
-1.334 4.4699998 -1.425 0.49000001
-1.482 4.8990002 -1.575 0.23999999
-1.357 4.4450002 -1.419 0.31
-1.367 4.428 -1.415 0.31999999
-1.38 4.4439998 -1.421 0.55000001
-1.449 4.6110001 -1.4809999 0.31
-1.4809999 4.6609998 -1.5 0.38999999
-1.5 4.671 -1.505 0.20999999
-1.4450001 4.4530001 -1.431 0.37
-1.4859999 4.5310001 -1.46 0.34
-1.704 5.131 -1.671 0.31999999
-1.73 5.1789999 -1.689 0.27000001
-1.777 5.263 -1.72 0.31999999
-1.806 5.2950001 -1.733 0.38999999
-1.826 5.2989998 -1.7359999 0.36000001
-1.8430001 5.2930002 -1.7359999 0.31
-1.863 5.2979999 -1.74 0.31
-1.882 5.2969999 -1.742 0.25
-1.893 5.303 -1.745 0.28999999
-1.909 5.2950001 -1.745 0.55000001
-1.9220001 5.2789998 -1.7410001 0.38
-1.942 5.283 -1.745 0.43000001
-1.9630001 5.2880001 -1.748 0.38
-1.978 5.2779999 -1.747 0.34999999
-1.9910001 5.263 -1.744 0.28999999
-2.007 5.2789998 -1.751 0.40000001
-2.0139999 5.2480001 -1.742 0.31999999
-2.0350001 5.2519999 -1.7460001 0.34
-2.0550001 5.2550001 -1.749 0.37
-2.0710001 5.2480001 -1.749 0.31999999
-2.0840001 5.2329998 -1.7460001 0.31999999
-2.1059999 5.2389998 -1.75 0.33000001
-2.112 5.23 -1.748 0.33000001
-2.1270001 5.2220001 -1.748 0.33000001
-2.1470001 5.224 -1.751 0.31999999
-2.1600001 5.2080002 -1.748 0.34
-2.178 5.2049999 -1.749 0.37
-2.2 5.21 -1.753 0.28999999
-2.211 5.191 -1.749 0.34
-2.223 5.1960001 -1.752 0.38
-2.2449999 5.2030001 -1.757 0.40000001
-2.2539999 5.1789999 -1.751 0.31999999
-2.2679999 5.1669998 -1.749 0.31999999
-2.2880001 5.1700001 -1.753 0.31999999
-2.3050001 5.1630001 -1.753 0.34999999
-2.3199999 5.1539998 -1.752 0.31999999
-2.3340001 5.1620002 -1.756 0.41
-2.345 5.1440001 -1.753 0.33000001
-2.3610001 5.1350002 -1.752 0.31999999
-2.3829999 5.1420002 -1.757 0.36000001
-2.391 5.1170001 -1.751 0.31999999
-2.4100001 5.1160002 -1.753 0.31999999
-2.4300001 5.1149998 -1.756 0.31999999
-2.444 5.1040001 -1.755 0.38
-2.454 5.1040001 -1.756 0.31
-2.4719999 5.0999999 -1.757 0.33000001
-2.483 5.0830002 -1.7539999 0.36000001
-2.5039999 5.086 -1.758 0.38
-2.5209999 5.079 -1.758 0.31999999
-2.536 5.0700002 -1.758 0.31999999
-2.5510001 5.0580001 -1.756 0.30000001
-2.5639999 5.0650001 -1.76 0.38999999
-2.573 5.0450001 -1.756 0.31999999
-2.5910001 5.04 -1.757 0.33000001
-2.6129999 5.0440001 -1.762 0.34
-2.628 5.0339999 -1.761 0.34999999
-2.641 5.02 -1.7589999 0.34
-2.665 5.027 -1.765 0.33000001
-2.6670001 5.0110002 -1.76 0.34999999
-2.6830001 5.0040002 -1.761 0.34999999
-2.7060001 5.0089998 -1.766 0.38
-2.7160001 4.9910002 -1.762 0.30000001
-2.73 4.9790001 -1.761 0.31999999
-2.7509999 4.98 -1.765 0.37
-2.7609999 4.96 -1.76 0.34
-2.7750001 4.967 -1.765 0.31999999
-2.7939999 4.9650002 -1.767 0.33000001
-2.8039999 4.9460001 -1.763 0.31999999
-2.823 4.9439998 -1.766 0.33000001
-2.842 4.9400001 -1.768 0.33000001
-2.8529999 4.9229999 -1.765 0.27000001
-2.8729999 4.9219999 -1.768 0.36000001
-2.885 4.9260001 -1.771 0.34
-2.8959999 4.9089999 -1.768 0.40000001
-2.9059999 4.8909998 -1.765 0.31999999
-2.9319999 4.8990002 -1.771 0.36000001
-2.948 4.8909998 -1.772 0.38
-2.957 4.8720002 -1.768 0.28999999
-2.977 4.869 -1.77 0.31999999
-2.9849999 4.8660002 -1.771 0.38
-2.9820001 4.8260002 -1.7589999 0.31999999
-2.983 4.7940001 -1.75 0.28
-3.0409999 4.8540001 -1.777 0.23999999
-3.0209999 4.7880001 -1.755 0.18000001
-2.9920001 4.71 -1.728 0.2
-2.7309999 4.2750001 -1.5599999 0.16
-2.75 4.2740002 -1.563 0.25999999
-2.7490001 4.2589998 -1.559 0.20999999
-2.7539999 4.237 -1.554 0.25
-2.7750001 4.2399998 -1.558 0.14
-2.7780001 4.2150002 -1.552 0.18000001
-2.813 4.2389998 -1.5650001 0.11
-2.816 4.2150002 -1.559 0.2
-2.8510001 4.2529998 -1.576 0.11
-2.849 4.2199998 -1.567 0.090000004
-2.832 4.1680002 -1.549 0.14
-2.8340001 4.1430001 -1.543 0.039999999
-2.8610001 4.1539998 -1.551 0.11
-2.8800001 4.1529999 -1.554 0.22
-2.8829999 4.1300001 -1.548 0.18000001
-2.8929999 4.1300001 -1.55 0.23
-2.8989999 4.112 -1.546 0.23999999
-2.914 4.1059999 -1.548 0.23999999
-2.9219999 4.0900002 -1.545 0.22
-2.9360001 4.0830002 -1.546 0.1
-2.947 4.0700002 -1.545 0
-2.9330001 4.0240002 -1.53 0.029999999
-2.9400001 4.0079999 -1.526 0.07
-2.947 4.0050001 -1.527 0.14
-3 4.0479999 -1.549 0.18000001
-3.0580001 4.0999999 -1.574 0.07
-3.2260001 4.2940001 -1.659 0.12
-2.997 3.967 -1.527 0.039999999
-2.987 3.928 -1.5140001 0.15000001
-2.9979999 3.9170001 -1.5140001 0.19
-3.0050001 3.914 -1.5140001 0.25999999
-3.016 3.9030001 -1.5140001 0.19
-3.0309999 3.8959999 -1.515 0.22
-3.0309999 3.872 -1.5089999 0.22
-3.0480001 3.868 -1.511 0.050000001
-3.0799999 3.8840001 -1.522 0.17
-3.115 3.902 -1.534 0.13
-3.618 4.5110002 -1.795 0.36000001
-3.6429999 4.513 -1.801 0.41
-3.099 3.8199999 -1.5089999 0.30000001
-3.112 3.812 -1.51 0.27000001
-3.142 3.8239999 -1.5190001 0.28999999
-3.1400001 3.7969999 -1.512 0.22
-3.1359999 3.78 -1.507 0.16
-3.165 3.79 -1.516 0.28999999
-3.1689999 3.7720001 -1.512 0.19
-3.1919999 3.7750001 -1.518 0.23999999
-3.2079999 3.7690001 -1.5190001 0.19
-3.211 3.7490001 -1.515 0.23
-3.2130001 3.727 -1.51 0.25
-3.2379999 3.733 -1.517 0.25999999
-3.25 3.7349999 -1.52 0.28999999
-3.3310001 3.803 -1.5549999 0.30000001
-3.5699999 4.0479999 -1.668 0.23
-3.8540001 4.3390002 -1.802 0.31999999
-3.8729999 4.3330002 -1.8049999 0.36000001
-3.8959999 4.3299999 -1.809 0.36000001
-3.901 4.3099999 -1.806 0.30000001
-3.9200001 4.316 -1.811 0.38
-3.9349999 4.3049998 -1.812 0.36000001
-3.951 4.2950001 -1.813 0.28
-3.954 4.2719998 -1.808 0.44
-3.974 4.2659998 -1.811 0.40000001
-3.983 4.25 -1.809 0.36000001
-4.0029998 4.244 -1.812 0.33000001
-4.0120001 4.2410002 -1.814 0.34
-4.0190001 4.2210002 -1.811 0.31999999
-4.0310001 4.2069998 -1.8099999 0.31999999
-4.0599999 4.211 -1.817 0.34
-4.0640001 4.1880002 -1.813 0.40000001
-4.0799999 4.178 -1.814 0.38
-4.1020002 4.1750002 -1.819 0.38
-4.1030002 4.1630001 -1.816 0.38999999
-4.118 4.152 -1.817 0.33000001
-4.132 4.1399999 -1.817 0.34999999
-4.145 4.1269999 -1.817 0.33000001
-4.1609998 4.1170001 -1.819 0.37
-4.1789999 4.1090002 -1.821 0.31999999
-4.1869998 4.0900002 -1.819 0.38999999
-4.198 4.0890002 -1.821 0.44
-4.2129998 4.0770001 -1.822 0.36000001
-4.224 4.0630002 -1.821 0.43000001
-4.2420001 4.0549998 -1.824 0.36000001
-4.263 4.0489998 -1.8279999 0.30000001
-4.2550001 4.0159998 -1.818 0.57999998
-4.2789998 4.013 -1.823 0.36000001
-4.2950001 4.0149999 -1.8279999 0.38999999
-4.2950001 3.99 -1.822 0.36000001
-4.3169999 3.9860001 -1.826 0.36000001
-4.335 3.977 -1.829 0.31999999
-4.3470001 3.9619999 -1.8279999 0.34
-4.3660002 3.9549999 -1.831 0.34
-4.3839998 3.9460001 -1.834 0.38999999
-4.3870001 3.937 -1.8329999 0.38
-4.4039998 3.927 -1.834 0.34999999
-4.4159999 3.9130001 -1.834 0.34
-4.427 3.898 -1.834 0.34
-4.4450002 3.8889999 -1.836 0.31999999
-4.454 3.872 -1.835 0.36000001
-4.4619999 3.855 -1.8329999 0.34
-4.474 3.8529999 -1.836 0.34999999
-4.493 3.845 -1.839 0.41
-4.5029998 3.8280001 -1.8380001 0.31999999
-4.5219998 3.8199999 -1.841 0.41
-4.5240002 3.7969999 -1.836 0.37
-4.5380001 3.786 -1.8380001 0.38
-4.5440001 3.766 -1.835 0.36000001
-4.5619998 3.757 -1.8380001 0.33000001
-4.5650001 3.747 -1.836 0.30000001
-4.586 3.74 -1.84 0.31999999
-4.5929999 3.7219999 -1.8380001 0.46000001
-4.6030002 3.707 -1.8380001 0.46000001
-4.6149998 3.6919999 -1.8380001 0.36000001
-4.625 3.6760001 -1.837 0.34999999
-4.6279998 3.6670001 -1.836 0.34
-4.6389999 3.652 -1.836 0.33000001
-4.6539998 3.6400001 -1.837 0.34999999
-4.6609998 3.622 -1.835 0.33000001
-4.684 3.6159999 -1.84 0.34
-4.691 3.598 -1.8380001 0.38
-4.6960001 3.579 -1.836 0.33000001
-4.7030001 3.573 -1.836 0.38999999
-4.7080002 3.553 -1.834 0.31999999
-4.7150002 3.5350001 -1.832 0.34
-4.737 3.5280001 -1.836 0.34
-4.7449999 3.5109999 -1.835 0.27000001
-4.7540002 3.4949999 -1.834 0.38999999
-4.7680001 3.4820001 -1.836 0.38999999
-4.7740002 3.464 -1.834 0.31999999
-4.7859998 3.461 -1.836 0.41
-4.7859998 3.438 -1.832 0.31
-4.8010001 3.4260001 -1.834 0.33000001
-4.8119998 3.411 -1.834 0.38999999
-4.823 3.3959999 -1.834 0.31
-4.8379998 3.3840001 -1.836 0.28
-4.8470001 3.368 -1.835 0.44999999
-4.8569999 3.3629999 -1.837 0.36000001
-4.8660002 3.3469999 -1.836 0.36000001
-4.875 3.3310001 -1.836 0.33000001
-4.8899999 3.319 -1.8380001 0.31
-4.9050002 3.306 -1.839 0.41999999
-4.9159999 3.2909999 -1.839 0.38
-4.9159999 3.28 -1.8380001 0.33000001
-4.9330001 3.2690001 -1.84 0.31
-4.9510002 3.2579999 -1.8430001 0.34999999
-4.9640002 3.2449999 -1.845 0.38999999
-4.9629998 3.2219999 -1.84 0.34
-4.9770002 3.2090001 -1.841 0.34999999
-4.9920001 3.1960001 -1.8430001 0.28999999
-5.0079999 3.184 -1.846 0.37
-5.0110002 3.175 -1.845 0.33000001
-5.026 3.1630001 -1.847 0.30000001
-5.0300002 3.1429999 -1.845 0.38
-5.0409999 3.128 -1.845 0.31999999
-5.0609999 3.118 -1.849 0.33000001
-5.0739999 3.1040001 -1.85 0.34
-5.0929999 3.0940001 -1.854 0.34
-5.1110001 3.0940001 -1.859 0.34
-5.1420002 3.0910001 -1.867 0.31999999
-5.158 3.0780001 -1.87 0.31999999
-5.1810002 3.0699999 -1.875 0.28999999
-5.2199998 3.0710001 -1.886 0.38
-5.2410002 3.0610001 -1.89 0.31999999
-5.256 3.0469999 -1.892 0.43000001
-5.2620001 3.04 -1.893 0.38999999
-5.27 3.0220001 -1.892 0.44
-5.2839999 3.0090001 -1.8940001 0.38999999
-5.3010001 2.9960001 -1.897 0.36000001
-5.3070002 2.977 -1.895 0.37
-5.316 2.961 -1.895 0.38999999
-5.3200002 2.941 -1.8940001 0.37
-5.3150001 2.927 -1.89 0.38
-5.3340001 2.9159999 -1.8940001 0.37
-5.355 2.905 -1.898 0.28
-5.3610001 2.8870001 -1.897 0.40000001
-5.3800001 2.875 -1.9 0.44999999
-5.3889999 2.858 -1.9 0.43000001
-5.3860002 2.835 -1.896 0.36000001
-5.3889999 2.826 -1.895 0.30000001
-5.4060001 2.813 -1.899 0.27000001
-5.4109998 2.7950001 -1.897 0.34
-5.4219999 2.779 -1.898 0.41
-5.4439998 2.7679999 -1.903 0.41
-5.434 2.7420001 -1.896 0.43000001
-5.434 2.721 -1.893 0.31999999
-5.4380002 2.7119999 -1.893 0.28
-5.4369998 2.6900001 -1.8890001 0.34
-5.454 2.677 -1.892 0.28999999
-5.4590001 2.658 -1.891 0.41
-5.4689999 2.642 -1.892 0.36000001
-5.473 2.6229999 -1.89 0.34999999
-5.4790001 2.615 -1.891 0.31999999
-5.4980001 2.6029999 -1.895 0.40000001
-5.506 2.586 -1.895 0.36000001
-5.5040002 2.563 -1.891 0.36000001
-5.4840002 2.5339999 -1.881 0.31999999
-5.487 2.5139999 -1.8789999 0.31999999
-5.4809999 2.49 -1.874 0.34999999
-5.487 2.4719999 -1.873 0.34999999
-5.494 2.4649999 -1.875 0.31999999
-5.5019999 2.448 -1.875 0.40000001
-5.5110002 2.4319999 -1.875 0.34
-5.507 2.4089999 -1.8710001 0.34
-5.5180001 2.3929999 -1.872 0.36000001
-5.5310001 2.378 -1.874 0.33000001
-5.533 2.358 -1.872 0.34
-5.5419998 2.352 -1.874 0.34
-5.553 2.336 -1.875 0.27000001
-5.5560002 2.3169999 -1.874 0.44999999
-5.5599999 2.2980001 -1.873 0.41
-5.5640001 2.279 -1.872 0.31
-5.5799999 2.2650001 -1.875 0.36000001
-5.585 2.247 -1.874 0.41
-5.5830002 2.2360001 -1.872 0.34999999
-5.599 2.2219999 -1.875 0.34999999
-5.6100001 2.2060001 -1.877 0.28
-5.6110001 2.1860001 -1.875 0.41
-5.6139998 2.1670001 -1.873 0.38999999
-5.6230001 2.1500001 -1.874 0.34999999
-5.619 2.1289999 -1.87 0.34
-5.6370001 2.125 -1.875 0.38
-5.6360002 2.105 -1.873 0.31999999
-5.6500001 2.0899999 -1.875 0.31999999
-5.6420002 2.0669999 -1.87 0.23999999
-5.6490002 2.049 -1.87 0.33000001
-5.651 2.03 -1.869 0.23
-5.6550002 2.0209999 -1.869 0
-5.691 2.0139999 -1.88 0
-5.823 1.52 -1.873 0.07
-5.8439999 1.506 -1.8789999 0.16
-5.8179998 1.479 -1.868 0.28
-5.8189998 1.46 -1.867 0.31999999
-5.8270001 1.443 -1.868 0.31999999
-5.8299999 1.424 -1.868 0.31999999
-5.8410001 1.4170001 -1.8710001 0.28999999
-5.8460002 1.399 -1.8710001 0.41
-5.8499999 1.38 -1.8710001 0.34
-5.8410001 1.359 -1.867 0.28
-5.8569999 1.3430001 -1.87 0.36000001
-5.855 1.324 -1.868 0.34
-5.8610001 1.306 -1.869 0.28
-5.8629999 1.296 -1.869 0.36000001
-5.8530002 1.275 -1.864 0.30000001
-5.8730001 1.26 -1.87 0.34
-5.8730001 1.2410001 -1.868 0.31999999
-5.8720002 1.221 -1.867 0.31
-5.8639998 1.2 -1.863 0.31
-5.8889999 1.186 -1.87 0.40000001
-5.8660002 1.1720001 -1.8609999 0.23
-5.881 1.156 -1.865 0.34999999
-5.8850002 1.137 -1.865 0.28999999
-5.881 1.117 -1.863 0.34999999
-5.8839998 1.099 -1.863 0.31
-5.895 1.082 -1.865 0.30000001
-5.8930001 1.062 -1.863 0.31
-5.8909998 1.052 -1.862 0.31999999
-5.9029999 1.035 -1.865 0.31999999
-5.9050002 1.017 -1.865 0.33000001
-5.9039998 0.99699998 -1.863 0.34
-5.9190001 0.98100001 -1.867 0.31999999
-5.9099998 0.95999998 -1.863 0.34999999
-5.902 0.94 -1.86 0.27000001
-5.9130001 0.93199998 -1.863 0.34999999
-5.9099998 0.91299999 -1.8609999 0.34999999
-5.9070001 0.89300001 -1.859 0.28
-5.927 0.87699997 -1.865 0.34
-5.9089999 0.85600001 -1.858 0.28
-5.921 0.838 -1.8609999 0.34999999
-5.9239998 0.81999999 -1.8609999 0.28
-5.9180002 0.80900002 -1.858 0.34
-5.9330001 0.79299998 -1.863 0.31999999
-5.9320002 0.773 -1.8609999 0.31999999
-5.9250002 0.75400001 -1.858 0.33000001
-5.9120002 0.73299998 -1.853 0.30000001
-5.9369998 0.71700001 -1.8609999 0.33000001
-5.9320002 0.69800001 -1.858 0.30000001
-5.9310002 0.68800002 -1.858 0.31
-5.941 0.67000002 -1.86 0.31
-5.928 0.64999998 -1.855 0.31
-5.9299998 0.63200003 -1.855 0.31999999
-5.9299998 0.61299998 -1.855 0.33000001
-5.9299998 0.59399998 -1.854 0.27000001
-5.9369998 0.57599998 -1.8559999 0.33000001
-5.9489999 0.56699997 -1.86 0.31999999
-5.934 0.54699999 -1.854 0.27000001
-5.9380002 0.52899998 -1.855 0.33000001
-5.9380002 0.50999999 -1.854 0.31999999
-5.9390001 0.491 -1.854 0.31
-5.9330001 0.472 -1.851 0.33000001
-5.9359999 0.454 -1.852 0.27000001
-5.9299998 0.44400001 -1.85 0.33000001
-5.9400001 0.426 -1.853 0.28999999
-5.9489999 0.40799999 -1.855 0.31
-5.9429998 0.38800001 -1.853 0.31999999
-5.9330001 0.36899999 -1.849 0.30000001
-5.9450002 0.35100001 -1.853 0.33000001
-5.9239998 0.331 -1.845 0.28999999
-5.9299998 0.322 -1.847 0.31999999
-5.9439998 0.30399999 -1.851 0.31999999
-5.9239998 0.285 -1.845 0.31999999
-5.9330001 0.266 -1.847 0.34
-5.9330001 0.248 -1.847 0.30000001
-5.9299998 0.229 -1.846 0.38
-5.9310002 0.20999999 -1.846 0.30000001
-5.9429998 0.20100001 -1.85 0.33000001
-5.928 0.182 -1.845 0.28999999
-5.934 0.164 -1.846 0.31999999
-5.9419999 0.145 -1.849 0.34
-5.9310002 0.126 -1.845 0.34
-5.934 0.108 -1.846 0.34
-5.9229999 0.089000002 -1.842 0.30000001
-5.9299998 0.079999998 -1.845 0.36000001
-5.927 0.061000001 -1.8430001 0.30000001
-5.9289999 0.041999999 -1.844 0.34
-5.9229999 0.024 -1.842 0.34
-5.9369998 0.0049999999 -1.846 0.34
-5.9310002 -0.013 -1.845 0.31999999
-5.9369998 -0.032000002 -1.846 0.34
-5.927 -0.041000001 -1.8430001 0.31999999
-5.927 -0.059999999 -1.8430001 0.31
-5.9229999 -0.078000002 -1.842 0.30000001
-5.8940001 -0.086999997 -1.8329999 0.33000001
-5.882 -0.105 -1.829 0.28999999
-5.901 -0.124 -1.835 0.38999999
-5.8870001 -0.14300001 -1.831 0.25
-5.8909998 -0.161 -1.832 0.36000001
-5.8940001 -0.171 -1.8329999 0.31999999
-5.888 -0.189 -1.831 0.34
-5.8800001 -0.207 -1.829 0.34
-5.8940001 -0.226 -1.834 0.34999999
-5.882 -0.244 -1.83 0.25999999
-5.8909998 -0.26300001 -1.8329999 0.34
-5.881 -0.28099999 -1.83 0.34999999
-5.8870001 -0.30000001 -1.8329999 0.31999999
-5.8889999 -0.30899999 -1.8329999 0.31999999
-5.882 -0.32800001 -1.831 0.31999999
-5.8899999 -0.347 -1.834 0.34
-5.8850002 -0.36500001 -1.8329999 0.25999999
-5.8899999 -0.384 -1.835 0.34999999
-5.8829999 -0.40200001 -1.8329999 0.31999999
-5.8790002 -0.41100001 -1.832 0.31
-5.875 -0.42899999 -1.831 0.27000001
-5.8800001 -0.44800001 -1.8329999 0.38
-5.888 -0.46700001 -1.836 0.31999999
-5.875 -0.48500001 -1.8329999 0.30000001
-5.888 -0.505 -1.8380001 0.37
-5.8769999 -0.52200001 -1.834 0.30000001
-5.8800001 -0.53200001 -1.836 0.28
-5.8899999 -0.551 -1.839 0.38999999
-5.881 -0.56900001 -1.837 0.31999999
-5.8860002 -0.588 -1.839 0.28999999
-5.888 -0.60699999 -1.841 0.33000001
-5.8860002 -0.62599999 -1.841 0.34
-5.882 -0.64399999 -1.84 0.28
-5.881 -0.653 -1.84 0.31999999
-5.8850002 -0.67299998 -1.842 0.31
-5.8850002 -0.69099998 -1.8430001 0.28999999
-5.8829999 -0.70999998 -1.8430001 0.34
-5.8899999 -0.72899997 -1.846 0.31
-5.8839998 -0.74699998 -1.845 0.28999999
-5.8699999 -0.764 -1.841 0.27000001
-5.8839998 -0.77600002 -1.846 0.34
-5.881 -0.79400003 -1.846 0.31999999
-5.8769999 -0.81199998 -1.845 0.31
-5.8759999 -0.83099997 -1.846 0.31999999
-5.8850002 -0.85100001 -1.85 0.33000001
-5.869 -0.86799997 -1.845 0.27000001
-5.8660002 -0.88599998 -1.845 0.31999999
-5.8699999 -0.89600003 -1.847 0.33000001
-5.8660002 -0.91399997 -1.846 0.27000001
-5.8699999 -0.93400002 -1.849 0.34
-5.8709998 -0.95300001 -1.85 0.28
-5.8639998 -0.97100002 -1.849 0.34
-5.869 -0.991 -1.851 0.31999999
-5.8709998 -1.01 -1.853 0.33000001
-5.862 -1.027 -1.851 0.28999999
-5.8610001 -1.0369999 -1.851 0.34
-5.8610001 -1.056 -1.853 0.27000001
-5.8499999 -1.073 -1.85 0.33000001
-5.855 -1.0930001 -1.853 0.31999999
-5.8530002 -1.1109999 -1.853 0.30000001
-5.8460002 -1.1289999 -1.852 0.36000001
-5.8509998 -1.14 -1.855 0.27000001
-5.8400002 -1.156 -1.852 0.30000001
-5.8309999 -1.174 -1.85 0.31999999
-5.8249998 -1.192 -1.85 0.30000001
-5.8439999 -1.215 -1.857 0.31999999
-5.829 -1.2309999 -1.853 0.31
-5.8249998 -1.249 -1.853 0.33000001
-5.8309999 -1.26 -1.8559999 0.34
-5.8150001 -1.275 -1.852 0.31
-5.8169999 -1.295 -1.854 0.33000001
-5.8439999 -1.321 -1.865 0.36000001
-5.8070002 -1.331 -1.853 0.25
-5.8169999 -1.353 -1.858 0.36000001
-5.8299999 -1.375 -1.864 0.33000001
-5.8239999 -1.383 -1.863 0.31
-5.816 -1.401 -1.8609999 0.31999999
-5.8260002 -1.423 -1.867 0.31999999
-5.8070002 -1.437 -1.8609999 0.36000001
-5.802 -1.455 -1.8609999 0.30000001
-5.8000002 -1.474 -1.862 0.30000001
-5.7989998 -1.493 -1.863 0.41
-5.7979999 -1.513 -1.865 0.30000001
-5.7969999 -1.522 -1.865 0.34999999
-5.7740002 -1.535 -1.859 0.31999999
-5.7820001 -1.557 -1.863 0.33000001
-5.79 -1.579 -1.868 0.34
-5.7680001 -1.592 -1.862 0.33000001
-5.7600002 -1.609 -1.8609999 0.31999999
-5.7709999 -1.632 -1.867 0.31
-5.757 -1.638 -1.863 0.38
-5.75 -1.656 -1.862 0.33000001
-5.7649999 -1.6799999 -1.869 0.31
-5.7490001 -1.694 -1.865 0.37
-5.7459998 -1.7130001 -1.8660001 0.36000001
-5.744 -1.732 -1.867 0.31999999
-5.7360001 -1.75 -1.867 0.41999999
-5.7360001 -1.7589999 -1.867 0.31
-5.744 -1.7819999 -1.872 0.23999999
-5.737 -1.799 -1.872 0.33000001
-5.717 -1.813 -1.867 0
-5.7150002 -1.832 -1.868 0
-5.5960002 -2.365 -1.892 0.1
-5.5960002 -2.385 -1.895 0.16
-5.572 -2.3959999 -1.8890001 0.31
-5.5560002 -2.4100001 -1.886 0.28
-5.5469999 -2.4260001 -1.885 0.31999999
-5.5440001 -2.4460001 -1.887 0.34999999
-5.5279999 -2.4590001 -1.8839999 0.31
-5.5190001 -2.4660001 -1.882 0.31999999
-5.5180001 -2.4860001 -1.885 0.34999999
-5.5050001 -2.5009999 -1.883 0.28
-5.5009999 -2.52 -1.8839999 0.41
-5.4879999 -2.5350001 -1.882 0.38
-5.4809999 -2.553 -1.883 0.34999999
-5.4770002 -2.562 -1.883 0.31999999
-5.4759998 -2.582 -1.885 0.34
-5.4660001 -2.598 -1.885 0.34
-5.461 -2.6170001 -1.886 0.38999999
-5.46 -2.638 -1.8890001 0.31999999
-5.4569998 -2.6570001 -1.89 0.36000001
-5.4429998 -2.6719999 -1.8890001 0.34999999
-5.4299998 -2.687 -1.887 0.33000001
-5.427 -2.6960001 -1.887 0.36000001
-5.4239998 -2.7160001 -1.8890001 0.36000001
-5.4169998 -2.733 -1.89 0.37
-5.4070001 -2.75 -1.8890001 0.36000001
-5.4029999 -2.7690001 -1.891 0.37
-5.3930001 -2.7850001 -1.89 0.37
-5.3870001 -2.8039999 -1.892 0.31999999
-5.3909998 -2.8169999 -1.895 0.36000001
-5.382 -2.8340001 -1.895 0.37
-5.368 -2.848 -1.893 0.47999999
-5.3429999 -2.8559999 -1.887 0
-3.7060001 -1.987 -1.273 0
-3.648 -1.97 -1.253 0
-3.6099999 -1.964 -1.242 0
-3.5710001 -1.95 -1.228 0
-3.543 -1.949 -1.22 0
-3.5220001 -1.952 -1.214 0
-3.503 -1.955 -1.209 0
-3.4779999 -1.956 -1.202 0
-3.4519999 -1.955 -1.194 0
-3.415 -1.948 -1.182 0
-3.3859999 -1.938 -1.1720001 0
-3.3629999 -1.939 -1.166 0
-3.326 -1.931 -1.154 0
-3.3069999 -1.934 -1.149 0
-3.28 -1.932 -1.141 0
-3.2620001 -1.9349999 -1.137 0
-3.2349999 -1.933 -1.128 0
-3.2260001 -1.934 -1.126 0
-3.2190001 -1.944 -1.126 0
-3.1860001 -1.937 -1.115 0
-3.175 -1.944 -1.113 0
-3.1489999 -1.942 -1.1059999 0
-3.1259999 -1.941 -1.099 0
-3.128 -1.956 -1.102 0
-3.1170001 -1.955 -1.099 0
-3.098 -1.957 -1.094 0
-3.0899999 -1.966 -1.0930001 0
-3.0610001 -1.961 -1.084 0
-3.0420001 -1.962 -1.079 0
-3.03 -1.9680001 -1.077 0
-3.0190001 -1.974 -1.075 0
-3.0109999 -1.975 -1.073 0
-3 -1.982 -1.071 0
-2.964 -1.971 -1.059 0
-2.95 -1.975 -1.056 0
-2.9189999 -1.967 -1.046 0
-2.9059999 -1.972 -1.043 0
-2.8970001 -1.979 -1.0420001 0
-2.869 -1.966 -1.0319999 0
-2.8699999 -1.98 -1.035 0
-2.8410001 -1.973 -1.026 0
-2.835 -1.982 -1.026 0
-2.8010001 -1.971 -1.015 0
-2.776 -1.966 -1.007 0
-2.776 -1.98 -1.01 0
-2.7590001 -1.974 -1.0039999 0
-2.744 -1.976 -1 0
-2.7249999 -1.975 -0.995 0
-2.507 -1.977 -0.93800002 0
-2.4820001 -1.969 -0.93000001 0
-2.4890001 -1.988 -0.935 0
-2.4560001 -1.974 -0.92400002 0
-2.4419999 -1.9680001 -0.91900003 0
-2.428 -1.97 -0.91600001 0
-2.415 -1.972 -0.91299999 0
-2.392 -1.966 -0.90600002 0
-2.3989999 -1.984 -0.91100001 0
-2.3829999 -1.983 -0.90700001 0
-2.368 -1.983 -0.903 0
-2.369 -1.997 -0.90600002 0
-2.335 -1.975 -0.89300001 0
-2.339 -1.9910001 -0.898 0
-2.323 -1.989 -0.89300001 0
-2.3039999 -1.985 -0.88800001 0
-2.2850001 -1.9809999 -0.88200003 0
-2.279 -1.988 -0.88200003 0
-2.2709999 -1.988 -0.88 0
-2.256 -1.988 -0.87599999 0
-2.2539999 -1.999 -0.87800002 0
-2.2449999 -2.003 -0.87699997 0
-2.2320001 -2.0039999 -0.87400001 0
-2.2290001 -2.013 -0.875 0
-2.2149999 -2.0139999 -0.87199998 0
-2.122 -2.0090001 -0.84799999 0
-2.1210001 -2.02 -0.85000002 0
-2.1199999 -2.026 -0.852 0
-2.0910001 -2.0109999 -0.84100002 0
-2.0940001 -2.026 -0.84500003 0
-2.1099999 -2.2969999 -0.91299999 0
-2.0840001 -2.2820001 -0.90399998 0
-2.076 -2.2869999 -0.903 0
-2.0999999 -2.329 -0.91900003 0
-2.085 -2.3269999 -0.91500002 0
-2.073 -2.3210001 -0.91100001 0
-2.1099999 -3 -1.095 0
-2.1059999 -3.0139999 -1.098 0
-2.0999999 -3.026 -1.1 0
-2.108 -3.0480001 -1.108 0
-2.108 -3.0680001 -1.113 0
-2.102 -3.0799999 -1.115 0
-2.098 -3.096 -1.119 0
-2.095 -3.112 -1.123 0
-2.0899999 -3.1259999 -1.126 0
-1.337 -2.0450001 -0.68900001 0
-1.33 -2.049 -0.68900001 0
-1.3200001 -2.0469999 -0.68699998 0
-1.3150001 -2.0539999 -0.68800002 0
-1.309 -2.052 -0.68599999 0
-1.2970001 -2.046 -0.68300003 0
-1.294 -2.0569999 -0.685 0
-1.283 -2.053 -0.68199998 0
-1.276 -2.0569999 -0.68199998 0
-1.261 -2.046 -0.676 0
-1.253 -2.0469999 -0.67500001 0
-1.258 -2.063 -0.68099999 0
-0.88800001 -2.625 -0.79799998 0
-0.824 -2.684 -0.81 0
-0.79400003 -2.6730001 -0.80400002 0
-0.796 -2.7119999 -0.81599998 0
-1.735 -6.2150002 -2.017 0.050000001
-1.717 -6.2259998 -2.0190001 0.18000001
-1.7029999 -6.25 -2.026 0.25
-1.684 -6.2610002 -2.027 0.039999999
-1.675 -6.3049998 -2.0409999 0
-1.664 -6.3039999 -2.039 0
-1.642 -6.3000002 -2.036 0
-0.70300001 -2.744 -0.81800002 0
-0.68900001 -2.724 -0.81099999 0
-0.68199998 -2.733 -0.81300002 0
-0.68400002 -2.7620001 -0.82300001 0
-0.67500001 -2.7609999 -0.82200003 0
-0.662 -2.7460001 -0.81599998 0
-0.65600002 -2.7590001 -0.81999999 0
-0.65200001 -2.7839999 -0.82700002 0
-0.63200003 -2.773 -0.82200003 0
-0.62199998 -2.7909999 -0.82700002 0
-0.61699998 -2.8110001 -0.833 0
-0.60100001 -2.7780001 -0.82200003 0
-0.59299999 -2.783 -0.82300001 0
-0.58700001 -2.8 -0.82800001 0
-0.57800001 -2.8 -0.82700002 0
-0.57700002 -2.8210001 -0.83399999 0
-0.56599998 -2.8080001 -0.829 0
-0.55599999 -2.806 -0.82800001 0
-1.156 -6.1999998 -1.969 0
-0.52700001 -2.8469999 -0.83899999 0
-0.51999998 -2.836 -0.83499998 0
-1.1160001 -6.086 -1.929 0
-0.51700002 -2.868 -0.84500003 0
-0.50300002 -2.8410001 -0.83600003 0
-0.49900001 -2.8710001 -0.84500003 0
-0.48699999 -2.8599999 -0.84100002 0
-0.479 -2.8629999 -0.84200001 0
-0.47799999 -2.921 -0.86000001 0
-0.46900001 -2.891 -0.85000002 0
-0.46000001 -2.895 -0.85100001 0
-0.45500001 -2.921 -0.85900003 0
-0.90799999 -6.1409998 -1.936 0
-0.889 -6.1479998 -1.938 0
-0.86799997 -6.1389999 -1.934 0
-0.412 -2.9170001 -0.85600001 0
-0.83999997 -6.0739999 -1.911 0
-0.40599999 -2.941 -0.86400002 0
-0.39500001 -2.9289999 -0.85900003 0
-0.38800001 -2.947 -0.86500001 0
-0.38 -2.9560001 -0.86699998 0
-0.36899999 -2.9460001 -0.86400002 0
-0.36899999 -2.984 -0.87599999 0
-0.35699999 -2.9630001 -0.86900002 0
-0.34 -2.9820001 -0.87400001 0
-0.67000002 -5.9369998 -1.859 0
-0.33000001 -2.974 -0.87099999 0
-0.322 -2.99 -0.87599999 0
-0.59500003 -5.9429998 -1.858 0
-0.58700001 -5.9569998 -1.863 0
-0.56699997 -5.9400001 -1.8559999 0
-0.54799998 -5.9419999 -1.8559999 0
-0.52899998 -5.9419999 -1.8559999 0
-0.509 -5.9260001 -1.85 0
-0.491 -5.9320002 -1.851 0
-0.472 -5.9250002 -1.849 0
-0.463 -5.9390001 -1.853 0
-0.44299999 -5.9239998 -1.848 0
-0.426 -5.9439998 -1.854 0
-0.40599999 -5.9250002 -1.847 0
-0.38699999 -5.9219999 -1.846 0
-0.36899999 -5.9369998 -1.85 0
-0.34999999 -5.9260001 -1.846 0
-0.34099999 -5.9229999 -1.845 0
-0.322 -5.934 -1.848 0
-0.30399999 -5.9349999 -1.848 0
-0.28400001 -5.9050002 -1.8380001 0
-0.145 -3.194 -0.93900001 0
-0.266 -5.934 -1.848 0
-0.13600001 -3.207 -0.94300002 0
-0.132 -3.2460001 -0.95599997 0
-0.123 -3.28 -0.96700001 0.059999999
-0.17299999 -5.586 -1.7309999 0.16
-0.155 -5.5599999 -1.723 0.23999999
-0.138 -5.5650001 -1.724 0.34
-0.12 -5.5479999 -1.7180001 0.34
-0.103 -5.5539999 -1.72 0.34
-0.093999997 -5.5580001 -1.721 0.37
-0.075999998 -5.5489998 -1.7180001 0.36000001
-0.059 -5.5549998 -1.72 0.37
-0.041000001 -5.5510001 -1.719 0.31
-0.024 -5.5570002 -1.721 0.40000001
-0.0070000002 -5.5549998 -1.72 0.43000001
0.011 -5.5630002 -1.723 0.36000001
0.02 -5.559 -1.721 0.37
0.037 -5.5510001 -1.719 0.36000001
0.054000001 -5.5510001 -1.719 0.36000001
0.071999997 -5.5599999 -1.722 0.37
0.089000002 -5.5469999 -1.7180001 0.38
0.107 -5.5479999 -1.7180001 0.36000001
0.124 -5.5570002 -1.721 0.30000001
0.133 -5.5510001 -1.719 0.38999999
0.15000001 -5.5510001 -1.719 0.36000001
0.168 -5.5539999 -1.721 0.37
0.185 -5.5500002 -1.719 0.37
0.20299999 -5.5489998 -1.719 0.38
0.221 -5.5560002 -1.722 0.37
0.23800001 -5.546 -1.719 0.36000001
0.24600001 -5.5380001 -1.716 0.34
0.264 -5.5489998 -1.72 0.37
0.28099999 -5.54 -1.7180001 0.34
0.29800001 -5.5320001 -1.715 0.36000001
0.31600001 -5.5359998 -1.717 0.36000001
0.333 -5.5320001 -1.716 0.40000001
0.35100001 -5.5380001 -1.7180001 0.38
0.359 -5.5320001 -1.716 0.38
0.377 -5.5349998 -1.7180001 0.36000001
0.39399999 -5.533 -1.7180001 0.36000001
0.41100001 -5.526 -1.716 0.37
0.428 -5.5229998 -1.715 0.37
0.44499999 -5.5219998 -1.715 0.37
0.45500001 -5.527 -1.717 0.37
0.47099999 -5.52 -1.715 0.37
0.49000001 -5.5279999 -1.7180001 0.36000001
0.50599998 -5.52 -1.716 0.36000001
0.52399999 -5.5190001 -1.716 0.41
0.542 -5.5229998 -1.7180001 0.34
0.55900002 -5.5209999 -1.7180001 0.38
0.56800002 -5.5180001 -1.7180001 0.38999999
0.58499998 -5.52 -1.719 0.37
0.602 -5.5159998 -1.7180001 0.34999999
0.62 -5.52 -1.72 0.36000001
0.63700002 -5.5089998 -1.717 0.36000001
0.65499997 -5.5180001 -1.721 0.36000001
0.67199999 -5.5120001 -1.719 0.36000001
0.68099999 -5.5089998 -1.719 0.34999999
0.69800001 -5.507 -1.719 0.37
0.71700001 -5.5159998 -1.723 0.37
0.73299998 -5.5079999 -1.721 0.37
0.75199997 -5.513 -1.723 0.37
0.76800001 -5.5019999 -1.72 0.34
0.78600001 -5.507 -1.723 0.38999999
0.79299998 -5.4980001 -1.72 0.38
0.81 -5.494 -1.719 0.37
0.82599998 -5.48 -1.716 0.37
0.847 -5.5 -1.723 0.37
0.86299998 -5.4910002 -1.721 0.37
0.88099998 -5.4920001 -1.723 0.38999999
0.898 -5.4899998 -1.723 0.36000001
0.90799999 -5.4980001 -1.726 0.36000001
0.92400002 -5.487 -1.723 0.36000001
0.94300002 -5.4920001 -1.726 0.31999999
0.958 -5.4759998 -1.721 0.34999999
0.97600001 -5.48 -1.724 0.40000001
0.99299997 -5.4710002 -1.722 0.31
1.013 -5.4829998 -1.727 0.34
1.0190001 -5.4679999 -1.723 0.36000001
1.038 -5.4759998 -1.726 0.34999999
1.056 -5.4790001 -1.728 0.34999999
1.074 -5.4790001 -1.729 0.33000001
1.09 -5.4699998 -1.728 0.31999999
1.1109999 -5.4850001 -1.734 0.23999999
1.128 -5.4780002 -1.733 0.23999999
1.1390001 -5.487 -1.7359999 0
1.154 -5.4749999 -1.733 0
1.1720001 -5.473 -1.734 0
1.194 -5.4910002 -1.7410001 0
1.211 -5.4860001 -1.7410001 0
1.23 -5.4910002 -1.744 0
1.26 -5.5830002 -1.776 0
3.6270001 -1.818 -1.224 0
3.658 -1.819 -1.233 0
3.674 -1.813 -1.237 0
3.835 -1.824 -1.2869999 0
3.855 -1.819 -1.2920001 0
3.8959999 -1.823 -1.3049999 0
3.9300001 -1.824 -1.3150001 0
3.9579999 -1.821 -1.323 0
3.9779999 -1.8150001 -1.3279999 0
4.0050001 -1.8200001 -1.337 0
4.0289998 -1.816 -1.344 0
4.079 -1.822 -1.36 0
4.0890002 -1.812 -1.362 0.07
4.1490002 -1.822 -1.381 0.090000004
4.151 -1.808 -1.38 0.18000001
4.1500001 -1.7920001 -1.377 0.050000001
4.1630001 -1.789 -1.381 0.07
4.1950002 -1.7869999 -1.391 0.15000001
4.2659998 -1.801 -1.414 0.17
4.2909999 -1.796 -1.421 0.059999999
4.3119998 -1.789 -1.426 0.17
4.414 -1.814 -1.461 0.27000001
4.4169998 -1.799 -1.46 0.13
4.4710002 -1.812 -1.478 0.40000001
4.5879998 -1.842 -1.518 0.20999999
4.6199999 -1.8380001 -1.527 0.46000001
4.6360002 -1.8279999 -1.531 0.41
4.6350002 -1.811 -1.528 0.34999999
4.6669998 -1.806 -1.538 0.11
5.198 -1.98 -1.723 0.33000001
5.2010002 -1.9630001 -1.721 0.31
5.2179999 -1.95 -1.725 0.37
5.2150002 -1.931 -1.722 0.33000001
5.224 -1.916 -1.723 0.41
5.2319999 -1.9 -1.724 0.38999999
5.2379999 -1.883 -1.724 0.31
5.2319999 -1.872 -1.721 0.40000001
5.2519999 -1.8609999 -1.726 0.33000001
5.237 -1.837 -1.7180001 0.38999999
5.257 -1.825 -1.723 0.34
5.2659998 -1.8099999 -1.724 0.34
5.2610002 -1.79 -1.721 0.34
5.256 -1.77 -1.717 0.31999999
5.2659998 -1.7640001 -1.719 0.41
5.2659998 -1.745 -1.7180001 0.31999999
5.2690001 -1.728 -1.717 0.34999999
5.2859998 -1.715 -1.721 0.38
5.276 -1.694 -1.716 0.36000001
5.2849998 -1.678 -1.717 0.34999999
5.2909999 -1.6619999 -1.717 0.30000001
5.2859998 -1.651 -1.714 0.34
5.2930002 -1.635 -1.715 0.40000001
5.2979999 -1.619 -1.715 0.36000001
5.2870002 -1.597 -1.709 0.33000001
5.3010001 -1.5829999 -1.712 0.38999999
5.3130002 -1.569 -1.715 0.31999999
5.309 -1.549 -1.712 0.34999999
5.3039999 -1.539 -1.709 0.30000001
5.316 -1.524 -1.712 0.38
5.3080001 -1.5039999 -1.707 0.34999999
5.322 -1.49 -1.711 0.34999999
5.336 -1.476 -1.714 0.34999999
5.3239999 -1.454 -1.7079999 0.34999999
5.3280001 -1.438 -1.7079999 0.31
5.342 -1.432 -1.712 0.41
5.3330002 -1.4119999 -1.707 0.30000001
5.336 -1.395 -1.707 0.36000001
5.3569999 -1.382 -1.712 0.34999999
5.3439999 -1.3609999 -1.707 0.36000001
5.3540001 -1.346 -1.709 0.38
5.369 -1.341 -1.7130001 0.31999999
5.355 -1.319 -1.707 0.30000001
5.3649998 -1.304 -1.709 0.40000001
5.3720002 -1.288 -1.71 0.30000001
5.3600001 -1.267 -1.704 0.38
5.3709998 -1.252 -1.707 0.31999999
5.375 -1.235 -1.707 0.36000001
5.3639998 -1.224 -1.702 0.30000001
5.388 -1.211 -1.709 0.38999999
5.3850002 -1.193 -1.707 0.34
5.3790002 -1.174 -1.704 0.34
5.3959999 -1.16 -1.7079999 0.31
5.3920002 -1.141 -1.706 0.34
5.382 -1.122 -1.701 0.31999999
5.388 -1.114 -1.702 0.37
5.4039998 -1.099 -1.707 0.34
5.3889999 -1.079 -1.701 0.34
5.4000001 -1.063 -1.7029999 0.30000001
5.4000001 -1.046 -1.702 0.33000001
5.3969998 -1.028 -1.7 0.33000001
5.408 -1.012 -1.702 0.36000001
5.4070001 -0.99400002 -1.701 0.30000001
5.4070001 -0.986 -1.701 0.31
5.408 -0.96799999 -1.7 0.31
5.428 -0.954 -1.706 0.34
5.4200001 -0.935 -1.702 0.31
5.415 -0.917 -1.699 0.31
5.4200001 -0.89999998 -1.7 0.31999999
5.4029999 -0.889 -1.694 0.28999999
5.4320002 -0.87599999 -1.702 0.34
5.4250002 -0.85699999 -1.699 0.31999999
5.4200001 -0.83899999 -1.697 0.31999999
5.4299998 -0.82300001 -1.699 0.31
5.4289999 -0.80599999 -1.698 0.31
5.4320002 -0.78899997 -1.698 0.30000001
5.4369998 -0.78100002 -1.699 0.31999999
5.4310002 -0.76200002 -1.697 0.30000001
5.4359999 -0.74599999 -1.697 0.31999999
5.434 -0.72799999 -1.696 0.31999999
5.4460001 -0.71200001 -1.699 0.33000001
5.4369998 -0.69400001 -1.6950001 0.28999999
5.4359999 -0.685 -1.6950001 0.28999999
5.4439998 -0.66900003 -1.697 0.31999999
5.4400001 -0.65100002 -1.6950001 0.31999999
5.4369998 -0.63300002 -1.693 0.30000001
5.4499998 -0.61699998 -1.697 0.31999999
5.4419999 -0.59899998 -1.694 0.27000001
5.4400001 -0.58200002 -1.692 0.31
5.441 -0.57300001 -1.692 0.34999999
5.4450002 -0.55599999 -1.693 0.31999999
5.4489999 -0.53899997 -1.694 0.28999999
5.4499998 -0.52200001 -1.694 0.31
5.4349999 -0.50300002 -1.688 0.30000001
5.4439998 -0.48699999 -1.6900001 0.31
5.4419999 -0.47 -1.689 0.31999999
5.4390001 -0.461 -1.688 0.31
5.4569998 -0.44499999 -1.694 0.30000001
5.441 -0.42699999 -1.688 0.33000001
5.448 -0.41 -1.6900001 0.33000001
5.4460001 -0.39199999 -1.689 0.30000001
5.447 -0.375 -1.689 0.31999999
5.4439998 -0.35800001 -1.687 0.31999999
5.447 -0.34999999 -1.688 0.30000001
5.4559999 -0.333 -1.6900001 0.34999999
5.4359999 -0.315 -1.684 0.30000001
5.4419999 -0.29800001 -1.6849999 0.31999999
5.4450002 -0.28099999 -1.686 0.37
5.4330001 -0.26300001 -1.682 0.30000001
5.4450002 -0.24699999 -1.6849999 0.23999999
5.4450002 -0.23800001 -1.6849999 0.41
5.4419999 -0.221 -1.684 0.30000001
5.4429998 -0.204 -1.684 0.31999999
5.4489999 -0.18700001 -1.686 0.31999999
5.4400001 -0.169 -1.683 0.37
5.4349999 -0.152 -1.681 0.28
5.441 -0.13500001 -1.683 0.31999999
5.441 -0.127 -1.683 0.36000001
5.4460001 -0.11 -1.684 0.30000001
5.4460001 -0.092 -1.684 0.31999999
5.4330001 -0.075000003 -1.6799999 0.31999999
5.4499998 -0.057999998 -1.6849999 0.38
5.447 -0.041000001 -1.684 0.31999999
5.447 -0.024 -1.684 0.38
5.454 -0.015 -1.687 0.31
5.2849998 0.014 -1.6799999 0.039999999
5.283 0.030999999 -1.679 0.07
5.2870002 0.039000001 -1.6799999 0.039999999
5.283 0.055 -1.679 0.07
5.2810001 0.071999997 -1.678 0.039999999
5.2859998 0.089000002 -1.6799999 0.07
5.2880001 0.105 -1.681 0.16
5.2950001 0.122 -1.683 0.16
5.2880001 0.13 -1.681 0.039999999
5.2810001 0.147 -1.679 0.07
5.2709999 0.163 -1.676 0.039999999
5.277 0.18000001 -1.678 0.07
5.2800002 0.197 -1.679 0.039999999
5.2789998 0.213 -1.679 0.07
5.2800002 0.23 -1.6799999 0.079999998
5.2690001 0.23800001 -1.676 0.039999999
5.2740002 0.25400001 -1.678 0.07
5.2800002 0.271 -1.6799999 0.16
5.277 0.28799999 -1.6799999 0.039999999
5.2690001 0.30399999 -1.677 0
5.2789998 0.32100001 -1.681 0.07
5.2750001 0.338 -1.6799999 0.039999999
5.27 0.34599999 -1.678 0.07
5.277 0.36300001 -1.681 0.039999999
5.2750001 0.37900001 -1.681 0.07
5.2709999 0.396 -1.6799999 0.079999998
5.2810001 0.41299999 -1.683 0.079999998
5.2719998 0.42899999 -1.681 0.039999999
5.2740002 0.44600001 -1.682 0.07
5.2789998 0.45500001 -1.684 0.039999999
5.27 0.47 -1.682 0
5.27 0.48699999 -1.682 0
5.263 0.50300002 -1.6799999 0
5.2670002 0.51999998 -1.682 0
5.277 0.53799999 -1.686 0
5.2600002 0.55299997 -1.681 0
5.2589998 0.56099999 -1.681 0
5.2589998 0.57800001 -1.682 0
5.2610002 0.59500003 -1.683 0
5.263 0.61199999 -1.684 0
5.2519999 0.62699997 -1.681 0
5.25 0.64399999 -1.681 0
5.2670002 0.66299999 -1.687 0
5.256 0.67000002 -1.684 0
5.2950001 0.69099998 -1.698 0
5.2909999 0.708 -1.698 0
5.2870002 0.72399998 -1.697 0
5.29 0.74199998 -1.699 0
5.2810001 0.75700003 -1.696 0
5.2589998 0.77100003 -1.6900001 0
5.2540002 0.77899998 -1.689 0
5.2579999 0.796 -1.691 0
5.2480001 0.81099999 -1.688 0
5.2750001 0.833 -1.698 0
5.2690001 0.84799999 -1.697 0
5.2729998 0.866 -1.7 0
5.2649999 0.88200003 -1.698 0
5.2600002 0.88999999 -1.696 0
5.2610002 0.90700001 -1.698 0
5.2340002 0.91900003 -1.689 0
5.2680001 0.94199997 -1.702 0
5.2329998 0.95300001 -1.691 0
5.2620001 0.97500002 -1.702 0
5.2550001 0.991 -1.701 0
5.2220001 0.99299997 -1.6900001 0
5.256 1.017 -1.7029999 0
5.2249999 1.028 -1.693 0
5.2459998 1.049 -1.702 0
5.2199998 1.061 -1.694 0
5.2150002 1.077 -1.693 0
5.2119999 1.0930001 -1.693 0
5.217 1.103 -1.696 0
5.2119999 1.119 -1.6950001 0
5.2069998 1.135 -1.694 0
5.2049999 1.152 -1.6950001 0
5.2049999 1.169 -1.696 0.059999999
5.2069998 1.187 -1.698 0.039999999
5.1989999 1.202 -1.697 0.029999999
5.2119999 1.214 -1.702 0.07
5.1950002 1.227 -1.698 0.039999999
5.204 1.2460001 -1.702 0.029999999
5.2129998 1.266 -1.707 0.07
5.1960001 1.279 -1.702 0.039999999
5.198 1.2970001 -1.704 0.07
5.2049999 1.307 -1.707 0.079999998
5.197 1.323 -1.706 0.079999998
5.197 1.34 -1.707 0.079999998
5.1929998 1.3559999 -1.707 0.079999998
5.1859999 1.372 -1.707 0.079999998
5.1859999 1.3890001 -1.7079999 0.15000001
5.1700001 1.403 -1.704 0.039999999
5.177 1.413 -1.707 0.079999998
5.1750002 1.4299999 -1.7079999 0.079999998
5.1830001 1.45 -1.712 0.079999998
5.1729999 1.464 -1.711 0.079999998
5.177 1.483 -1.714 0.18000001
5.1750002 1.5 -1.714 0.23
5.1589999 1.513 -1.711 0.18000001
5.1620002 1.523 -1.712 0.1
5.1630001 1.541 -1.714 0.16
5.1599998 1.557 -1.715 0.22
5.1420002 1.5700001 -1.711 0.17
5.1459999 1.589 -1.714 0.25
5.1500001 1.608 -1.717 0.22
5.1230001 1.617 -1.709 0.2
5.1389999 1.631 -1.716 0.28
5.132 1.646 -1.715 0.19
5.1300001 1.664 -1.716 0.20999999
5.132 1.682 -1.719 0.1
5.1160002 1.6950001 -1.715 0.17
5.1110001 1.711 -1.715 0.12
5.1090002 1.728 -1.716 0.19
5.086 1.729 -1.709 0.050000001
5.1030002 1.753 -1.717 0.17
5.1020002 1.77 -1.719 0.1
5.0929999 1.785 -1.7180001 0.16
5.0840001 1.8 -1.716 0.050000001
5.0939999 1.822 -1.722 0.17
5.0780001 1.834 -1.7180001 0.11
5.086 1.846 -1.722 0.18000001
5.0760002 1.86 -1.721 0.20999999
5.0650001 1.874 -1.719 0.1
5.0700002 1.8940001 -1.723 0.18000001
5.073 1.913 -1.726 0.12
5.0489998 1.923 -1.72 0.18000001
5.0359998 1.936 -1.717 0.050000001
5.0469999 1.949 -1.722 0.18000001
5.0320001 1.961 -1.719 0.050000001
5.0380001 1.982 -1.723 0.17
5.0209999 1.994 -1.72 0.050000001
5.0219998 2.0120001 -1.722 0.17
4.993 2.0190001 -1.714 0
4.948 2.0190001 -1.7 0
4.1859999 1.72 -1.421 0
4.1739998 1.7309999 -1.419 0
4.1529999 1.737 -1.413 0
4.1469998 1.75 -1.413 0
4.1160002 1.752 -1.403 0
4.0370002 1.734 -1.376 0
3.9909999 1.73 -1.3609999 0
3.99 1.737 -1.362 0
3.9519999 1.735 -1.35 0
3.9030001 1.729 -1.334 0
3.8629999 1.726 -1.321 0
3.8889999 1.752 -1.332 0
3.8729999 1.7589999 -1.3279999 0
3.8570001 1.767 -1.325 0
3.7780001 1.738 -1.296 0
3.6989999 1.716 -1.268 0
3.697 1.73 -1.27 0
3.6689999 1.7309999 -1.261 0
0.95099998 2.5480001 -0.80599999 0
0.958 2.592 -0.82099998 0
0.954 2.6040001 -0.824 0
0.95099998 2.6229999 -0.82999998 0
0.94400001 2.6270001 -0.83099997 0
0.935 2.6170001 -0.82599998 0
0.95099998 3.0699999 -0.97500002 0
0.95899999 3.1270001 -0.99400002 0
1.465 4.8390002 -1.602 0.13
1.452 4.8509998 -1.604 0.18000001
1.432 4.8369999 -1.598 0.050000001
1.426 4.8470001 -1.6 0.17
1.416 4.868 -1.6059999 0.2
1.39 4.8379998 -1.594 0.16
1.3609999 4.7950001 -1.577 0.28
1.365 4.8649998 -1.6 0.23
1.348 4.8629999 -1.598 0.14
1.3329999 4.868 -1.598 0.28999999
1.323 4.8610001 -1.595 0.23999999
1.307 4.8629999 -1.595 0.25999999
1.284 4.8379998 -1.584 0.18000001
1.268 4.8400002 -1.584 0.31999999
1.234 4.7709999 -1.558 0.23999999
1.209 4.7379999 -1.545 0.23999999
1.223 4.855 -1.585 0.31999999
1.2130001 4.848 -1.582 0.31
1.184 4.7969999 -1.562 0.25999999
1.179 4.8390002 -1.576 0.28999999
1.15 4.7870002 -1.557 0.34999999
1.081 4.5700002 -1.479 0.23
1.1109999 4.756 -1.543 0.18000001
1.091 4.737 -1.535 0.31999999
1.067 4.6690001 -1.511 0.22
1.02 4.5339999 -1.462 0.14
1.015 4.5799999 -1.477 0.28999999
1.007 4.6100001 -1.487 0.23
0.97899997 4.5489998 -1.464 0.18000001
0.94700003 4.4710002 -1.436 0.28
0.926 4.4419999 -1.425 0.23999999
0.93900001 4.54 -1.459 0.14
0.94199997 4.6240001 -1.487 0.30000001
0.91299999 4.5570002 -1.462 0.23999999
0.87900001 4.461 -1.428 0.23
0.87300003 4.507 -1.443 0.28999999
0.84600002 4.441 -1.419 0.25999999
0.83200002 4.4429998 -1.419 0.28
0.81999999 4.4190001 -1.41 0.27000001
0.80800003 4.4320002 -1.414 0.25999999
0.792 4.4250002 -1.411 0.15000001
0.77600002 4.415 -1.406 0.31999999
0.76499999 4.434 -1.4119999 0.25
0.74199998 4.3839998 -1.3940001 0.28999999
0.72500002 4.3699999 -1.388 0.25
0.72500002 4.408 -1.401 0.28
0.70899999 4.3990002 -1.397 0.28
0.69999999 4.428 -1.406 0.28
0.66500002 4.3010001 -1.362 0.31999999
0.648 4.2820001 -1.355 0.25999999
0.63099998 4.2600002 -1.346 0.30000001
0.62300003 4.3010001 -1.36 0.23
0.60399997 4.2140002 -1.33 0.18000001
0.59100002 4.2199998 -1.331 0.31999999
0.59299999 4.3319998 -1.369 0.23
0.58499998 4.368 -1.381 0.27000001
0.56300002 4.3099999 -1.36 0.23
0.54400003 4.276 -1.348 0.16
0.528 4.2529998 -1.339 0.30000001
0.53100002 4.3309999 -1.3660001 0.23
0.50999999 4.2740002 -1.346 0.25999999
0.49900001 4.2950001 -1.352 0.28999999
0.50199997 4.4330001 -1.399 0.22
0.47400001 4.3130002 -1.357 0.37
0.458 4.2989998 -1.352 0.25
0.44299999 4.2820001 -1.346 0.34
0.42899999 4.2810001 -1.345 0.31
0.42199999 4.276 -1.3430001 0.38
0.40900001 4.2849998 -1.346 0.30000001
0.39300001 4.2600002 -1.337 0.28
0.37799999 4.2389998 -1.329 0.28999999
0.36399999 4.2379999 -1.3279999 0.17
0.35299999 4.2670002 -1.3380001 0.28999999
0.34099999 4.2849998 -1.344 0.22
0.33500001 4.2880001 -1.344 0.28999999
0.32300001 4.3130002 -1.353 0.30000001
0.31 4.3200002 -1.355 0.28
0.296 4.3150001 -1.353 0.30000001
0.28099999 4.2919998 -1.344 0.20999999
0.27000001 4.3319998 -1.358 0.30000001
0.25400001 4.29 -1.3430001 0.20999999
0.245 4.2620001 -1.334 0.23999999
0.234 4.2940001 -1.344 0.34999999
0.21799999 4.263 -1.334 0.28
0.206 4.2859998 -1.341 0.28999999
0.189 4.2150002 -1.317 0.30000001
0.17200001 4.1420002 -1.2920001 0.23
0.15899999 4.1290002 -1.2869999 0.30000001
0.153 4.152 -1.295 0.23
0.14 4.1409998 -1.291 0.31999999
0.131 4.2509999 -1.3279999 0.28999999
0.114 4.1459999 -1.2920001 0.28999999
0.102 4.1760001 -1.303 0.27000001
0.089000002 4.1939998 -1.308 0.30000001
0.075999998 4.2069998 -1.313 0.31999999
0.068999998 4.1729999 -1.301 0.31999999
0.055 4.158 -1.296 0.25999999
0.043000001 4.204 -1.312 0.30000001
0.029999999 4.2420001 -1.325 0.25
0.017000001 4.263 -1.332 0.27000001
0.0040000002 4.2249999 -1.319 0.25
-0.0099999998 4.2379999 -1.323 0.34
-0.016000001 4.2329998 -1.321 0.31
-0.029999999 4.2080002 -1.313 0.28
-0.043000001 4.2059999 -1.312 0.22
-0.056000002 4.23 -1.321 0.19
-0.068999998 4.211 -1.314 0.33000001
-0.081 4.1129999 -1.281 0.25
-0.094999999 4.1329999 -1.288 0.23
-0.101 4.125 -1.285 0.31
-0.114 4.1399999 -1.29 0.33000001
-0.131 4.2909999 -1.342 0.15000001
-0.142 4.211 -1.3150001 0.31
-0.155 4.1960001 -1.3099999 0.23
-0.16500001 4.1079998 -1.28 0.31999999
-0.17900001 4.132 -1.288 0.27000001
-0.18700001 4.1830001 -1.306 0.25
-0.199 4.152 -1.296 0.28999999
-0.212 4.1399999 -1.2920001 0.31999999
-0.229 4.223 -1.3200001 0.27000001
-0.241 4.2049999 -1.314 0.25
-0.25999999 4.3060002 -1.349 0.11
-0.273 4.2979999 -1.346 0.14
