# .PCD v0.7 - Point Cloud Data file format
VERSION 0.7
FIELDS x y z intensity
SIZE 4 4 4 4
TYPE F F F F
COUNT 1 1 1 1
WIDTH 1401
HEIGHT 1
VIEWPOINT 0 0 0 1 0 0 0
POINTS 1401
DATA ascii
-11.07 -10.977 -1.331 0.37
-11.021 -10.998 -1.329 0.47
-10.991 -11.037 -1.33 0.34999999
-10.974 -11.09 -1.332 0.17
-10.581 -10.759 -1.2819999 0.46000001
-10.528 -10.772 -1.279 0.38
-10.45 -10.759 -1.273 0.47999999
-10.408 -10.75 -1.2690001 0.36000001
-10.341 -10.748 -1.265 0.49000001
-10.295 -10.768 -1.263 0.36000001
-10.213 -10.749 -1.256 0.47999999
-10.16 -10.761 -1.253 0.38999999
-10.086 -10.749 -1.248 0.63999999
-8.2539997 -8.8459997 -0.98799998 0.27000001
-8.2089996 -8.8249998 -0.98400003 0.64999998
-9.9239998 -10.745 -1.2359999 0.28999999
-9.8760004 -10.76 -1.234 0.38
-9.8059998 -10.751 -1.229 0.50999999
-9.757 -10.765 -1.227 0.38999999
-9.6820002 -10.75 -1.221 0.5
-9.632 -10.762 -1.2180001 0.38
-9.6020002 -10.763 -1.216 0.66000003
-8.0550003 -9.0799999 -0.99199998 0.20999999
-8.0059996 -9.0819998 -0.98900002 0.46000001
-7.9549999 -9.0810003 -0.986 0.70999998
-7.9070001 -9.0839996 -0.98299998 0.41
-7.6820002 -8.8809996 -0.95300001 0.43000001
-7.7010002 -8.9300003 -0.958 0.22
-7.994 -9.3319998 -1.007 0.68000001
-7.9910002 -9.3870001 -1.011 0.23999999
-9.4359999 -11.163 -1.235 0.38999999
-9.3719997 -11.159 -1.2309999 0.43000001
-9.3079996 -11.153 -1.227 0.52999997
-9.2620001 -11.169 -1.225 0.40000001
-9.2200003 -11.154 -1.221 0.41
-9.158 -11.15 -1.217 0.41999999
-9.1070004 -11.159 -1.215 0.43000001
-9.0509996 -11.161 -1.211 0.43000001
-8.9960003 -11.165 -1.2079999 0.41
-8.9379997 -11.165 -1.205 0.41
-8.8999996 -11.153 -1.201 0.41999999
-8.8389997 -11.148 -1.197 0.41
-8.7969999 -11.168 -1.196 0.41999999
-8.7290001 -11.153 -1.191 0.41
-8.6780005 -11.16 -1.188 0.41
-8.6260004 -11.165 -1.186 0.41999999
-8.5670004 -11.16 -1.182 0.41999999
-8.5290003 -11.147 -1.178 0.41999999
-8.4759998 -11.15 -1.175 0.41
-8.4230003 -11.152 -1.1720001 0.41999999
-8.3640003 -11.147 -1.169 0.43000001
-8.3120003 -11.151 -1.166 0.43000001
-8.2600002 -11.154 -1.163 0.43000001
-8.2069998 -11.155 -1.16 0.43000001
-8.1759996 -11.15 -1.158 0.44999999
-8.1239996 -11.151 -1.155 0.44999999
-8.0699997 -11.151 -1.152 0.44
-8.0100002 -11.142 -1.148 0.54000002
-7.9679999 -11.158 -1.146 0.38999999
-7.921 -11.165 -1.1440001 0.41999999
-7.868 -11.165 -1.141 0.44
-7.8319998 -11.15 -1.138 0.44999999
-7.7849998 -11.158 -1.136 0.43000001
-7.73 -11.153 -1.133 0.43000001
-7.6810002 -11.157 -1.13 0.44
-7.6290002 -11.157 -1.127 0.44
-7.5770001 -11.156 -1.124 0.44999999
-7.5489998 -11.151 -1.122 0.44
-7.4970002 -11.15 -1.119 0.43000001
-7.448 -11.152 -1.117 0.43000001
-7.3959999 -11.151 -1.114 0.44
-7.3509998 -11.159 -1.112 0.44999999
-7.2989998 -11.155 -1.109 0.43000001
-7.244 -11.148 -1.1059999 0.44
-7.2179999 -11.146 -1.104 0.43000001
-7.171 -11.15 -1.102 0.43000001
-7.1199999 -11.147 -1.099 0.44
-7.0770001 -11.156 -1.097 0.44999999
-7.027 -11.155 -1.095 0.44999999
-6.9850001 -11.167 -1.0930001 0.44999999
-6.9499998 -11.149 -1.09 0.44999999
-6.9039998 -11.154 -1.0880001 0.43000001
-6.8540001 -11.15 -1.085 0.44999999
-6.8109999 -11.159 -1.084 0.46000001
-6.7620001 -11.157 -1.081 0.46000001
-6.7150002 -11.158 -1.079 0.44999999
-6.6680002 -11.16 -1.077 0.47999999
-6.6389999 -11.15 -1.074 0.44
-6.592 -11.152 -1.072 0.46000001
-6.546 -11.153 -1.0700001 0.44999999
-6.5029998 -11.16 -1.068 0.44999999
-6.4559999 -11.16 -1.066 0.46000001
-6.4029999 -11.149 -1.063 0.46000001
-6.3779998 -11.145 -1.061 0.46000001
-6.335 -11.151 -1.059 0.44999999
-6.29 -11.154 -1.057 0.44999999
-6.2379999 -11.142 -1.054 0.46000001
-6.1939998 -11.146 -1.052 0.47999999
-6.1479998 -11.146 -1.05 0.47
-6.1079998 -11.155 -1.049 0.46000001
-6.0780001 -11.142 -1.046 0.46000001
-6.0339999 -11.145 -1.045 0.44999999
-5.9879999 -11.143 -1.0420001 0.46000001
-5.9489999 -11.155 -1.041 0.44999999
-5.901 -11.149 -1.039 0.44999999
-5.862 -11.158 -1.038 0.47
-5.8150001 -11.154 -1.035 0.46000001
-5.7880001 -11.145 -1.033 0.47999999
-5.75 -11.158 -1.033 0.47
-5.6999998 -11.146 -1.029 0.46000001
-5.6570001 -11.148 -1.028 0.46000001
-5.6139998 -11.151 -1.026 0.46000001
-5.572 -11.155 -1.024 0.47
-5.5469999 -11.147 -1.023 0.47
-5.5120001 -11.165 -1.023 0.46000001
-5.4699998 -11.168 -1.021 0.44999999
-5.4169998 -11.149 -1.017 0.44999999
-5.3759999 -11.153 -1.016 0.44
-5.3330002 -11.154 -1.0140001 0.44999999
-5.2909999 -11.154 -1.012 0.44
-5.2649999 -11.145 -1.01 0.44999999
-5.2259998 -11.154 -1.01 0.43000001
-5.1789999 -11.145 -1.007 0.46000001
-5.1389999 -11.149 -1.005 0.46000001
-5.0819998 -11.117 -1 0.68000001
-5.1329999 -11.324 -1.021 0.38999999
-3.0940001 -6.8569999 -0.53899997 0.11
-3.0780001 -6.8509998 -0.537 0.20999999
-3.0420001 -6.8280001 -0.53399998 0.44999999
-3.03 -6.8590002 -0.53600001 0.2
-4.8200002 -11.14 -0.99199998 0.47999999
-4.7849998 -11.155 -0.99199998 0.63
-4.7610002 -11.146 -0.99000001 0.62
-4.7189999 -11.145 -0.98799998 0.62
-4.6789999 -11.149 -0.98699999 0.62
-4.6370001 -11.147 -0.986 0.62
-4.5939999 -11.141 -0.98299998 0.63
-4.5599999 -11.159 -0.98400003 0.63
-4.5149999 -11.147 -0.98100001 0.64999998
-4.4910002 -11.14 -0.97899997 0.64999998
-4.4530001 -11.146 -0.97899997 0.66000003
-4.4120002 -11.144 -0.977 0.63999999
-4.3709998 -11.143 -0.97500002 0.64999998
-4.3319998 -11.147 -0.97399998 0.66000003
-4.2930002 -11.149 -0.97299999 0.63
-4.25 -11.14 -0.97100002 0.63
-4.2290001 -11.14 -0.97000003 0.63999999
-4.1919999 -11.145 -0.96899998 0.63999999
-4.151 -11.144 -0.96799999 0.64999998
-4.1129999 -11.147 -0.96700001 0.66000003
-4.0749998 -11.153 -0.96600002 0.63
-4.0310001 -11.141 -0.963 0.64999998
-4.0139999 -11.149 -0.96399999 0.64999998
-3.974 -11.147 -0.96200001 0.64999998
-3.9300001 -11.135 -0.95999998 0.63999999
-3.898 -11.157 -0.96100003 0.66000003
-3.8570001 -11.15 -0.95899999 0.66000003
-3.8150001 -11.141 -0.95599997 0.63999999
-3.7750001 -11.14 -0.95499998 0.63999999
-3.757 -11.142 -0.95499998 0.63
-3.717 -11.139 -0.95300001 0.64999998
-3.6819999 -11.15 -0.95300001 0.64999998
-3.638 -11.137 -0.95099998 0.67000002
-3.5999999 -11.139 -0.94999999 0.67000002
-3.562 -11.139 -0.94800001 0.66000003
-3.54 -11.129 -0.94700003 0.66000003
-3.5020001 -11.131 -0.94599998 0.66000003
-3.4630001 -11.13 -0.94499999 0.64999998
-3.4260001 -11.136 -0.94400001 0.64999998
-3.388 -11.135 -0.94300002 0.66000003
-3.3499999 -11.136 -0.94199997 0.66000003
-3.3110001 -11.133 -0.94099998 0.63999999
-3.293 -11.136 -0.94 0.63999999
-3.2520001 -11.127 -0.93800002 0.66000003
-3.217 -11.136 -0.93800002 0.63999999
-3.178 -11.132 -0.93699998 0.63999999
-3.142 -11.137 -0.93599999 0.63999999
-3.1040001 -11.139 -0.935 0.64999998
-3.082 -11.126 -0.93400002 0.66000003
-3.0469999 -11.134 -0.93400002 0.63
-3.0109999 -11.142 -0.93300003 0.63999999
-2.9719999 -11.134 -0.93199998 0.63
-2.934 -11.133 -0.93099999 0.63999999
-2.8959999 -11.131 -0.92900002 0.63999999
-2.859 -11.132 -0.92900002 0.62
-2.842 -11.139 -0.92900002 0.63999999
-2.8050001 -11.14 -0.92799997 0.63
-2.766 -11.133 -0.926 0.62
-2.73 -11.136 -0.926 0.62
-2.6930001 -11.135 -0.92500001 0.60000002
-2.655 -11.132 -0.92400002 0.62
-2.618 -11.13 -0.92299998 0.62
-2.599 -11.13 -0.92199999 0.62
-2.562 -11.127 -0.921 0.63
-2.5250001 -11.125 -0.92000002 0.63
-2.4890001 -11.129 -0.92000002 0.62
-2.4530001 -11.133 -0.91900003 0.63
-2.411 -11.109 -0.91600001 0.67000002
-1.975 -9.1470003 -0.71899998 0.50999999
-1.95 -9.1730003 -0.72100002 0.31
-1.916 -9.151 -0.71799999 0.31999999
-1.882 -9.1300001 -0.71499997 0.44999999
-1.858 -9.1590004 -0.71799999 0.41
-1.8329999 -9.1890001 -0.72000003 0.43000001
-2.1800001 -11.135 -0.91399997 0.23999999
-2.154 -11.095 -0.91000003 0.74000001
-1.793 -9.3710003 -0.73699999 0.27000001
-1.7589999 -9.3549995 -0.73500001 0.44
-1.737 -9.3979998 -0.73799998 0.40000001
-1.692 -9.3170004 -0.73000002 0.34999999
-1.6799999 -9.4239998 -0.74000001 0.43000001
-1.659 -9.3859997 -0.736 0.38
-1.558 -8.9729996 -0.69400001 0.41
-1.525 -8.948 -0.69099998 0.38999999
-1.494 -8.9370003 -0.69 0.37
-1.471 -8.9729996 -0.69300002 0.40000001
-1.439 -8.9540005 -0.69 0.38999999
-1.411 -8.9610004 -0.69099998 0.44
-1.402 -8.993 -0.69400001 0.31999999
-1.375 -9.0089998 -0.69499999 0.47
-1.344 -8.993 -0.69300002 0.36000001
-1.734 -11.915 -0.98199999 0.40000001
-1.729 -12.151 -1.005 0.34
-1.722 -12.386 -1.028 0.62
-1.714 -12.626 -1.051 0.27000001
-1.4960001 -11.125 -0.90200001 0.28999999
-1.4579999 -11.108 -0.89999998 0.58999997
-1.428 -11.154 -0.90399998 0.15000001
-1.369 -10.959 -0.884 0.51999998
-1.334 -10.961 -0.884 0.28999999
-1.317 -11.111 -0.89899999 0.54000002
-1.284 -10.977 -0.88499999 0.31999999
-1.258 -11.062 -0.89300001 0.41999999
-1.229 -11.113 -0.898 0.40000001
-1.196 -11.141 -0.89999998 0.41999999
-1.145 -10.982 -0.884 0.43000001
-1.1109999 -10.994 -0.88499999 0.36000001
-1.073 -10.965 -0.88200003 0.46000001
-1.0700001 -11.112 -0.89600003 0.34999999
-1.035 -11.123 -0.89700001 0.41
-0.99400002 -11.049 -0.889 0.47999999
-0.96499997 -11.125 -0.89700001 0.27000001
-0.92000002 -11.001 -0.884 0.51999998
-0.88200003 -10.957 -0.87900001 0.31
-0.86500001 -10.966 -0.88 0.44
-0.83999997 -11.1 -0.89300001 0.38
-0.80900002 -11.16 -0.89899999 0.43000001
-0.76999998 -11.099 -0.89200002 0.44999999
-0.72899997 -11.002 -0.88300002 0.40000001
-0.70200002 -11.127 -0.89499998 0.30000001
-0.66500002 -11.095 -0.89099997 0.54000002
-0.64200002 -11.007 -0.88300002 0.27000001
-0.60699999 -10.993 -0.88099998 0.51999998
-0.57200003 -10.983 -0.88 0.27000001
-0.53600001 -10.949 -0.87599999 0.49000001
-0.50599998 -11.07 -0.88800001 0.36000001
-0.472 -11.083 -0.889 0.38999999
-0.43799999 -11.093 -0.88999999 0.5
-0.421 -11.105 -0.89099997 0.38999999
-0.38499999 -11.083 -0.889 0.54000002
-0.35100001 -11.1 -0.89099997 0.40000001
-0.315 -11.081 -0.889 0.50999999
-0.28099999 -11.092 -0.88999999 0.38
-0.24600001 -11.089 -0.889 0.50999999
-0.228 -11.099 -0.88999999 0.38999999
-0.193 -11.084 -0.889 0.51999998
-0.15899999 -11.102 -0.88999999 0.38999999
-0.124 -11.087 -0.889 0.41
-0.089000002 -11.085 -0.889 0.54000002
-0.054000001 -11.093 -0.889 0.38
-0.018999999 -11.087 -0.889 0.51999998
-0.0020000001 -11.093 -0.889 0.38999999
0.033 -11.08 -0.88800001 0.5
0.068000004 -11.091 -0.889 0.38
0.103 -11.079 -0.88800001 0.5
0.138 -11.113 -0.89099997 0.38
0.17200001 -11.078 -0.88800001 0.52999997
0.19 -11.096 -0.88999999 0.38999999
0.22400001 -11.075 -0.88800001 0.52999997
0.25999999 -11.09 -0.889 0.38999999
0.294 -11.09 -0.889 0.51999998
0.33000001 -11.112 -0.89200002 0.40000001
0.36399999 -11.078 -0.88800001 0.52999997
0.39899999 -11.09 -0.88999999 0.38
0.41600001 -11.07 -0.88800001 0.58999997
0.45100001 -11.088 -0.88999999 0.33000001
0.486 -11.079 -0.889 0.46000001
0.52100003 -11.077 -0.889 0.41999999
0.55599999 -11.095 -0.89099997 0.43000001
0.58999997 -11.078 -0.889 0.41
0.60799998 -11.077 -0.889 0.41
0.64300001 -11.087 -0.89099997 0.38999999
0.67900002 -11.093 -0.89099997 0.38999999
0.71200001 -11.063 -0.889 0.44
0.74900001 -11.096 -0.89200002 0.36000001
0.78200001 -11.066 -0.889 0.47
0.81900001 -11.093 -0.89200002 0.28
0.833 -11.054 -0.889 0.61000001
0.87 -10.658 -0.85000002 0.5
0.90200001 -10.643 -0.84899998 0.50999999
0.93599999 -10.638 -0.84899998 0.52999997
0.96899998 -10.639 -0.84899998 0.54000002
1.003 -10.638 -0.84899998 0.56
1.0190001 -10.635 -0.84899998 0.55000001
1.0549999 -10.655 -0.85100001 0.52999997
1.0880001 -10.646 -0.85100001 0.51999998
1.12 -10.633 -0.85000002 0.52999997
1.155 -10.635 -0.85000002 0.52999997
1.188 -10.633 -0.85100001 0.55000001
1.205 -10.635 -0.85100001 0.55000001
1.238 -10.627 -0.85100001 0.51999998
1.274 -10.639 -0.852 0.52999997
1.307 -10.631 -0.852 0.52999997
1.341 -10.633 -0.852 0.54000002
1.375 -10.635 -0.85299999 0.56
1.409 -10.634 -0.85299999 0.56999999
1.425 -10.63 -0.85299999 0.55000001
1.46 -10.634 -0.85399997 0.54000002
1.493 -10.629 -0.85399997 0.55000001
1.528 -10.636 -0.85500002 0.57999998
1.562 -10.633 -0.85500002 0.56
1.594 -10.622 -0.85500002 0.55000001
1.614 -10.635 -0.85600001 0.56
1.646 -10.624 -0.85600001 0.64999998
1.751 -11.063 -0.89999998 0.44
1.794 -11.111 -0.90499997 0.58999997
1.1339999 -6.9450002 -0.491 0.13
1.14 -6.8470001 -0.48100001 0.14
1.145 -6.75 -0.472 0.14
1.152 -6.7280002 -0.47 0.28999999
1.1720001 -6.717 -0.46900001 0.34
1.194 -6.7189999 -0.47 0.34
1.215 -6.7150002 -0.47 0.34999999
1.237 -6.7150002 -0.47 0.34999999
1.258 -6.7090001 -0.47 0.36000001
1.2819999 -6.723 -0.472 0.34999999
1.29 -6.7049999 -0.47 0.34
1.311 -6.7049999 -0.47099999 0.34999999
1.336 -6.7179999 -0.472 0.34
1.357 -6.7140002 -0.472 0.34
1.377 -6.7020001 -0.472 0.34
1.403 -6.7210002 -0.47400001 0.38
1.4119999 -6.711 -0.47299999 0.33000001
1.436 -6.7220001 -0.47499999 0.37
1.456 -6.7119999 -0.47400001 0.33000001
1.479 -6.7150002 -0.47499999 0.34
1.502 -6.7220001 -0.47600001 0.36000001
1.526 -6.7270002 -0.477 0.34999999
1.544 -6.71 -0.47600001 0.34999999
1.557 -6.7199998 -0.477 0.34
1.579 -6.7150002 -0.477 0.36000001
1.604 -6.7270002 -0.479 0.34
1.625 -6.7220001 -0.479 0.34999999
1.648 -6.7270002 -0.47999999 0.34999999
1.668 -6.7150002 -0.479 0.36000001
1.679 -6.7129998 -0.479 0.34999999
1.701 -6.7129998 -0.47999999 0.34
1.725 -6.7199998 -0.48100001 0.36000001
1.744 -6.704 -0.47999999 0.36000001
1.77 -6.7179999 -0.48199999 0.34999999
1.794 -6.7220001 -0.48300001 0.36000001
1.816 -6.7220001 -0.484 0.36000001
1.826 -6.7160001 -0.48300001 0.36000001
1.849 -6.7160001 -0.484 0.34999999
1.875 -6.7290001 -0.486 0.36000001
1.892 -6.71 -0.484 0.36000001
1.916 -6.7129998 -0.48500001 0.36000001
1.943 -6.7259998 -0.48699999 0.36000001
1.952 -6.7189999 -0.48699999 0.37
1.974 -6.7129998 -0.48699999 0.37
1.999 -6.7199998 -0.48800001 0.37
2.0220001 -6.7220001 -0.48899999 0.38
2.046 -6.7249999 -0.49000001 0.33000001
2.066 -6.7140002 -0.49000001 0.38999999
2.089 -6.7140002 -0.49000001 0.38
2.099 -6.71 -0.49000001 0.38
2.1259999 -6.7210002 -0.49200001 0.34
2.148 -6.7179999 -0.49200001 0.38999999
2.175 -6.7280002 -0.49399999 0.34
2.1949999 -6.7189999 -0.49399999 0.38999999
2.2149999 -6.7090001 -0.49399999 0.38
2.23 -6.7160001 -0.495 0.30000001
2.2509999 -6.711 -0.495 0.5
2.2679999 -6.691 -0.49399999 0.19
3.8069999 -11.064 -0.949 0.36000001
3.8410001 -11.05 -0.949 0.43000001
3.8800001 -11.049 -0.94999999 0.38999999
3.918 -11.046 -0.95099998 0.41
3.941 -11.055 -0.95200002 0.37
3.9820001 -11.061 -0.954 0.38
4.0170002 -11.049 -0.954 0.38
4.0549998 -11.045 -0.95499998 0.41
4.0900002 -11.035 -0.95599997 0.43000001
4.1279998 -11.029 -0.95599997 0.38999999
4.1669998 -11.027 -0.958 0.36000001
4.1890001 -11.034 -0.95899999 0.38
4.2270002 -11.03 -0.95999998 0.28
4.8109999 -12.428 -1.109 0.34
4.8569999 -12.429 -1.11 0.28999999
4.9000001 -12.425 -1.112 0.33000001
4.9499998 -12.437 -1.115 0.31
4.9710002 -12.432 -1.115 0.34999999
5.0100002 -12.418 -1.115 0.46000001
4.5159998 -11.1 -0.977 0.14
4.539 -11.056 -0.97399998 0.37
4.5780001 -11.053 -0.97500002 0.41
5.1789999 -12.385 -1.118 0.31999999
5.21 -12.348 -1.1160001 0.28999999
5.2399998 -12.366 -1.119 0.30000001
5.277 -12.346 -1.118 0.30000001
5.3189998 -12.336 -1.119 0.28
5.3639998 -12.334 -1.1210001 0.30000001
5.4029999 -12.317 -1.1210001 0.30000001
5.4429998 -12.304 -1.1210001 0.28
5.4720001 -12.317 -1.124 0.28999999
5.5149999 -12.309 -1.125 0.31999999
5.5479999 -12.279 -1.123 0.28999999
5.599 -12.289 -1.126 0.31
5.645 -12.287 -1.128 0.30000001
5.6810002 -12.264 -1.127 0.28999999
5.7199998 -12.248 -1.127 0.28999999
5.7449999 -12.25 -1.1289999 0.28999999
5.7849998 -12.235 -1.1289999 0.27000001
4.6719999 -9.8129997 -0.86699998 0.14
4.697 -9.7880001 -0.866 0.34
4.6760001 -9.6660004 -0.85399997 0.56999999
4.7529998 -9.7460003 -0.86500001 0.20999999
5.9770002 -12.193 -1.1339999 0.28999999
6.0219998 -12.187 -1.135 0.28
6.066 -12.18 -1.136 0.30000001
6.1040001 -12.159 -1.136 0.28999999
6.1589999 -12.174 -1.14 0.30000001
6.1919999 -12.144 -1.1390001 0.28
6.2410002 -12.146 -1.141 0.27000001
6.2680001 -12.152 -1.143 0.28999999
6.3049998 -12.13 -1.143 0.28
6.3509998 -12.124 -1.1440001 0.28
6.3959999 -12.118 -1.146 0.30000001
6.434 -12.098 -1.146 0.25999999
6.4720001 -12.076 -1.145 0.27000001
6.4920001 -12.07 -1.146 0.28
6.5349998 -12.058 -1.147 0.28999999
6.5840001 -12.058 -1.149 0.27000001
6.625 -12.043 -1.15 0.28999999
6.664 -12.024 -1.15 0.31
6.7030001 -12.004 -1.15 0.28999999
6.744 -11.99 -1.151 0.28999999
6.7600002 -11.974 -1.15 0.28999999
6.8140001 -11.982 -1.154 0.27000001
6.8579998 -11.971 -1.155 0.28
6.8959999 -11.95 -1.155 0.28999999
6.9349999 -11.931 -1.155 0.30000001
6.9790001 -11.92 -1.156 0.25
7.0180001 -11.901 -1.1569999 0.30000001
7.0300002 -11.878 -1.155 0.27000001
7.086 -11.889 -1.159 0.25999999
7.125 -11.868 -1.159 0.27000001
7.1659999 -11.852 -1.16 0.27000001
7.2090001 -11.84 -1.161 0.30000001
7.2490001 -11.821 -1.1619999 0.27000001
7.2649999 -11.806 -1.161 0.28
7.309 -11.793 -1.1619999 0.28
7.3590002 -11.792 -1.165 0.27000001
7.4039998 -11.781 -1.166 0.30000001
7.4439998 -11.762 -1.1670001 0.28
7.4860001 -11.747 -1.168 0.28
7.5180001 -11.756 -1.17 0.28999999
7.5430002 -11.713 -1.168 0.28
7.5910001 -11.708 -1.17 0.25999999
7.6360002 -11.696 -1.1720001 0.27000001
7.6789999 -11.682 -1.173 0.25999999
7.7249999 -11.672 -1.175 0.27000001
7.7779999 -11.671 -1.177 0.22
4.9130001 -7.3639998 -0.66900003 0.14
4.868 -7.2480001 -0.65700001 0.56
7.8889999 -11.64 -1.181 0.20999999
7.9120002 -11.595 -1.179 0.18000001
7.9590001 -11.585 -1.1799999 0.41999999
7.9990001 -11.565 -1.181 0.25
8.0530005 -11.566 -1.184 0.23999999
8.066 -11.545 -1.183 0.18000001
8.1049995 -11.524 -1.184 0.43000001
8.1440001 -11.502 -1.184 0.25
8.191 -11.492 -1.186 0.27000001
8.2309999 -11.472 -1.187 0.25
8.2790003 -11.462 -1.188 0.25
8.3009996 -11.455 -1.189 0.25999999
8.3509998 -11.448 -1.192 0.23999999
8.3839998 -11.417 -1.191 0.18000001
8.4160004 -11.386 -1.1900001 0.41999999
8.4619999 -11.374 -1.192 0.23999999
8.5030003 -11.354 -1.193 0.25
8.5349998 -11.322 -1.192 0.27000001
8.5620003 -11.321 -1.194 0.25999999
8.6029997 -11.301 -1.1950001 0.25999999
8.6450005 -11.283 -1.196 0.28
5.5970001 -7.2249999 -0.69700003 0.38
5.6989999 -7.309 -0.70999998 0.2
8.7729998 -11.192 -1.197 0.27000001
8.802 -11.157 -1.196 0.27000001
8.8400002 -11.134 -1.196 0.25999999
8.8809996 -11.114 -1.197 0.27000001
8.9110003 -11.079 -1.196 0.25999999
8.96 -11.068 -1.198 0.27000001
9.0019999 -11.049 -1.2 0.28
9.0310001 -11.049 -1.201 0.28
9.0489998 -11.001 -1.199 0.28
9.1070004 -11 -1.202 0.27000001
9.1359997 -10.965 -1.202 0.25999999
9.1960001 -10.967 -1.206 0.2
9.2460003 -10.956 -1.2079999 0.40000001
9.3520002 -11.012 -1.219 0.23999999
9.4180002 -11.053 -1.226 0.27000001
9.4940004 -11.072 -1.232 0.27000001
9.5439997 -11.06 -1.235 0.27000001
9.5719995 -11.022 -1.234 0.25999999
9.6070004 -10.992 -1.234 0.30000001
9.6359997 -10.956 -1.233 0.30000001
9.6409998 -10.927 -1.2309999 0.34
9.665 -10.885 -1.23 0.31
9.677 -10.829 -1.226 0.31999999
9.7089996 -10.798 -1.226 0.31
9.7309999 -10.754 -1.224 0.30000001
9.7519999 -10.708 -1.222 0.31999999
9.7690001 -10.66 -1.22 0.22
9.776 -10.635 -1.219 0.47999999
9.7729998 -10.564 -1.2130001 0.25
9.7989998 -10.526 -1.212 0.25999999
9.8500004 -10.514 -1.215 0.25999999
9.8710003 -10.47 -1.2130001 0.25
9.8900003 -10.425 -1.211 0.25
9.9099998 -10.414 -1.212 0.25
9.9390001 -10.378 -1.211 0.20999999
9.9770002 -10.353 -1.212 0.41
10.003 -10.314 -1.211 0.25
10.042 -10.29 -1.212 0.25
10.059 -10.243 -1.21 0.18000001
10.097 -10.217 -1.211 0.41999999
10.09 -10.178 -1.207 0.25
10.139 -10.163 -1.21 0.27000001
10.172 -10.133 -1.21 0.25999999
10.2 -10.097 -1.209 0.25999999
10.233 -10.066 -1.21 0.28
10.267 -10.036 -1.21 0.28
10.3 -10.005 -1.21 0.25999999
10.31 -9.9840002 -1.209 0.19
10.346 -9.9549999 -1.21 0.44
10.365 -9.9119997 -1.2079999 0.25
10.398 -9.8809996 -1.209 0.25999999
10.429 -9.8479996 -1.209 0.25999999
10.486 -9.8400002 -1.212 0.25999999
10.487 -9.8100004 -1.21 0.20999999
10.524 -9.7819996 -1.211 0.41
10.551 -9.7460003 -1.211 0.23999999
10.597 -9.7259998 -1.2130001 0.25
10.614 -9.6809998 -1.211 0.18000001
10.66 -9.6619997 -1.2130001 0.44999999
10.67 -9.6099997 -1.21 0.25
10.695 -9.6029997 -1.212 0.25999999
10.733 -9.5760002 -1.2130001 0.25
10.751 -9.5310001 -1.211 0.25999999
10.802 -9.5159998 -1.214 0.25
10.83 -9.4809999 -1.214 0.27000001
10.858 -9.4449997 -1.2130001 0.27000001
10.863 -9.4189997 -1.212 0.27000001
10.892 -9.3850002 -1.212 0.27000001
10.932 -9.3599997 -1.2130001 0.27000001
10.956 -9.3199997 -1.2130001 0.25999999
10.994 -9.2930002 -1.214 0.27000001
11.014 -9.2510004 -1.2130001 0.27000001
11.043 -9.2159996 -1.2130001 0.25999999
11.051 -9.1940002 -1.212 0.27000001
11.094 -9.1709995 -1.214 0.27000001
11.132 -9.1429996 -1.215 0.27000001
11.185 -9.1280003 -1.2180001 0.28999999
11.197 -9.0790005 -1.216 0.28
11.23 -9.0480003 -1.216 0.28
11.244 -9.0299997 -1.216 0.28
11.266 -8.9899998 -1.215 0.28
11.305 -8.9630003 -1.217 0.28999999
11.341 -8.934 -1.2180001 0.28
11.362 -8.8920002 -1.217 0.28
11.391 -8.8570004 -1.217 0.28999999
11.406 -8.8120003 -1.215 0.28999999
11.422 -8.7950001 -1.216 0.28
11.468 -8.7740002 -1.2180001 0.28999999
11.48 -8.7259998 -1.216 0.28999999
11.507 -8.6899996 -1.216 0.28
11.525 -8.6459999 -1.215 0.27000001
11.552 -8.6099997 -1.215 0.27000001
11.58 -8.6020002 -1.217 0.28
11.602 -8.5620003 -1.216 0.28999999
11.634 -8.5299997 -1.217 0.28
11.643 -8.4799995 -1.215 0.27000001
11.689 -8.4569998 -1.217 0.27000001
11.725 -8.4280005 -1.2180001 0.28
11.748 -8.3879995 -1.2180001 0.27000001
11.766 -8.3730001 -1.2180001 0.30000001
11.809 -8.3479996 -1.22 0.27000001
11.841 -8.3149996 -1.221 0.28
11.885 -8.2910004 -1.223 0.28999999
11.905 -8.2489996 -1.222 0.28999999
11.932 -8.2119999 -1.223 0.28999999
11.962 -8.2049999 -1.224 0.28999999
12 -8.1759996 -1.226 0.28999999
12.031 -8.1420002 -1.227 0.30000001
12.073 -8.1149998 -1.229 0.28999999
12.09 -8.0710001 -1.228 0.28999999
12.109 -8.0290003 -1.227 0.28999999
12.162 -8.0100002 -1.23 0.28999999
12.183 -7.9959998 -1.2309999 0.27000001
12.228 -7.9710002 -1.233 0.28
12.265 -7.9400001 -1.235 0.28999999
12.288 -7.9000001 -1.235 0.28
12.323 -7.868 -1.2359999 0.27000001
12.373 -7.8449998 -1.239 0.28
12.404 -7.8099999 -1.24 0.28999999
12.425 -7.796 -1.2410001 0.30000001
12.46 -7.763 -1.242 0.28999999
12.509 -7.7399998 -1.245 0.31
12.525 -7.6950002 -1.244 0.28999999
12.57 -7.6680002 -1.2460001 0.30000001
12.582 -7.6220002 -1.245 0.30000001
12.606 -7.6090002 -1.2460001 0.28999999
12.652 -7.5830002 -1.249 0.27000001
12.698 -7.5560002 -1.251 0.28999999
12.735 -7.5240002 -1.253 0.28999999
12.748 -7.4780002 -1.251 0.27000001
12.799 -7.454 -1.255 0.28999999
12.835 -7.421 -1.256 0.28999999
12.846 -7.401 -1.256 0.28999999
12.889 -7.3709998 -1.258 0.30000001
12.913 -7.3309999 -1.258 0.28999999
12.961 -7.3039999 -1.261 0.30000001
12.994 -7.2690001 -1.262 0.31999999
13.015 -7.2280002 -1.262 0.25999999
13.051 -7.2210002 -1.265 0.27000001
13.094 -7.191 -1.267 0.27000001
13.133 -7.158 -1.2690001 0.28999999
13.166 -7.1230001 -1.27 0.30000001
13.202 -7.0890002 -1.272 0.28999999
13.228 -7.0489998 -1.272 0.31999999
13.285 -7.026 -1.276 0.31
13.296 -7.0050001 -1.276 0.36000001
13.323 -6.9660001 -1.276 0.34
13.352 -6.928 -1.277 0.34999999
13.391 -6.895 -1.279 0.34
13.418 -6.8559999 -1.28 0.33000001
13.461 -6.8239999 -1.2819999 0.33000001
13.479 -6.8070002 -1.283 0.37
13.506 -6.7670002 -1.284 0.34
13.543 -6.7329998 -1.285 0.34999999
13.584 -6.6999998 -1.2869999 0.34999999
13.612 -6.6599998 -1.288 0.34
13.651 -6.6259999 -1.29 0.34
13.684 -6.5890002 -1.2920001 0.33000001
13.703 -6.572 -1.293 0.33000001
13.74 -6.5370002 -1.294 0.33000001
13.789 -6.507 -1.2970001 0.31999999
13.81 -6.4640002 -1.2970001 0.41
13.843 -6.4260001 -1.299 0.31999999
13.877 -6.3889999 -1.3 0.33000001
13.919 -6.3559999 -1.303 0.33000001
13.951 -6.3439999 -1.3049999 0.33000001
13.976 -6.302 -1.306 0.34
14.021 -6.27 -1.308 0.31999999
14.046 -6.2280002 -1.309 0.36000001
14.093 -6.1960001 -1.312 0.31
14.138 -6.1620002 -1.3150001 0.37
14.171 -6.151 -1.317 0.30000001
14.211 -6.1149998 -1.319 0.37
14.246 -6.0770001 -1.321 0.31
14.273 -6.0349998 -1.322 0.37
14.314 -6 -1.324 0.31
14.36 -5.9660001 -1.327 0.33000001
14.384 -5.9489999 -1.329 0.31999999
14.421 -5.9120002 -1.331 0.33000001
14.462 -5.875 -1.3329999 0.33000001
14.495 -5.836 -1.335 0.31999999
14.532 -5.7979999 -1.337 0.33000001
14.565 -5.7579999 -1.3380001 0.33000001
14.614 -5.724 -1.341 0.33000001
14.627 -5.7030001 -1.342 0.34999999
14.678 -5.6700001 -1.345 0.36000001
14.722 -5.6329999 -1.348 0.34
14.751 -5.5910001 -1.349 0.28999999
14.791 -5.553 -1.352 0.34999999
14.836 -5.5170002 -1.355 0.31
14.879 -5.48 -1.357 0.37
14.892 -5.4580002 -1.358 0.30000001
14.926 -5.4169998 -1.359 0.36000001
14.973 -5.381 -1.363 0.30000001
15.006 -5.3400002 -1.364 0.37
15.049 -5.302 -1.367 0.30000001
15.102 -5.2670002 -1.3710001 0.31999999
15.129 -5.25 -1.373 0.31999999
15.173 -5.2119999 -1.376 0.37
15.214 -5.1729999 -1.378 0.31999999
15.247 -5.131 -1.38 0.36000001
15.299 -5.0949998 -1.3839999 0.31999999
15.334 -5.053 -1.386 0.38
15.367 -5.0100002 -1.387 0.31
15.398 -4.993 -1.39 0.36000001
15.444 -4.954 -1.393 0.31
15.497 -4.9180002 -1.397 0.34999999
15.554 -4.882 -1.401 0.31999999
15.587 -4.8390002 -1.403 0.34999999
15.634 -4.7989998 -1.406 0.30000001
15.678 -4.7859998 -1.41 0.34999999
15.733 -4.7490001 -1.414 0.34
15.753 -4.7010002 -1.415 0.28999999
15.818 -4.6659999 -1.42 0.31999999
15.834 -4.6170001 -1.42 0.31999999
15.891 -4.579 -1.424 0.33000001
15.934 -4.5370002 -1.427 0.30000001
15.912 -4.5040002 -1.424 0.30000001
15.988 -4.4710002 -1.4299999 0.30000001
16.038 -4.4310002 -1.434 0.38
16.013 -4.3699999 -1.4299999 0.43000001
15.983 -4.3080001 -1.426 0.34999999
16.021 -4.2639999 -1.428 0.38
16.077999 -4.2519999 -1.433 0.43000001
16.094999 -4.2030001 -1.434 0.36000001
16.101999 -4.151 -1.433 0.44
16.179001 -4.1160002 -1.4400001 0.43000001
16.181999 -4.0630002 -1.439 0.37
16.205 -4.0139999 -1.4400001 0.34999999
16.205999 -3.961 -1.438 0.40000001
16.223 -3.938 -1.4400001 0.33000001
16.278 -3.8970001 -1.444 0.36000001
16.327 -3.855 -1.448 0.28999999
16.334999 -3.802 -1.447 0.47
16.415001 -3.767 -1.454 0.31
16.450001 -3.72 -1.456 0.43000001
16.487 -3.674 -1.459 0.37
16.551001 -3.661 -1.465 0.41
16.6 -3.6170001 -1.469 0.38999999
16.625999 -3.5680001 -1.47 0.38999999
16.688 -3.527 -1.475 0.38999999
16.711 -3.477 -1.476 0.31999999
16.747 -3.4289999 -1.479 0.37
16.771999 -3.4070001 -1.4809999 0.34999999
16.829 -3.3629999 -1.4859999 0.34
16.848 -3.312 -1.4859999 0.28999999
16.879999 -3.263 -1.488 0.34999999
16.907 -3.2130001 -1.49 0.34999999
16.945 -3.165 -1.493 0.30000001
16.993999 -3.119 -1.497 0.34999999
17.021999 -3.0969999 -1.499 0.28999999
17.055 -3.0469999 -1.502 0.36000001
17.087999 -2.9979999 -1.5039999 0.30000001
17.118999 -2.948 -1.506 0.34999999
17.153999 -2.898 -1.5089999 0.34
17.200001 -2.8510001 -1.512 0.33000001
17.209 -2.8239999 -1.513 0.33000001
17.239 -2.7739999 -1.515 0.31999999
17.281 -2.7249999 -1.518 0.31999999
17.309 -2.6730001 -1.52 0.31
17.337 -2.622 -1.522 0.34
17.381001 -2.573 -1.526 0.28999999
17.422001 -2.523 -1.529 0.30000001
17.454 -2.4990001 -1.5319999 0.31999999
17.474001 -2.4460001 -1.533 0.31
17.528 -2.398 -1.538 0.33000001
17.716999 -2.3670001 -1.556 0.34999999
17.868999 -2.329 -1.5700001 0.36000001
17.868 -2.2720001 -1.569 0.28999999
17.863001 -2.2149999 -1.568 0.30000001
17.871 -2.187 -1.568 0.31
17.860001 -2.1289999 -1.566 0.28999999
17.868 -2.073 -1.567 0.31999999
17.875 -2.017 -1.567 0.31
17.851 -1.9579999 -1.564 0.30000001
17.863001 -1.902 -1.564 0.28999999
17.858 -1.873 -1.564 0.30000001
17.870001 -1.818 -1.564 0.30000001
17.872 -1.761 -1.564 0.28999999
17.885 -1.706 -1.5650001 0.30000001
17.877001 -1.648 -1.563 0.30000001
17.872 -1.591 -1.562 0.28999999
17.861 -1.534 -1.561 0.31
17.871 -1.506 -1.561 0.30000001
17.868 -1.45 -1.561 0.28999999
17.875999 -1.3940001 -1.561 0.31
17.858999 -1.336 -1.559 0.30000001
17.871 -1.28 -1.5599999 0.28999999
17.871 -1.224 -1.559 0.28999999
17.847 -1.194 -1.557 0.28
17.874001 -1.14 -1.559 0.28999999
17.854 -1.082 -1.557 0.27000001
17.885 -1.027 -1.559 0.28999999
17.878 -0.97100002 -1.558 0.25
17.881001 -0.91500002 -1.558 0.18000001
17.879999 -0.85799998 -1.558 0.44
17.851999 -0.829 -1.5549999 0.25
17.865999 -0.773 -1.556 0.25999999
17.865999 -0.71700001 -1.556 0.27000001
17.865 -0.66100001 -1.556 0.23999999
17.872999 -0.60500002 -1.556 0.28999999
17.864 -0.54799998 -1.5549999 0.28
17.857 -0.51999998 -1.5549999 0.27000001
17.858999 -0.46399999 -1.5549999 0.27000001
17.872 -0.40799999 -1.556 0.25999999
17.855 -0.352 -1.554 0.28999999
17.856001 -0.296 -1.554 0.28
17.849001 -0.23899999 -1.553 0.28
17.854 -0.183 -1.554 0.28999999
17.844 -0.155 -1.553 0.27000001
17.841 -0.098999999 -1.552 0.30000001
17.844999 -0.043000001 -1.553 0.30000001
16.872999 0.039000001 -1.561 0.31999999
16.882999 0.092 -1.562 0.31999999
16.867001 0.145 -1.5599999 0.31
16.868999 0.171 -1.561 0.31999999
16.865999 0.22400001 -1.5599999 0.34
16.867001 0.27700001 -1.561 0.30000001
16.870001 0.33000001 -1.561 0.34
16.872999 0.38299999 -1.561 0.31999999
16.875999 0.43599999 -1.562 0.31999999
16.872 0.48899999 -1.562 0.31999999
16.874001 0.51599997 -1.562 0.31999999
16.878 0.56900001 -1.562 0.31999999
16.870001 0.62199998 -1.562 0.31999999
16.874001 0.67500001 -1.562 0.30000001
16.868 0.72799999 -1.562 0.28999999
16.871 0.78100002 -1.563 0.30000001
16.867001 0.83399999 -1.562 0.31
16.855 0.86000001 -1.561 0.30000001
16.861 0.91399997 -1.562 0.31
16.851999 0.96600002 -1.562 0.30000001
16.865999 1.02 -1.563 0.31
16.841 1.072 -1.561 0.28999999
16.84 1.125 -1.561 0.33000001
16.84 1.151 -1.562 0.28999999
16.820999 1.2029999 -1.5599999 0.33000001
16.820999 1.256 -1.5599999 0.30000001
16.816999 1.309 -1.5599999 0.30000001
16.795 1.3609999 -1.558 0.30000001
16.784 1.413 -1.558 0.31
16.780001 1.466 -1.558 0.31999999
16.764 1.4910001 -1.556 0.33000001
16.759001 1.543 -1.556 0.34
16.743999 1.595 -1.5549999 0.34
16.739 1.648 -1.5549999 0.30000001
16.719999 1.699 -1.554 0.28999999
16.681 1.748 -1.55 0.16
16.444 1.776 -1.526 0.52999997
16.372 1.794 -1.5190001 0.25
16.261 1.834 -1.508 0.62
16.145 1.872 -1.4960001 0.37
15.785 1.881 -1.459 0.30000001
15.532 1.901 -1.433 0.34
15.465 1.942 -1.427 0.41
15.426 1.962 -1.423 0.27000001
15.337 2 -1.414 0.52999997
15.287 2.0420001 -1.41 0.31999999
15.165 2.075 -1.397 0.47999999
15.107 2.115 -1.392 0.31999999
15.029 2.1530001 -1.3839999 0.56
15.007 2.198 -1.383 0.31999999
15.017 2.223 -1.3839999 0.54000002
15.002 2.2690001 -1.383 0.27000001
14.94 2.3080001 -1.378 0.51999998
14.868 2.345 -1.3710001 0.27000001
14.821 2.385 -1.367 0.51999998
14.796 2.4289999 -1.365 0.30000001
14.957 2.4790001 -1.382 0.44999999
15.023 2.539 -1.39 0.28
15.056 2.5929999 -1.3940001 0.5
14.87 2.609 -1.376 0.37
14.926 2.6670001 -1.382 0.40000001
14.924 2.7149999 -1.383 0.43000001
14.864 2.753 -1.378 0.22
15.038 2.809 -1.397 0.5
14.97 2.845 -1.39 0.44
15.075 2.914 -1.402 0.27000001
15.128 2.973 -1.409 0.56
14.921 2.9820001 -1.388 0.16
15.004 3.0469999 -1.398 0.56
14.939 3.0829999 -1.392 0.17
14.972 3.1140001 -1.396 0.55000001
14.866 3.141 -1.386 0.2
14.936 3.2049999 -1.3940001 0.55000001
14.835 3.2320001 -1.3839999 0.31999999
14.949 3.306 -1.398 0.43000001
14.666 3.2920001 -1.369 0.47999999
14.368 3.25 -1.337 0.28999999
14.785 3.392 -1.383 0.31
15.076 3.5079999 -1.415 0.38999999
14.839 3.5020001 -1.391 0.44999999
14.526 3.477 -1.359 0.23999999
14.669 3.5599999 -1.375 0.41
14.668 3.5840001 -1.376 0.46000001
14.726 3.6470001 -1.383 0.37
14.674 3.684 -1.3789999 0.47999999
15.131 3.848 -1.429 0.36000001
15.053 3.8789999 -1.4220001 0.44999999
14.983 3.911 -1.416 0.25999999
14.922 3.9449999 -1.411 0.51999998
14.826 3.9449999 -1.401 0.38
14.875 4.0079999 -1.408 0.30000001
14.849 4.0510001 -1.406 0.60000002
14.876 4.1090002 -1.411 0.30000001
14.804 4.1389999 -1.404 0.47999999
14.841 4.1989999 -1.41 0.31
14.852 4.2529998 -1.4119999 0.52999997
14.914 4.296 -1.42 0.28999999
14.861 4.3309999 -1.415 0.64999998
9.8339996 2.9089999 -0.87 0.27000001
9.8269997 2.9400001 -0.87 0.28999999
9.7889996 2.9630001 -0.86699998 0.63999999
15.882 4.8449998 -1.533 0.28999999
15.953 4.921 -1.5420001 0.27000001
15.799 4.901 -1.526 0.61000001
15.808 4.9580002 -1.529 0.27000001
15.758 4.9970002 -1.525 0.63
15.742 5.046 -1.525 0.25999999
15.707 5.0900002 -1.523 0.44
9.132 3.0020001 -0.80299997 0.36000001
9.1160002 3.013 -0.80199999 0.51999998
9.1610003 3.0599999 -0.80800003 0.68000001
9.2329998 3.115 -0.81699997 0.28
9.3360004 3.1830001 -0.829 0.16
9.4180002 3.243 -0.83899999 0.46000001
9.4530001 3.289 -0.84399998 0.69
9.4219999 3.2939999 -0.84200001 0.22
15.511 5.46 -1.516 0.38
15.608 5.5489998 -1.529 0.28
15.538 5.5799999 -1.523 0.57999998
15.367 5.573 -1.506 0.27000001
15.508 5.6789999 -1.524 0.37
15.595 5.7659998 -1.535 0.44999999
15.77 5.8590002 -1.556 0.31
9.5279999 3.585 -0.86199999 0.27000001
9.5159998 3.615 -0.86199999 0.34999999
9.4790001 3.635 -0.85900003 0.60000002
16.007999 6.177 -1.591 0.30000001
15.94 6.2080002 -1.585 0.38
16.033001 6.303 -1.598 0.33000001
15.951 6.2989998 -1.59 0.38999999
15.931 6.3499999 -1.59 0.43000001
15.919 6.402 -1.591 0.38999999
15.893 6.4499998 -1.59 0.38999999
15.817 6.4780002 -1.584 0.43000001
15.758 6.5110002 -1.579 0.28
15.731 6.5289998 -1.5779999 0.54000002
15.716 6.5809999 -1.5779999 0.27000001
15.754 6.6550002 -1.585 0.5
15.709 6.6939998 -1.582 0.36000001
15.65 6.7270002 -1.5779999 0.43000001
15.428 6.6900001 -1.5549999 0.40000001
15.405 6.737 -1.5549999 0.41
15.383 6.757 -1.553 0.34999999
15.366 6.8070002 -1.554 0.44
15.301 6.835 -1.549 0.37
15.094 6.8000002 -1.528 0.44999999
15.219 6.914 -1.545 0.34999999
15.23 6.9770002 -1.548 0.31
15.152 6.9699998 -1.541 0.34999999
15.076 6.993 -1.534 0.44
15.002 7.0159998 -1.528 0.38
15.041 7.0910001 -1.535 0.31999999
15.028 7.1430001 -1.536 0.47
15.023 7.1989999 -1.539 0.43000001
14.973 7.2329998 -1.535 0.28999999
14.914 7.2329998 -1.53 0.46000001
15.077 7.3699999 -1.551 0.28999999
14.907 7.3460002 -1.534 0.47
14.966 7.4330001 -1.544 0.38999999
14.813 7.415 -1.529 0.31999999
14.891 7.513 -1.541 0.5
14.838 7.5159998 -1.536 0.31999999
14.99 7.651 -1.556 0.56999999
15.146 7.7909999 -1.5779999 0.20999999
15.085 7.8189998 -1.573 0.37
14.993 7.8319998 -1.5650001 0.38999999
14.935 7.8610001 -1.561 0.37
14.95 7.9299998 -1.566 0.38999999
15.36 8.177 -1.6160001 0.36000001
15.143 8.1230001 -1.5930001 0.31
14.844 8.0229998 -1.561 0.41999999
14.77 8.0430002 -1.5549999 0.31999999
15.13 8.3000002 -1.601 0.31999999
15.196 8.3990002 -1.612 0.34
15.123 8.4200001 -1.6059999 0.51999998
15.038 8.4049997 -1.598 0.34
14.911 8.3950005 -1.586 0.33000001
14.831 8.4119997 -1.579 0.44999999
14.957 8.5450001 -1.598 0.34
14.892 8.5699997 -1.5930001 0.49000001
14.949 8.6660004 -1.603 0.36000001
15.073 8.7690001 -1.62 0.30000001
14.858 8.7069998 -1.597 0.23999999
14.936 8.8149996 -1.61 0.54000002
14.92 8.8690004 -1.6109999 0.27000001
14.236 8.5240002 -1.5319999 0.38
14.912 8.9910002 -1.617 0.41
12.273 7.4580002 -1.299 0.22
12.281 7.4899998 -1.301 0.31999999
15.063 9.2440004 -1.6440001 0.15000001
12.212 7.553 -1.299 0.57999998
14.803 9.2139997 -1.62 0.34
15.328 9.6059999 -1.688 0.20999999
14.556 9.1879997 -1.596 0.23999999
15.481 9.8030005 -1.712 0.34
15.456 9.8559999 -1.7130001 0.47999999
15.39 9.882 -1.709 0.25999999
15.286 9.8830004 -1.7 0.43000001
15.233 9.9169998 -1.697 0.36000001
15.168 9.9429998 -1.693 0.44
15.098 9.9309998 -1.686 0.34
15.091 9.9949999 -1.689 0.46000001
15.007 10.007 -1.682 0.36000001
14.959 10.043 -1.6799999 0.38
14.889 10.064 -1.676 0.41
14.851 10.106 -1.675 0.43000001
14.809 10.146 -1.673 0.31
14.829 10.194 -1.678 0.36000001
14.768 10.22 -1.674 0.43000001
14.767 10.288 -1.678 0.34999999
14.604 10.243 -1.6619999 0.33000001
14.588 10.301 -1.664 0.44999999
14.549 10.342 -1.663 0.41
14.591 10.441 -1.6720001 0.41999999
14.573 10.462 -1.6720001 0.44999999
14.625 10.57 -1.683 0.38999999
14.562 10.594 -1.679 0.34
14.633 10.715 -1.693 0.30000001
14.487 10.679 -1.678 0.46000001
14.597 10.831 -1.697 0.31999999
14.741 10.974 -1.7180001 0.34999999
14.393 10.785 -1.677 0.31999999
14.311 10.795 -1.671 0.31
14.612 11.093 -1.715 0.28
14.791 11.301 -1.743 0.31
14.826 11.402 -1.752 0.18000001
14.27 11.048 -1.683 0.62
14.715 11.428 -1.744 0
3.302 2.6059999 -0.23899999 0
3.273 2.6010001 -0.236 0
3.257 2.605 -0.235 0.050000001
3.2460001 2.612 -0.235 0.090000004
3.253 2.635 -0.237 0
3.2160001 2.6140001 -0.23199999 0
3.233 2.6440001 -0.236 0
3.234 2.6619999 -0.237 0
3.2249999 2.6719999 -0.237 0
14.3 11.882 -1.74 0.15000001
14.292 11.951 -1.744 0.31999999
14.262 11.964 -1.743 0.41
14.238 12.021 -1.745 0.44999999
14.235 12.095 -1.749 0.28999999
14.196 12.138 -1.749 0.5
14.185 12.206 -1.753 0.30000001
14.075 12.19 -1.743 0.49000001
14.016 12.177 -1.738 0.34
13.902 12.155 -1.727 0.31999999
13.86 12.195 -1.727 0.37
13.882 12.292 -1.735 0.43000001
13.847 12.338 -1.7359999 0.41999999
13.839 12.41 -1.74 0.30000001
13.862 12.509 -1.749 0.44
13.825 12.515 -1.7460001 0.36000001
13.722 12.501 -1.737 0.34
13.79 12.642 -1.752 0.40000001
13.797 12.728 -1.7589999 0.40000001
13.704 12.723 -1.752 0.33000001
13.607 12.713 -1.743 0.43000001
13.65 12.833 -1.755 0.44
13.898 13.107 -1.794 0.28999999
13.919 13.209 -1.803 0.43000001
13.801 13.18 -1.7920001 0.25999999
13.895 13.353 -1.811 0.41
13.751 13.298 -1.796 0.5
13.73 13.362 -1.799 0.22
13.826 13.497 -1.817 0.46000001
13.741 13.499 -1.8099999 0.25
13.617 13.461 -1.798 0.23
13.53 13.46 -1.7920001 0.36000001
13.501 13.515 -1.794 0.44
13.432 13.531 -1.79 0.34
13.274 13.457 -1.773 0.31999999
13.227 13.451 -1.7690001 0.34
13.148 13.456 -1.763 0.27000001
13.156 13.548 -1.771 0.44999999
13.121 13.598 -1.772 0.14
12.366 12.898 -1.665 0.38999999
12.911 13.549 -1.753 0.18000001
12.679 13.391 -1.725 0.13
12.29 13.022 -1.669 0.28
15.512 16.528999 -2.1659999 0.11
12.451 13.359 -1.706 0.40000001
12.425 13.416 -1.7079999 0.20999999
11.193 12.165 -1.525 0.31999999
15.41 16.84 -2.1819999 0.2
12.322 13.516 -1.709 0.20999999
11.854 13.086 -1.643 0.30000001
15.37 17.063 -2.197 0.16
15.341 17.139 -2.201 0.36000001
15.306 17.208 -2.2030001 0.20999999
15.274 17.281 -2.207 0.25
15.255 17.313999 -2.2079999 0.20999999
15.231 17.396 -2.2130001 0.22
15.18 17.448999 -2.214 0.20999999
15.16 17.537001 -2.2190001 0.18000001
15.131 17.614 -2.223 0.38999999
15.1 17.691 -2.227 0.2
15.074 17.773001 -2.2320001 0.37
15.083 17.841 -2.2379999 0.20999999
15.046 17.910999 -2.2409999 0.23999999
15.019 17.993 -2.2460001 0.20999999
14.991 18.073999 -2.2509999 0.18000001
14.972 18.167 -2.257 0.38999999
14.936 18.24 -2.26 0.23
14.909 18.323999 -2.2650001 0.18000001
14.915 18.389999 -2.2709999 0.40000001
14.878 18.462 -2.2739999 0.23
14.851 18.547001 -2.28 0.18000001
9.6610003 12.236 -1.427 0.51999998
9.6280003 12.275 -1.428 0.62
14.712 18.855 -2.296 0.13
10.044 12.927 -1.508 0.38999999
9.9980001 12.952 -1.508 0.46000001
9.6590004 12.678 -1.4630001 0.43000001
9.6450005 12.742 -1.4680001 0.68000001
14.555 19.333 -2.326 0.38999999
14.552 19.392 -2.3299999 0.25
14.515 19.469999 -2.3340001 0.2
14.479 19.549 -2.339 0.41999999
14.43 19.612 -2.3410001 0.25
14.397 19.695999 -2.346 0.25999999
14.369 19.787001 -2.352 0.18000001
9.3190002 12.977 -1.467 0.75999999
9.1450005 12.82 -1.443 0.37
13.194 18.599001 -2.1800001 0.2
13.092 18.577999 -2.1719999 0.16
12.989 18.556 -2.164 0.43000001
12.844 18.473 -2.148 0.25
12.788 18.516001 -2.148 0.25
12.785 18.573999 -2.1530001 0
13.884 20.302 -2.3670001 0
12.832 18.896 -2.184 0
12.766 18.926001 -2.1830001 0.11
13.577 20.399 -2.3570001 0.31
13.339 20.111 -2.319 0.18000001
13.164 19.983 -2.2969999 0.23
13.032 19.919001 -2.2839999 0.31999999
12.931 19.902 -2.277 0.19
12.863 19.934 -2.276 0.25
12.851 20.052999 -2.286 0.17
13.253 20.820999 -2.3759999 0.28999999
13.233 20.862 -2.378 0.28999999
13.161 20.893999 -2.3770001 0.27000001
13.101 20.945 -2.378 0.31999999
13.036 20.988001 -2.3789999 0.31
12.968 21.025 -2.378 0.31
12.905 21.070999 -2.3789999 0.28999999
12.873 21.093 -2.3789999 0.28999999
12.813 21.143 -2.3800001 0.28999999
12.738 21.17 -2.3789999 0.28
12.673 21.211 -2.3789999 0.28999999
12.611 21.26 -2.3800001 0.28999999
12.548 21.306 -2.381 0.28999999
12.479 21.341999 -2.3800001 0.28999999
12.443 21.356001 -2.3800001 0.28999999
12.375 21.393999 -2.3789999 0.28999999
12.298 21.415001 -2.3770001 0.30000001
12.232 21.457001 -2.378 0.28999999
12.161 21.489 -2.3770001 0.30000001
12.098 21.535 -2.378 0.28999999
12.028 21.57 -2.3770001 0.28999999
11.997 21.591999 -2.378 0.28999999
11.929 21.629999 -2.378 0.28999999
11.855 21.657 -2.3770001 0.28999999
11.798 21.715 -2.3789999 0.28999999
11.728 21.747999 -2.3789999 0.28999999
11.661 21.787001 -2.3789999 0.28999999
11.587 21.813999 -2.378 0.28
11.558 21.841 -2.3789999 0.28999999
11.492 21.882999 -2.3800001 0.28999999
11.424 21.921 -2.3800001 0.28999999
11.358 21.962 -2.3800001 0.28
11.289 21.997 -2.3800001 0.28999999
11.221 22.035999 -2.381 0.28999999
11.192 22.063999 -2.382 0.30000001
11.123 22.099001 -2.382 0.30000001
11.052 22.131001 -2.382 0.30000001
10.985 22.171 -2.382 0.30000001
10.914 22.202999 -2.382 0.28999999
10.839 22.226999 -2.381 0.30000001
10.775 22.273001 -2.382 0.30000001
10.743 22.295 -2.3829999 0.31
10.677 22.337999 -2.3840001 0.30000001
10.611 22.381001 -2.385 0.28999999
10.545 22.423 -2.3859999 0.30000001
10.475 22.458 -2.3859999 0.28
10.413 22.507999 -2.388 0.28999999
10.347 22.552 -2.3900001 0.31999999
10.308 22.559 -2.388 0.28999999
10.242 22.601999 -2.3900001 0.30000001
10.168 22.629 -2.3889999 0.28999999
10.092 22.65 -2.388 0.31
10.02 22.679001 -2.388 0.30000001
9.9510002 22.716 -2.388 0.28999999
9.8850002 22.757999 -2.3900001 0.30000001
9.8479996 22.771999 -2.3889999 0.28999999
9.7840004 22.820999 -2.391 0.28999999
9.7189999 22.865999 -2.3929999 0.28999999
9.6549997 22.915001 -2.395 0.25
9.5970001 22.978001 -2.3989999 0.38
9.4849997 22.913 -2.388 0.20999999
9.4429998 22.913 -2.3859999 0.34
9.3669996 22.934999 -2.3859999 0.41999999
9.3100004 23 -2.3900001 0.34999999
9.2320004 23.016001 -2.388 0.38999999
9.1969995 23.139 -2.3989999 0.34
9.1169996 23.149 -2.3970001 0.33000001
9.007 23.080999 -2.3859999 0.36000001
8.9989996 23.167999 -2.3940001 0.34
8.927 23.198 -2.3940001 0.38999999
8.8690004 23.267 -2.3989999 0.31999999
8.7589998 23.195999 -2.388 0.31999999
8.6379995 23.094999 -2.3729999 0.34999999
8.5690002 23.132999 -2.375 0.36000001
8.5869999 23.294001 -2.391 0.34
8.5039997 23.292999 -2.388 0.38999999
8.4540005 23.382999 -2.395 0.31
8.3599997 23.353001 -2.3889999 0.33000001
8.257 23.295 -2.3789999 0.36000001
8.1379995 23.191 -2.365 0.25
7.9840002 22.983999 -2.339 0.46000001
8.0319996 23.240999 -2.3659999 0.30000001
8.0010004 23.388 -2.3800001 0.28999999
7.96 23.509001 -2.3900001 0.25999999
7.7709999 23.188999 -2.352 0.51999998
7.7649999 23.417 -2.375 0.2
7.724 23.540001 -2.3859999 0.30000001
7.586 23.365 -2.3640001 0.36000001
7.5640001 23.424 -2.369 0.28
7.4629998 23.363001 -2.3599999 0.36000001
7.388 23.379999 -2.359 0.18000001
7.3740001 23.593 -2.3800001 0
5.7989998 18.778999 -1.851 0.11
5.724 18.743999 -1.845 0.20999999
5.6560001 18.732 -1.842 0.25
5.6230001 18.731001 -1.841 0.19
5.5489998 18.697001 -1.835 0.20999999
5.4879999 18.707001 -1.835 0.25
5.4239998 18.705 -1.832 0.41999999
5.3959999 18.830999 -1.844 0.38
5.375 18.98 -1.859 0.28
3.6619999 13.196 -1.229 0.58999997
3.6010001 13.137 -1.221 0.18000001
5.0760002 18.941999 -1.847 0.17
4.954 18.726 -1.821 0.31
4.888 18.712 -1.818 0.55000001
4.8569999 18.712 -1.818 0.31999999
4.7919998 18.705999 -1.8150001 0.54000002
4.737 18.736 -1.817 0.31999999
4.664 18.693001 -1.811 0.51999998
4.6059999 18.712 -1.811 0.31999999
4.5430002 18.709 -1.809 0.52999997
4.4840002 18.721001 -1.809 0.31999999
4.447 18.697001 -1.806 0.55000001
4.3899999 18.716999 -1.806 0.34
4.3210001 18.688 -1.802 0.52999997
4.2659998 18.716999 -1.803 0.31999999
4.2010002 18.702999 -1.801 0.55000001
4.1389999 18.701 -1.799 0.33000001
4.1069999 18.695 -1.798 0.55000001
4.0500002 18.719999 -1.799 0.33000001
3.9820001 18.688 -1.794 0.54000002
3.927 18.719999 -1.796 0.31999999
3.865 18.714001 -1.794 0.44999999
3.8039999 18.716999 -1.793 0.34
3.7390001 18.698999 -1.79 0.56
3.7130001 18.719 -1.7920001 0.33000001
3.6470001 18.697001 -1.788 0.55000001
3.592 18.724001 -1.79 0.34
3.527 18.702 -1.786 0.56999999
3.4690001 18.721001 -1.7869999 0.33000001
3.4059999 18.708 -1.785 0.56
3.349 18.731001 -1.786 0.33000001
3.3150001 18.708 -1.783 0.55000001
3.2579999 18.731001 -1.784 0.34
3.194 18.711 -1.781 0.55000001
3.1370001 18.729 -1.7819999 0.31999999
3.076 18.723 -1.78 0.46000001
3.016 18.729 -1.78 0.43000001
2.9560001 18.728001 -1.779 0.43000001
2.9260001 18.729 -1.778 0.43000001
2.8659999 18.73 -1.777 0.41999999
2.8050001 18.731001 -1.777 0.43000001
2.747 18.74 -1.777 0.41
2.6860001 18.737 -1.775 0.40000001
2.625 18.729 -1.774 0.41999999
2.592 18.712 -1.771 0.5
2.5369999 18.743 -1.774 0.31
2.4760001 18.738001 -1.772 0.27000001
2.4170001 18.743 -1.772 0.41999999
2.358 18.747 -1.772 0.46000001
2.3010001 18.774 -1.774 0.33000001
2.2420001 18.778999 -1.774 0.46000001
2.214 18.798 -1.775 0.38
2.1559999 18.809 -1.776 0.47999999
2.0999999 18.843 -1.779 0.28
2.039 18.834 -1.777 0.54000002
1.9859999 18.898001 -1.783 0.41999999
1.9400001 19.035 -1.7970001 0.18000001
1.898 19.223 -1.816 0.30000001
1.863 19.177999 -1.811 0.51999998
2.296 25.187 -2.4400001 0.47999999
2.2349999 25.402 -2.461 0.25
2.1570001 25.434999 -2.464 0.18000001
2.0780001 25.448 -2.4649999 0.38999999
1.891 24.112 -2.3239999 0.12
1.835 23.882999 -2.3 0.27000001
1.7539999 23.809 -2.2920001 0.38999999
1.682 23.841999 -2.2939999 0.38
1.6059999 23.834999 -2.293 0.40000001
1.529 23.813999 -2.29 0.36000001
1.456 23.851 -2.2939999 0.27000001
1.418 23.837 -2.2920001 0.56999999
1.342 23.827999 -2.2909999 0.25
1.001 18.927999 -1.778 0
0.92900002 18.677999 -1.752 0
0.87 18.677 -1.751 0
0.81099999 18.667999 -1.75 0
0.75199997 18.674 -1.75 0
0.72299999 18.67 -1.75 0
0.66399997 18.656 -1.748 0
0.60500002 18.65 -1.747 0
0.546 18.653999 -1.748 0
0.48699999 18.639 -1.7460001 0
0.42899999 18.643 -1.7460001 0
0.37 18.639999 -1.7460001 0
0.34099999 18.663 -1.748 0
0.28200001 18.639999 -1.7460001 0
0.223 18.631001 -1.744 0.07
0.16500001 18.627001 -1.744 0.090000004
0.106 18.634001 -1.745 0.14
0.048 18.632 -1.744 0.27000001
0.017999999 18.624001 -1.744 0
-0.039999999 18.615999 -1.743 0
-0.15700001 18.629 -1.744 0.36000001
-0.21600001 18.627001 -1.744 0.20999999
-0.27399999 18.615999 -1.743 0.20999999
-0.36199999 18.629999 -1.745 0.58999997
-0.41999999 18.625 -1.744 0.36000001
-0.479 18.615999 -1.743 0.2
-0.537 18.615999 -1.744 0.46000001
-0.59600002 18.620001 -1.744 0.20999999
-0.65499997 18.622 -1.745 0.34
-0.713 18.620001 -1.745 0.19
-0.74199998 18.605 -1.743 0
-0.801 18.608999 -1.744 0
-0.85900003 18.6 -1.743 0
-0.917 18.603001 -1.744 0
-0.97600001 18.596001 -1.743 0
-1.034 18.601 -1.744 0
-1.0930001 18.598 -1.744 0.050000001
-1.239 18.597 -1.745 0.63
-1.309 18.761 -1.763 0
-1.358 18.614 -1.748 0
-1.418 18.622 -1.749 0
-1.475 18.608999 -1.748 0
-1.506 18.618999 -1.749 0
-1.5650001 18.629999 -1.751 0
-1.623 18.615 -1.75 0
-1.683 18.632 -1.752 0
-1.742 18.622 -1.752 0
-2.6900001 23.627001 -2.2820001 0.25
-2.77 23.662001 -2.286 0.36000001
-2.806 23.652 -2.286 0.44999999
-2.8789999 23.629 -2.2839999 0.36000001
-2.9679999 23.743999 -2.2969999 0.38999999
-3.0880001 24.091999 -2.335 0.31
-3.1530001 23.997 -2.326 0.28
-3.256 24.194 -2.348 0.31999999
-3.2950001 24.197001 -2.349 0.30000001
-3.3800001 24.25 -2.355 0.33000001
-3.457 24.245001 -2.3559999 0.31999999
-3.5339999 24.243999 -2.3570001 0.31
-3.6210001 24.302999 -2.3640001 0.31999999
-3.7079999 24.365 -2.372 0.34999999
-3.7980001 24.441 -2.381 0.34
-3.835 24.422001 -2.3800001 0.38999999
-3.9089999 24.393999 -2.378 0.25999999
-3.9389999 24.099001 -2.348 0.13
-4.152 24.912001 -2.4360001 0.47
-4.1929998 24.677 -2.4119999 0.16
-4.283 24.740999 -2.4200001 0.38999999
-4.1799998 23.694 -2.3110001 0.15000001
-4.1919999 23.542999 -2.296 0.41
-4.2649999 23.528 -2.2950001 0.16
-4.5970001 24.917 -2.444 0.41
-4.973 26.5 -2.6140001 0.20999999
-5.0570002 26.486 -2.6140001 0.28999999
-5.1420002 26.48 -2.615 0.28999999
-5.2270002 26.475 -2.6159999 0.28
-5.27 26.475 -2.6170001 0.30000001
