# .PCD v0.7 - Point Cloud Data file format
VERSION 0.7
FIELDS x y z intensity
SIZE 4 4 4 4
TYPE F F F F
COUNT 1 1 1 1
WIDTH 1388
HEIGHT 1
VIEWPOINT 0 0 0 1 0 0 0
POINTS 1388
DATA ascii
-6.237 9.5179996 -0.033 0.46000001
-6.2639999 9.526 -0.034000002 0.22
-6.3000002 9.5150003 -0.034000002 0.49000001
-6.3410001 9.5120001 -0.035 0.31999999
-6.388 9.5179996 -0.035 0.41
-6.4299998 9.5159998 -0.035999998 0.27000001
-6.474 9.5159998 -0.035999998 0.44999999
-6.5240002 9.5249996 -0.037 0.16
-6.5409999 9.5190001 -0.037 0.68000001
-6.586 9.5190001 -0.037999999 0.34999999
-6.6269999 9.5150003 -0.037999999 0.44999999
-6.6739998 9.5190001 -0.039000001 0.36000001
-6.711 9.5080004 -0.039000001 0.41
-6.757 9.5089998 -0.039000001 0.34
-6.8000002 9.5080004 -0.039999999 0.47999999
-6.8319998 9.5200005 -0.041000001 0.38
-6.8720002 9.5129995 -0.041000001 0.36000001
-6.915 9.5089998 -0.041000001 0.31999999
-6.9559999 9.5030003 -0.041999999 0.38
-7.0019999 9.5019999 -0.041999999 0.36000001
-7.0500002 9.5059996 -0.043000001 0.31999999
-7.0960002 9.5050001 -0.044 0.34
-7.1199999 9.5059996 -0.044 0.34
-7.1669998 9.5059996 -0.045000002 0.34
-7.2179999 9.5129995 -0.045000002 0.34
-7.2600002 9.5059996 -0.046 0.34
-7.3070002 9.5050001 -0.046 0.34
-7.348 9.4960003 -0.046999998 0.37
-7.395 9.4949999 -0.046999998 0.31
-7.4320002 9.5120001 -0.048 0.34999999
-7.4770002 9.5080004 -0.048999999 0.34
-7.52 9.5010004 -0.048999999 0.34
-7.572 9.5059996 -0.050000001 0.34
-7.6209998 9.5059996 -0.050000001 0.38
-7.6659999 9.5 -0.050999999 0.33000001
-7.7179999 9.5039997 -0.052000001 0.38999999
-7.7470002 9.5089998 -0.052000001 0.36000001
-7.796 9.5080004 -0.052999999 0.31999999
-7.8460002 9.5080004 -0.052999999 0.34
-7.8990002 9.5109997 -0.054000001 0.34999999
-7.941 9.5019999 -0.055 0.38
-7.9949999 9.5059996 -0.055 0.33000001
-8.0410004 9.4989996 -0.056000002 0.34
-8.0749998 9.5089998 -0.056000002 0.36000001
-8.1350002 9.5190001 -0.057 0.38999999
-8.1719999 9.5019999 -0.057999998 0.31999999
-8.2229996 9.5010004 -0.057999998 0.34999999
-8.2779999 9.5039997 -0.059 0.34
-8.3319998 9.5059996 -0.059999999 0.38999999
-8.3809996 9.5010004 -0.061000001 0.33000001
-8.4189997 9.5150003 -0.061000001 0.34
-8.46 9.5 -0.061999999 0.34999999
-8.5159998 9.5039997 -0.061999999 0.36000001
-8.5699997 9.5039997 -0.063000001 0.36000001
-8.6230001 9.5019999 -0.064000003 0.36000001
-8.6739998 9.4980001 -0.064999998 0.34999999
-8.7279997 9.4980001 -0.064999998 0.36000001
-8.7620001 9.5039997 -0.066 0.36000001
-8.8190002 9.5059996 -0.067000002 0.36000001
-8.8769999 9.5089998 -0.068000004 0.34999999
-8.9239998 9.4989996 -0.068000004 0.36000001
-8.9809999 9.5 -0.068999998 0.34999999
-9.0340004 9.4960003 -0.07 0.33000001
-9.0799999 9.4849997 -0.07 0.5
-9.0869999 9.4619999 -0.07 0.23999999
-9.0740004 9.3889999 -0.068999998 0.14
-9.0679998 9.3249998 -0.068000004 0.36000001
-9.1199999 9.3190002 -0.068000004 0.33000001
-9.1800003 9.3219995 -0.068999998 0.40000001
-9.2329998 9.3170004 -0.07 0.38
-9.2860003 9.3120003 -0.071000002 0.34
-9.3290005 9.3260002 -0.071000002 0.38999999
-9.375 9.3129997 -0.071999997 0.33000001
-9.4359999 9.3149996 -0.072999999 0.34999999
-9.4890003 9.309 -0.074000001 0.41
-9.5360003 9.2959995 -0.074000001 0.34
-9.5930004 9.2939997 -0.075000003 0.41
-9.6529999 9.2930002 -0.075999998 0.36000001
-9.6949997 9.3039999 -0.077 0.36000001
-9.7510004 9.3000002 -0.077 0.34999999
-9.8079996 9.2950001 -0.078000002 0.34
-9.8590002 9.2849998 -0.079000004 0.34999999
-9.9230003 9.2869997 -0.079999998 0.34999999
-9.9890003 9.29 -0.081 0.36000001
-10.038 9.2770004 -0.082000002 0.34999999
-10.106 9.2810001 -0.082999997 0.36000001
-10.151 9.2930002 -0.082999997 0.34
-10.207 9.2860003 -0.083999999 0.38999999
-10.273 9.2869997 -0.085000001 0.31999999
-10.333 9.283 -0.086000003 0.34
-10.392 9.2770004 -0.086999997 0.38
-10.456 9.2749996 -0.088 0.33000001
-10.509 9.2930002 -0.089000002 0.36000001
-10.57 9.2880001 -0.090000004 0.36000001
-10.638 9.2889996 -0.090999998 0.34999999
-10.703 9.2869997 -0.092 0.36000001
-10.764 9.2810001 -0.093000002 0.34
-10.836 9.283 -0.093999997 0.36000001
-10.898 9.2779999 -0.094999999 0.34999999
-10.949 9.2919998 -0.096000001 0.38
-11.009 9.283 -0.097000003 0.33000001
-11.086 9.2889996 -0.097999997 0.34
-11.152 9.2849998 -0.098999999 0.37
-11.224 9.2849998 -0.1 0.33000001
-11.288 9.2790003 -0.101 0.34999999
-11.361 9.2790003 -0.102 0.34
-11.416 9.2939997 -0.104 0.34
-11.484 9.29 -0.105 0.34
-11.559 9.2910004 -0.106 0.38
-11.624 9.2840004 -0.107 0.31999999
-11.686 9.2729998 -0.108 0.34999999
-11.756 9.2690001 -0.109 0.36000001
-11.81 9.2519999 -0.109 0.34
-11.858 9.2589998 -0.11 0.38
-11.928 9.2539997 -0.111 0.36000001
-11.987 9.2390003 -0.112 0.34
-12.059 9.2340002 -0.113 0.40000001
-12.12 9.2209997 -0.114 0.36000001
-12.193 9.217 -0.115 0.33000001
-12.268 9.2130003 -0.117 0.37
-12.326 9.2259998 -0.118 0.31999999
-12.405 9.2250004 -0.119 0.34
-12.477 9.2180004 -0.12 0.37
-12.557 9.2159996 -0.122 0.36000001
-12.63 9.2089996 -0.123 0.36000001
-12.714 9.2089996 -0.124 0.36000001
-12.786 9.2010002 -0.125 0.34
-12.846 9.2130003 -0.126 0.34999999
-12.935 9.2159996 -0.12800001 0.34
-13.018 9.2130003 -0.12899999 0.34999999
-13.101 9.21 -0.131 0.34
-13.188 9.2110004 -0.132 0.33000001
-13.27 9.2060003 -0.134 0.31999999
-13.363 9.2080002 -0.13500001 0.31999999
-13.442 9.2320004 -0.13699999 0.31999999
-13.538 9.2360001 -0.139 0.38
-13.622 9.2299995 -0.14 0.31
-13.718 9.2329998 -0.142 0.38
-13.806 9.2290001 -0.14300001 0.31
-13.893 9.224 -0.145 0.31999999
-13.992 9.2270002 -0.146 0.36000001
-14.066 9.2449999 -0.148 0.30000001
-14.15 9.2370005 -0.149 0.31999999
-14.251 9.2390003 -0.15099999 0.38
-14.337 9.2309999 -0.152 0.30000001
-14.442 9.2349997 -0.154 0.31999999
-14.523 9.2220001 -0.156 0.31999999
-14.616 9.217 -0.15700001 0.31999999
-14.702 9.2390003 -0.15899999 0.33000001
-14.8 9.2360001 -0.161 0.38
-14.892 9.2290001 -0.162 0.28999999
-14.991 9.2250004 -0.164 0.37
-15.088 9.2200003 -0.16599999 0.34
-15.192 9.2180004 -0.168 0.31999999
-15.294 9.2150002 -0.169 0.34
-15.389 9.2390003 -0.171 0.34
-15.482 9.2290001 -0.17299999 0.34
-15.583 9.2229996 -0.175 0.34
-15.688 9.2189999 -0.176 0.34
-15.791 9.2130003 -0.178 0.33000001
-15.896 9.2069998 -0.18000001 0.31
-16.014999 9.2089996 -0.182 0.33000001
-16.108999 9.2299995 -0.184 0.28
-16.23 9.2320004 -0.186 0.33000001
-16.349001 9.2320004 -0.189 0.33000001
-16.445999 9.2189999 -0.19 0.28999999
-16.559 9.2139997 -0.192 0.31999999
-16.672001 9.2089996 -0.19400001 0.34
-16.777 9.1990004 -0.19599999 0.28999999
-16.868999 9.2139997 -0.198 0.31999999
-16.975 9.2030001 -0.2 0.30000001
-17.083 9.1929998 -0.20200001 0.31
-17.207001 9.1899996 -0.204 0.33000001
-17.323 9.1820002 -0.206 0.31
-17.454 9.1820002 -0.208 0.31999999
-17.573 9.1739998 -0.211 0.28
-17.691999 9.2010002 -0.213 0.31
-17.849001 9.2119999 -0.21600001 0.30000001
-17.981001 9.2089996 -0.21799999 0.28
-18.132 9.2150002 -0.221 0.31
-18.281 9.2180004 -0.22400001 0.30000001
-18.427999 9.2200003 -0.227 0.27000001
-18.591999 9.2299995 -0.23 0.28999999
-18.725 9.2589998 -0.233 0.30000001
-18.853001 9.2489996 -0.235 0.30000001
-19 9.2469997 -0.23800001 0.31
-19.127001 9.2349997 -0.23999999 0.30000001
-19.264 9.2270002 -0.243 0.31
-19.408001 9.2209997 -0.245 0.30000001
-19.518 9.2360001 -0.248 0.31
-19.665001 9.2299995 -0.25 0.28999999
-19.839001 9.2360001 -0.25400001 0.31999999
-19.975 9.2229996 -0.25600001 0.28999999
-20.134001 9.2200003 -0.259 0.28999999
-20.278 9.2089996 -0.26199999 0.28999999
-20.429001 9.2010002 -0.26499999 0.31
-20.570999 9.1870003 -0.26699999 0.31
-20.715 9.2130003 -0.27000001 0.31999999
-20.857 9.198 -0.273 0.31
-21.01 9.1870003 -0.27599999 0.31
-21.174999 9.1800003 -0.27900001 0.28
-21.337 9.1709995 -0.28200001 0.31
-21.495001 9.1590004 -0.285 0.30000001
-21.667 9.1520004 -0.28799999 0.28999999
-21.813999 9.1739998 -0.29100001 0.30000001
-21.983 9.1639996 -0.294 0.2
-22.209 9.177 -0.29899999 0.43000001
-22.408001 9.177 -0.303 0.25
-22.617001 9.1800003 -0.30700001 0.27000001
-22.836 9.1859999 -0.31099999 0.27000001
-23.004 9.1700001 -0.31400001 0.28
-23.173 9.1949997 -0.31799999 0.30000001
-23.344999 9.1780005 -0.32100001 0.28999999
-23.514999 9.1599998 -0.324 0.30000001
-23.716999 9.1540003 -0.32800001 0.27000001
-23.931 9.1499996 -0.33199999 0.27000001
-24.146 9.1459999 -0.336 0.22
-17.049999 6.3889999 -0.177 0.20999999
-17.011999 6.3439999 -0.176 0.38
-16.996 6.277 -0.175 0.25999999
-16.990999 6.2150002 -0.17399999 0.41
-17.018 6.164 -0.17399999 0.31999999
-17.042999 6.112 -0.175 0.49000001
-17.113001 6.0770001 -0.176 0.38999999
-26.413 9.2550001 -0.382 0.58999997
-26.76 9.2819996 -0.389 0.57999998
-26.868 9.2250004 -0.391 0.20999999
-27.851 9.4659996 -0.412 0.19
-28.132 9.4630003 -0.417 0.22
-28.400999 9.4549999 -0.42300001 0.18000001
-28.639 9.434 -0.42699999 0.13
-28.907 9.4720001 -0.433 0.17
-29.229 9.4770002 -0.43900001 0.30000001
-29.499001 9.4619999 -0.44400001 0.23999999
-29.768 9.4460001 -0.44999999 0.28999999
-30.091999 9.4449997 -0.456 0.11
-30.413 9.441 -0.463 0.15000001
-30.752001 9.441 -0.46900001 0.1
-31.049999 9.4790001 -0.47600001 0.16
-31.378 9.4720001 -0.48199999 0.090000004
-31.743 9.474 -0.49000001 0.079999998
-32.116001 9.4750004 -0.49700001 0.079999998
-32.455002 9.4650002 -0.50400001 0.079999998
-32.847 9.4680004 -0.51200002 0.11
-33.019001 9.4049997 -0.51499999 0.25
-33.035999 9.3540001 -0.51499999 0.16
-33.452 9.3590002 -0.523 0.14
-33.577 9.2799997 -0.52499998 0.25
-33.966999 9.2729998 -0.53299999 0.18000001
-34.374001 9.2690001 -0.54100001 0.33000001
-34.793999 9.2650003 -0.55000001 0.19
-35.213001 9.2589998 -0.55800003 0.23
-35.616001 9.3050003 -0.56699997 0.18000001
-36.011002 9.2880001 -0.57499999 0.34
-36.451 9.2799997 -0.58399999 0.2
-36.908001 9.2729998 -0.59299999 0.17
-37.347 9.2589998 -0.602 0.13
-37.771999 9.2390003 -0.61000001 0.18000001
-38.236 9.2250004 -0.62 0.20999999
-38.683998 9.2690001 -0.62900001 0.2
-39.153 9.2519999 -0.63800001 0.28999999
-39.573002 9.2200003 -0.64700001 0
-47.341 10.879 -0.81300002 0
-47.539001 10.767 -0.81699997 0
-47.537998 10.61 -0.81599998 0
-47.450001 10.434 -0.81400001 0
-47.386002 10.342 -0.81199998 0
-47.355999 10.18 -0.81099999 0
-47.409 10.035 -0.81099999 0
-47.431999 9.8850002 -0.81099999 0
-47.523998 9.7480001 -0.81199998 0.079999998
-47.852001 9.6590004 -0.81900001 0
-47.861 9.5039997 -0.81800002 0
-46.108002 9.0799999 -0.77999997 0
-46.664001 9.0380001 -0.792 0
-47.294998 9.0059996 -0.80400002 0
-47.941002 8.9729996 -0.81800002 0.12
-34.801998 6.3940001 -0.537 0.15000001
-34.703999 6.263 -0.53399998 0.30000001
-34.713001 6.152 -0.53399998 0.28999999
-34.66 6.0869999 -0.53299999 0
-52.030998 8.9820004 -0.90200001 0
-52.77 8.9390001 -0.917 0
-52.277 8.6870003 -0.90600002 0
-54.923 8.9499998 -0.96200001 0
-55.925999 8.934 -0.98199999 0
-56.771999 8.8870001 -1 0
-57.513 8.9099998 -1.015 0
-58.414001 8.8629999 -1.034 0
-58.903 8.7480001 -1.044 0
-61.289001 8.9060001 -1.094 0
-62.583 8.8940001 -1.12 0
-60.855999 8.4530001 -1.0829999 0
-61.696999 8.3730001 -1.1 0.050000001
-47.605999 6.3790002 -0.80199999 0.17
-47.585999 6.224 -0.801 0.19
-47.618999 6.0760002 -0.801 0
-47.706001 5.9349999 -0.80299997 0
-58.245998 6.8800001 -1.025 0
-58.198002 6.6890001 -1.023 0
-58.183998 6.5949998 -1.023 0
-56.216999 6.1929998 -0.98100001 0
-56.215 6.0139999 -0.98000002 0
-56.277 5.842 -0.98100001 0.14
-59.189999 6.0510001 -1.0420001 0.20999999
-59.176998 5.862 -1.0420001 0.2
-59.196999 5.6760001 -1.0420001 0.38
-59.193001 5.4879999 -1.041 0.20999999
-59.166 5.2979999 -1.04 0.25
-59.186001 5.2069998 -1.041 0
-60.115002 5.098 -1.0599999 0
-26.563999 -2.5309999 -0.354 0.28
-26.538 -2.5710001 -0.354 0.56999999
-26.219 -2.6240001 -0.347 0.19
-25.521 -2.635 -0.333 0.61000001
-25.358999 -2.6989999 -0.33000001 0.31
-24.354 -2.7479999 -0.30899999 0.31999999
-24.343 -2.825 -0.30899999 0.47999999
-24.371 -2.8659999 -0.30899999 0.28
-24.368999 -2.944 -0.31 0.58999997
-24.304001 -3.0139999 -0.308 0.28999999
-24.365999 -3.099 -0.31 0.36000001
-22.948 -2.993 -0.28 0.14
-24.384001 -3.257 -0.31099999 0.44
-24.389 -3.336 -0.31099999 0.41
-24.402 -3.3770001 -0.31099999 0.41999999
-24.407 -3.4549999 -0.31200001 0.34999999
-24.424 -3.536 -0.31200001 0.55000001
-24.422001 -3.6140001 -0.31299999 0.27000001
-24.424999 -3.7720001 -0.31299999 0.61000001
-24.648001 -3.885 -0.31799999 0
-42.473999 -6.744 -0.69700003 0
-18.516001 -3.0739999 -0.18799999 0.16
-18.462999 -3.125 -0.18799999 0.38999999
-18.445 -3.1819999 -0.18700001 0.31
-18.459 -3.244 -0.18799999 0.54000002
-18.683001 -3.3429999 -0.193 0
-18.489 -3.339 -0.189 0
-36.535 -6.928 -0.57499999 0
-33.585999 -6.7540002 -0.51300001 0.18000001
-33.604 -6.868 -0.514 0
-32.931999 -6.8390002 -0.5 0
-32.466 -6.849 -0.491 0
-32.014 -6.8590002 -0.48100001 0
-31.572001 -6.869 -0.472 0
-31.125 -6.8740001 -0.463 0
-30.718 -6.835 -0.45500001 0
-30.316 -6.8460002 -0.447 0
-29.922001 -6.8559999 -0.43900001 0
-29.569 -6.8740001 -0.43099999 0
-27.525999 -6.6750002 -0.389 0.49000001
-27.761999 -6.7779999 -0.39399999 0
-27.691999 -6.8530002 -0.39300001 0
-27.364 -6.8629999 -0.38600001 0
-27.030001 -6.8699999 -0.38 0
-26.701 -6.8759999 -0.373 0
-26.381001 -6.8829999 -0.36700001 0
-26.080999 -6.8920002 -0.361 0
-25.792999 -6.8600001 -0.35499999 0
-25.488001 -6.8649998 -0.34799999 0
-25.236 -6.882 -0.34299999 0
-24.954 -6.8899999 -0.338 0
-24.674999 -6.8969998 -0.33199999 0
-24.381001 -6.8979998 -0.32600001 0
-24.125 -6.9070001 -0.32100001 0.12
-23.899 -6.8829999 -0.31600001 0
-23.603001 -6.8790002 -0.31 0
-23.365999 -6.8899999 -0.30599999 0
-23.122 -6.8969998 -0.301 0
-22.879999 -6.9029999 -0.296 0
-22.642 -6.9099998 -0.29100001 0
-22.431 -6.9229999 -0.287 0
-22.229 -6.8990002 -0.28299999 0
-21.969 -6.8940001 -0.278 0.090000004
-59.145 -18.718 -1.096 0
-21.523001 -6.9029999 -0.26899999 0
-21.315001 -6.9109998 -0.26499999 0
-21.091 -6.9120002 -0.25999999 0
-20.909 -6.8889999 -0.257 0
-20.715 -6.8969998 -0.25299999 0
-20.518999 -6.9039998 -0.249 0
-20.323 -6.9089999 -0.245 0
-20.134001 -6.9159999 -0.241 0
-19.931 -6.9169998 -0.237 0
-19.754999 -6.9250002 -0.234 0
-19.565001 -6.928 -0.23 0
-19.384001 -6.8990002 -0.226 0
-19.221001 -6.9089999 -0.223 0
-19.034 -6.9089999 -0.219 0
-18.862 -6.914 -0.21600001 0
-18.686001 -6.9169998 -0.213 0.07
-18.521999 -6.9229999 -0.20999999 0.079999998
-18.351 -6.9239998 -0.206 0.079999998
-18.207001 -6.9029999 -0.20299999 0.079999998
-18.045 -6.9070001 -0.2 0.090000004
-17.893 -6.9130001 -0.197 0.090000004
-17.733 -6.9159999 -0.19400001 0.090000004
-17.584 -6.9219999 -0.191 0.090000004
-17.440001 -6.9289999 -0.18799999 0.14
-17.282 -6.9289999 -0.185 0.1
-17.150999 -6.908 -0.183 0.14
-17.007 -6.9120002 -0.18000001 0.090000004
-16.865 -6.9159999 -0.177 0.14
-16.732 -6.9239998 -0.175 0.23
-16.591999 -6.927 -0.17200001 0.23999999
-16.452 -6.9299998 -0.169 0.11
-16.32 -6.9349999 -0.167 0.15000001
-16.197001 -6.9130001 -0.164 0.16
-16.068001 -6.9180002 -0.162 0.16
-15.94 -6.9219999 -0.15899999 0.23
-15.803 -6.9219999 -0.15700001 0.11
-15.678 -6.9260001 -0.154 0.15000001
-15.508 -6.9099998 -0.15099999 0.23
-15.481 -6.9559999 -0.15099999 0.25999999
-15.443 -6.9679999 -0.15000001 0.16
-15.474 -7.04 -0.15099999 0.12
-15.377 -7.0549998 -0.15000001 0
-15.495 -7.1680002 -0.153 0
-15.563 -7.2579999 -0.155 0
-15.563 -7.3179998 -0.156 0
-15.564 -7.3779998 -0.156 0
-15.54 -7.3969998 -0.156 0
-15.446 -7.4120002 -0.154 0
-20.596001 -10.194 -0.27700001 0
-20.563999 -10.258 -0.27700001 0
-20.593 -10.313 -0.278 0
-20.594 -10.395 -0.27900001 0
-20.579 -10.468 -0.27900001 0
-20.576 -10.549 -0.28 0
-20.568001 -10.626 -0.28 0
-20.554001 -10.701 -0.28099999 0
-20.566999 -10.749 -0.28200001 0
-20.556999 -10.825 -0.28200001 0
-20.556 -10.908 -0.28299999 0
-20.531 -10.977 -0.28299999 0
-24.799 -13.353 -0.38499999 0
-20.486 -11.119 -0.28400001 0
-20.461 -11.189 -0.28400001 0
-24.572001 -13.481 -0.38299999 0.039999999
-12.601 -6.9790001 -0.097000003 0.13
-12.546 -7 -0.096000001 0
-12.55 -7.0549998 -0.097000003 0
-12.54 -7.1009998 -0.097000003 0
-12.524 -7.1440001 -0.097000003 0
-12.575 -7.2249999 -0.098999999 0
-12.562 -7.244 -0.098999999 0
-12.57 -7.3010001 -0.1 0
-12.528 -7.3299999 -0.098999999 0
-22.312 -13.219 -0.33899999 0
-22.475 -13.411 -0.34400001 0
-22.136 -13.304 -0.336 0
-22.080999 -13.318 -0.336 0
-21.879999 -13.291 -0.33199999 0
-22.025999 -13.474 -0.336 0
-22.115999 -13.625 -0.34 0
-22.138 -13.734 -0.34099999 0
-22.049 -13.775 -0.34 0
-21.487 -13.519 -0.32699999 0
-21.382999 -13.5 -0.32499999 0
-21.302999 -13.544 -0.324 0
-20.968 -13.423 -0.317 0
-20.878 -13.459 -0.31600001 0
-20.863001 -13.542 -0.31600001 0
-20.634001 -13.486 -0.31200001 0
-20.804001 -13.69 -0.317 0
-20.916 -13.811 -0.31999999 0
-20.943001 -13.923 -0.322 0
-20.177 -13.507 -0.30399999 0
-20.219 -13.627 -0.30599999 0
-19.915001 -13.513 -0.30000001 0
-19.820999 -13.541 -0.29800001 0
-19.971001 -13.736 -0.303 0
-19.677999 -13.58 -0.296 0
-19.66 -13.659 -0.29699999 0
-19.695 -13.775 -0.29899999 0.039999999
-9.4750004 -6.7319999 -0.039000001 0.20999999
-9.6949997 -6.934 -0.045000002 0.19
-9.6230001 -6.9510002 -0.044 0.40000001
-9.5769997 -6.9640002 -0.043000001 0.18000001
-9.5109997 -6.9619999 -0.041999999 0.38
-9.4460001 -6.96 -0.041000001 0.18000001
-9.4020004 -6.973 -0.039999999 0.38
-9.3269997 -6.9629998 -0.039000001 0.17
-9.2709999 -6.967 -0.037999999 0.37
-9.2279997 -6.9580002 -0.037 0.18000001
-9.1730003 -6.9619999 -0.035999998 0.37
-9.1129999 -6.961 -0.035 0.18000001
-9.0570002 -6.9640002 -0.034000002 0.36000001
-9.0080004 -6.9720001 -0.034000002 0.16
-8.9490004 -6.9710002 -0.033 0.36000001
-8.8920002 -6.9720001 -0.032000002 0.16
-8.8400002 -6.954 -0.030999999 0.36000001
-8.7880001 -6.9580002 -0.029999999 0.16
-8.7370005 -6.9619999 -0.028999999 0.34999999
-8.6800003 -6.9619999 -0.028000001 0.15000001
-8.618 -6.9569998 -0.027000001 0.15000001
-8.5620003 -6.9559999 -0.026000001 0
-4.3569999 -3.6140001 0.086000003 0
-4.3379998 -3.6210001 0.086999997 0
-4.3189998 -3.628 0.086999997 0
-4.329 -3.6600001 0.086000003 0
-4.3099999 -3.6670001 0.086000003 0
-8.0819998 -6.9559999 -0.017999999 0.22
-8.0439997 -6.967 -0.017999999 0.17
-7.9920001 -6.9660001 -0.017000001 0.23
-7.9349999 -6.961 -0.016000001 0.18000001
-7.8860002 -6.9619999 -0.015 0.22
-7.8509998 -6.9749999 -0.015 0.18000001
-7.7979999 -6.9499998 -0.014 0.22
-7.7600002 -6.96 -0.013 0.17
-7.6989999 -6.9499998 -0.012 0.14
-7.6560001 -6.9549999 -0.012 0.17
-7.6139998 -6.96 -0.011 0.20999999
-7.5819998 -6.9749999 -0.011 0.15000001
-7.5139999 -6.9559999 -0.0099999998 0.13
-7.4990001 -6.9640002 -0.0089999996 0.16
-7.4359999 -6.9489999 -0.0080000004 0.12
-7.3959999 -6.9559999 -0.0080000004 0.16
-7.3569999 -6.9629998 -0.0070000002 0.28999999
-7.3119998 -6.9640002 -0.0070000002 0.18000001
-7.2639999 -6.9619999 -0.0060000001 0.18000001
-7.217 -6.9619999 -0.0049999999 0.18000001
-7.191 -6.9580002 -0.0049999999 0.17
-7.1469998 -6.9590001 -0.0040000002 0.17
-7.098 -6.9549999 -0.003 0.17
-7.0630002 -6.9650002 -0.003 0.17
-7.02 -6.9660001 -0.0020000001 0.17
-6.9699998 -6.96 -0.001 0.16
-6.9369998 -6.9699998 -0.001 0.16
-6.8860002 -6.9419999 0 0.1
-6.8600001 -6.9590001 0 0.15000001
-6.8060002 -6.948 0.001 0.1
-6.777 -6.9619999 0.001 0.14
-6.724 -6.9520001 0.0020000001 0.090000004
-6.6900001 -6.96 0.003 0
-6.638 -6.9489999 0.0040000002 0
-6.6129999 -6.9450002 0.0040000002 0
-6.5760002 -6.9499998 0.0040000002 0
-6.5359998 -6.9520001 0.0049999999 0
-6.494 -6.9499998 0.0060000001 0
-6.4499998 -6.947 0.0060000001 0
-6.4130001 -6.9510002 0.0070000002 0
-6.3790002 -6.9580002 0.0070000002 0
-6.348 -6.9460001 0.0080000004 0
-6.3060002 -6.9439998 0.0080000004 0
-6.2729998 -6.9520001 0.0089999996 0
-6.237 -6.9549999 0.0089999996 0
-6.1929998 -6.9510002 0.0099999998 0
-6.1500001 -6.9460001 0.011 0
-6.118 -6.954 0.011 0
-6.0949998 -6.9499998 0.011 0
-6.0689998 -6.9640002 0.011 0
-6.0180001 -6.9499998 0.012 0
-5.993 -6.9650002 0.012 0
-5.9380002 -6.9450002 0.014 0
-5.9229999 -6.9720001 0.013 0
-5.8790002 -6.9429998 0.014 0
-5.8610001 -6.9660001 0.014 0
-5.8060002 -6.9450002 0.015 0
-5.7870002 -6.9660001 0.015 0
-5.7379999 -6.9520001 0.016000001 0
-5.7150002 -6.9679999 0.016000001 0
-5.6630001 -6.9489999 0.017000001 0
-5.645 -6.9710002 0.017000001 0
-5.5970001 -6.9349999 0.017999999 0
-5.5809999 -6.96 0.017999999 0
-5.5300002 -6.941 0.018999999 0
-5.5180001 -6.9699998 0.018999999 0
-5.4710002 -6.9559999 0.02 0
-5.447 -6.9699998 0.02 0
-5.395 -6.9499998 0.021 0
-5.3920002 -6.9679999 0.02 0
-5.3379998 -6.9429998 0.021 0
-5.3210001 -6.9660001 0.021 0
-5.2709999 -6.9460001 0.022 0
-5.256 -6.973 0.022 0
-5.21 -6.9569998 0.023 0
-5.1999998 -6.9650002 0.023 0
-5.1389999 -6.9299998 0.024 0
-5.132 -6.9660001 0.024 0
-5.0840001 -6.9460001 0.025 0
-5.0630002 -6.9640002 0.025 0
-5.0209999 -6.9520001 0.025 0
-4.9949999 -6.9619999 0.025 0
-4.9580002 -6.934 0.026000001 0
-4.9460001 -6.9619999 0.026000001 0
-4.8969998 -6.9400001 0.027000001 0
-4.8860002 -6.9699998 0.027000001 0
-4.8330002 -6.941 0.028000001 0
-4.8169999 -6.9650002 0.028000001 0
-4.7719998 -6.947 0.028000001 0
-4.7610002 -6.954 0.028000001 0
-4.7179999 -6.9380002 0.028999999 0
-4.7049999 -6.9660001 0.028999999 0
-4.6630001 -6.9510002 0.029999999 0
-4.6399999 -6.9640002 0.029999999 0
-4.5960002 -6.9450002 0.029999999 0
-4.5830002 -6.973 0.029999999 0
-4.539 -6.954 0.030999999 0
-4.5279999 -6.961 0.030999999 0
-4.4889998 -6.948 0.032000002 0
-4.4699998 -6.967 0.032000002 0
-4.428 -6.9489999 0.032000002 0
-4.408 -6.967 0.032000002 0
-4.3660002 -6.948 0.033 0
-4.3629999 -6.9689999 0.033 0
-4.3150001 -6.9400001 0.034000002 0
-4.2820001 -6.9369998 0.034000002 0
-4.2600002 -6.948 0.034000002 0
-4.2249999 -6.941 0.035 0
-4.1950002 -6.941 0.035 0
-4.1849999 -6.973 0.035 0
-4.151 -6.9419999 0.035999998 0
-4.1279998 -6.9530001 0.035999998 0
-4.0879998 -6.9349999 0.035999998 0
-4.079 -6.9699998 0.035999998 0
-4.0310001 -6.9380002 0.037 0
-4.0159998 -6.9629998 0.037 0
-3.9749999 -6.9429998 0.037 0
-3.973 -6.9640002 0.037 0
-3.9300001 -6.9390001 0.037999999 0
-3.9170001 -6.967 0.037999999 0
-3.8710001 -6.9369998 0.039000001 0
-3.8570001 -6.9629998 0.037999999 0
-3.819 -6.9450002 0.039000001 0
-3.799 -6.961 0.039000001 0
-3.7650001 -6.9250002 0.039999999 0
-3.7579999 -6.9629998 0.039000001 0
-3.7179999 -6.941 0.039999999 0
-3.701 -6.9619999 0.039999999 0
-3.665 -6.947 0.039999999 0
-3.6470001 -6.9650002 0.039999999 0
-3.6170001 -6.9359999 0.041000001 0
-3.6029999 -6.9629998 0.041000001 0
-3.5639999 -6.941 0.041999999 0
-3.549 -6.9640002 0.041000001 0
-3.5139999 -6.9499998 0.041999999 0
-3.49 -6.9580002 0.041999999 0
-3.454 -6.9400001 0.043000001 0
-3.451 -6.9619999 0.041999999 0
-3.4159999 -6.9460001 0.043000001 0
-3.3989999 -6.9650002 0.043000001 0
-3.3659999 -6.954 0.043000001 0
-3.3469999 -6.9699998 0.043000001 0
-3.3080001 -6.9450002 0.044 0
-3.293 -6.9689999 0.043000001 0
-3.266 -6.9419999 0.044 0
-3.2490001 -6.961 0.044 0
-3.2160001 -6.948 0.045000002 0
-3.247 -7.1890001 0.039999999 0.57999998
-3.118 -6.9640002 0.045000002 0
-3.1229999 -7.006 0.044 0
-3.148 -7.119 0.041999999 0
-3.1440001 -7.171 0.041000001 0
-3.1010001 -7.1350002 0.041999999 0.15000001
-3.0539999 -7.0879998 0.043000001 0.25
-3.0250001 -7.0830002 0.044 0.25
-3 -7.085 0.044 0.25
-2.9779999 -7.0640001 0.044 0
-2.97 -7.1069999 0.044 0
-3.128 -7.5479999 0.034000002 0.07
-2.927 -7.1290002 0.044 0.20999999
-2.9059999 -7.1440001 0.043000001 0.23999999
-2.865 -7.1059999 0.044 0
-3.0539999 -7.6399999 0.033 0
-3.152 -7.9180002 0.026000001 0
-3.1630001 -8.0190001 0.024 0
-3.1589999 -8.0810003 0.023 0
-3.1440001 -8.1169996 0.023 0.090000004
-2.734 -7.1339998 0.045000002 0.17
-2.714 -7.1500001 0.045000002 0
-2.6860001 -7.1440001 0.045000002 0
-2.674 -7.1440001 0.045000002 0
-2.658 -7.171 0.045000002 0
-2.6240001 -7.1500001 0.045000002 0.1
-2.586 -7.1149998 0.046 0
-2.575 -7.1529999 0.046 0
-2.546 -7.1440001 0.046 0
-2.5190001 -7.1389999 0.046 0
-2.5090001 -7.1469998 0.046 0
-2.477 -7.1259999 0.046999998 0.07
-2.4460001 -7.1090002 0.046999998 0
-2.434 -7.1490002 0.046999998 0
-2.4070001 -7.1420002 0.046999998 0
-2.3770001 -7.1279998 0.048 0
-2.368 -7.1760001 0.046999998 0
-2.3410001 -7.132 0.048 0.090000004
-2.3180001 -7.1370001 0.048 0
-2.2980001 -7.152 0.048 0
-2.2690001 -7.138 0.048 0
-2.2420001 -7.132 0.048 0
-2.224 -7.151 0.048 0
-2.207 -7.1370001 0.048 0.16
-2.1800001 -7.1279998 0.048999999 0
-2.1630001 -7.152 0.048 0
-2.1340001 -7.138 0.048999999 0
-2.1099999 -7.1389999 0.048999999 0
-2.0910001 -7.1570001 0.048999999 0
-2.0569999 -7.125 0.050000001 0.07
-2.0409999 -7.1110001 0.050000001 0.14
-2.0139999 -7.1040001 0.050000001 0
-2 -7.1370001 0.050000001 0.07
-1.954 -7.059 0.052000001 0.1
-1.937 -7.0840001 0.050999999 0.14
-1.902 -7.0440001 0.052000001 0
-1.8200001 -6.8280001 0.057 0.12
-1.8 -6.7979999 0.057999998 0.1
-1.776 -6.7940001 0.057999998 0
-1.7589999 -6.8150001 0.057999998 0.13
-1.732 -6.8010001 0.057999998 0.1
-1.7079999 -6.7950001 0.057999998 0
-1.691 -6.8179998 0.057999998 0.13
-1.665 -6.8039999 0.057999998 0.1
-1.653 -6.8000002 0.057999998 0
-1.633 -6.8109999 0.057999998 0.13
-1.6059999 -6.7930002 0.059 0.1
-1.585 -6.8000002 0.059 0
-1.5650001 -6.8130002 0.059 0.13
-1.54 -6.802 0.059 0.1
-1.517 -6.7969999 0.059 0
-1.508 -6.8070002 0.059 0.13
-1.482 -6.7950001 0.059 0.1
-1.459 -6.7870002 0.059999999 0
-1.4400001 -6.8060002 0.059 0.12
-1.416 -6.796 0.059999999 0.1
-1.392 -6.7870002 0.059999999 0
-1.385 -6.8070002 0.059 0.12
-1.362 -6.803 0.059999999 0.090000004
-1.3380001 -6.7940001 0.059999999 0
-1.318 -6.8099999 0.059999999 0.13
-1.293 -6.7919998 0.059999999 0.090000004
-1.271 -6.7930002 0.059999999 0
-1.252 -6.8080001 0.059999999 0.13
-1.24 -6.802 0.059999999 0.1
-1.219 -6.8099999 0.059999999 0.14
-1.194 -6.796 0.059999999 0.1
-1.176 -6.8179998 0.059999999 0.14
-1.152 -6.8039999 0.059999999 0.1
-1.13 -6.8070002 0.059999999 0.14
-1.112 -6.8319998 0.059999999 0.2
-1.095 -6.7930002 0.061000001 0.11
-1.077 -6.816 0.059999999 0.14
-1.052 -6.7969999 0.061000001 0.1
-1.029 -6.7930002 0.061000001 0
-1.011 -6.816 0.061000001 0.13
-0.986 -6.7930002 0.061000001 0.1
-0.96399999 -6.7940001 0.061000001 0
-0.95700002 -6.8200002 0.061000001 0.13
-0.93199998 -6.7989998 0.061000001 0.1
-0.90799999 -6.7859998 0.061999999 0
-0.889 -6.803 0.061000001 0.13
-0.866 -6.7950001 0.061000001 0.1
-0.84500003 -6.796 0.061999999 0
-0.82499999 -6.8150001 0.061000001 0.13
-0.81199998 -6.796 0.061999999 0.1
-0.79000002 -6.7950001 0.061999999 0
-0.77100003 -6.8130002 0.061000001 0.13
-0.74699998 -6.7909999 0.061999999 0.1
-0.72799999 -6.8140001 0.061000001 0.14
-0.704 -6.7919998 0.061999999 0
-0.685 -6.822 0.061000001 0.13
-0.67299998 -6.8070002 0.061999999 0.1
-0.64999998 -6.7969999 0.061999999 0
-0.63099998 -6.8189998 0.061999999 0.13
-0.60699999 -6.7950001 0.061999999 0.1
-0.58700001 -6.809 0.061999999 0
-0.565 -6.8049998 0.061999999 0.12
-0.54299998 -6.803 0.061999999 0.090000004
-0.53100002 -6.79 0.061999999 0
-0.51099998 -6.8109999 0.061999999 0.13
-0.48899999 -6.803 0.061999999 0.1
-0.46700001 -6.7979999 0.061999999 0
-0.447 -6.8140001 0.061999999 0.13
-0.426 -6.8150001 0.061999999 0.22
-0.414 -6.8039999 0.061999999 0.11
-0.39300001 -6.8010001 0.061999999 0
-0.373 -6.8260002 0.061999999 0.13
-0.35100001 -6.8169999 0.061999999 0.22
-0.32800001 -6.7979999 0.061999999 0
-0.308 -6.8210001 0.061999999 0.11
-0.285 -6.7979999 0.061999999 0.12
-0.27599999 -6.8189998 0.061999999 0.15000001
-0.25400001 -6.8260002 0.061999999 0.20999999
-0.23199999 -6.8039999 0.061999999 0.11
-0.211 -6.8270001 0.061999999 0.14
-0.19 -6.8280001 0.061999999 0.22
-0.168 -6.8200002 0.061999999 0.25999999
-0.147 -6.8049998 0.061999999 0.11
-0.13600001 -6.8309999 0.061999999 0.15000001
-0.115 -6.829 0.061999999 0.16
-0.093000002 -6.8179998 0.061999999 0.16
-0.071999997 -6.8179998 0.061999999 0.17
-0.050000001 -6.8179998 0.061999999 0.23
-0.028999999 -6.8299999 0.061999999 0.18000001
-0.0080000004 -6.8460002 0.061999999 0.12
0.003 -6.8060002 0.061999999 0.15000001
0.025 -6.8460002 0.061999999 0.12
0.046 -6.8280001 0.061999999 0.31999999
0.067000002 -6.8319998 0.061999999 0.27000001
0.089000002 -6.8319998 0.061999999 0.19
0.112 -6.927 0.059999999 0.16
0.134 -6.9790001 0.059 0.23999999
0.145 -6.9949999 0.057999998 0.34
0.167 -6.98 0.059 0.31999999
0.18799999 -6.9559999 0.059 0.20999999
0.207 -6.8249998 0.061999999 0.15000001
0.23 -6.8990002 0.059999999 0.14
0.249 -6.816 0.061999999 0
0.26199999 -6.855 0.061000001 0.11
0.28200001 -6.8169999 0.061999999 0.11
0.30399999 -6.836 0.061999999 0.14
0.32499999 -6.829 0.061999999 0.20999999
0.34599999 -6.8140001 0.061999999 0.1
0.368 -6.8260002 0.061999999 0.14
0.38999999 -6.829 0.061999999 0.20999999
0.40000001 -6.8210001 0.061999999 0.1
0.42199999 -6.8249998 0.061999999 0.14
0.442 -6.8099999 0.061999999 0.1
0.46399999 -6.8189998 0.061999999 0
0.48699999 -6.829 0.061999999 0.13
0.50800002 -6.8299999 0.061999999 0.2
0.528 -6.8039999 0.061999999 0.1
0.53899997 -6.8130002 0.061999999 0
0.56300002 -6.8429999 0.061000001 0.13
0.58200002 -6.8119998 0.061999999 0.1
0.60399997 -6.8140001 0.061999999 0
0.62800002 -6.8439999 0.061000001 0.12
0.64700001 -6.8119998 0.061999999 0.090000004
0.66900003 -6.816 0.061999999 0
0.68199998 -6.8379998 0.061000001 0.12
0.70099998 -6.8140001 0.061000001 0.090000004
0.72299999 -6.8119998 0.061000001 0
0.74699998 -6.8400002 0.061000001 0.12
0.76700002 -6.8210001 0.061000001 0.090000004
0.787 -6.8109999 0.061000001 0
0.81099999 -6.8260002 0.061000001 0.12
0.81999999 -6.8130002 0.061000001 0.090000004
0.84299999 -6.8189998 0.061000001 0
0.86699998 -6.842 0.061000001 0.12
0.88599998 -6.8169999 0.061000001 0.090000004
0.90700001 -6.8080001 0.061000001 0
0.93199998 -6.8330002 0.061000001 0.13
0.94999999 -6.8060002 0.061000001 0.1
0.96100003 -6.809 0.061000001 0
0.986 -6.8319998 0.059999999 0.12
1.0039999 -6.8070002 0.061000001 0.090000004
1.028 -6.8169999 0.061000001 0
1.049 -6.8099999 0.061000001 0
1.073 -6.829 0.059999999 0.12
1.0930001 -6.8130002 0.059999999 0.090000004
1.1059999 -6.823 0.059999999 0
1.128 -6.8260002 0.059999999 0.12
1.148 -6.8140001 0.059999999 0.090000004
1.171 -6.8189998 0.059999999 0
1.196 -6.8390002 0.059999999 0.12
1.214 -6.8150001 0.059999999 0.090000004
1.238 -6.823 0.059999999 0
1.251 -6.835 0.059 0.12
1.27 -6.8150001 0.059999999 0.090000004
1.293 -6.8210001 0.059999999 0
1.318 -6.836 0.059 0.12
1.336 -6.8130002 0.059999999 0.090000004
1.359 -6.8200002 0.059 0
1.372 -6.8299999 0.059 0.13
1.392 -6.8179998 0.059 0.090000004
1.415 -6.8210001 0.059 0
1.4400001 -6.8319998 0.059 0.12
1.46 -6.8200002 0.059 0.1
1.484 -6.8270001 0.059 0
1.507 -6.8299999 0.057999998 0.13
1.516 -6.8200002 0.059 0.1
1.538 -6.8189998 0.059 0
1.566 -6.8410001 0.057999998 0.13
1.584 -6.8210001 0.057999998 0.1
1.605 -6.8140001 0.057999998 0
1.633 -6.8379998 0.057999998 0.13
1.653 -6.8270001 0.057999998 0.1
1.664 -6.8249998 0.057999998 0
1.691 -6.8429999 0.057 0.13
1.7079999 -6.8200002 0.057999998 0.1
1.733 -6.8299999 0.057 0
1.758 -6.8379998 0.057 0.13
1.775 -6.8150001 0.057 0.1
1.806 -6.8460002 0.057 0.13
1.812 -6.8239999 0.057 0.1
1.837 -6.8340001 0.057 0
1.8660001 -6.855 0.056000002 0.13
1.881 -6.8239999 0.057 0.1
1.908 -6.8390002 0.056000002 0.14
1.927 -6.8239999 0.056000002 0.1
1.956 -6.8439999 0.056000002 0.13
1.966 -6.8390002 0.056000002 0.2
1.985 -6.8249998 0.056000002 0.1
2.013 -6.842 0.056000002 0.14
2.0380001 -6.8449998 0.055 0.20999999
2.056 -6.8280001 0.056000002 0.11
2.0840001 -6.8439999 0.055 0.14
2.108 -6.8470001 0.055 0.20999999
2.115 -6.8280001 0.055 0.11
2.1440001 -6.8470001 0.055 0.14
2.168 -6.8470001 0.055 0.22
2.1849999 -6.829 0.055 0.11
2.214 -6.8429999 0.054000001 0.14
2.2360001 -6.8400002 0.054000001 0.22
2.2579999 -6.8330002 0.054000001 0.11
2.2750001 -6.848 0.054000001 0.14
2.299 -6.849 0.054000001 0.22
2.3199999 -6.842 0.054000001 0.11
2.349 -6.855 0.052999999 0.14
2.3710001 -6.8499999 0.052999999 0.22
2.3889999 -6.8330002 0.052999999 0.11
2.4070001 -6.8499999 0.052999999 0.15000001
2.431 -6.848 0.052999999 0.23
2.448 -6.829 0.052999999 0.11
2.4790001 -6.8470001 0.052000001 0.15000001
2.503 -6.8449998 0.052000001 0.23
2.523 -6.8340001 0.052000001 0.11
2.5510001 -6.8439999 0.052000001 0.15000001
2.5650001 -6.848 0.052000001 0.16
2.5899999 -6.8509998 0.052000001 0.16
2.615 -6.8520002 0.050999999 0.16
2.6400001 -6.8509998 0.050999999 0.16
2.6670001 -6.8579998 0.050999999 0.16
2.688 -6.848 0.050999999 0.16
2.711 -6.8449998 0.050999999 0.16
2.7279999 -6.855 0.050000001 0.16
2.7520001 -6.8520002 0.050000001 0.16
2.776 -6.849 0.050000001 0.16
2.806 -6.8629999 0.050000001 0.23
2.8280001 -6.8559999 0.050000001 0.23999999
2.8510001 -6.849 0.050000001 0.25
2.8800001 -6.8579998 0.048999999 0.25
2.8929999 -6.8590002 0.048999999 0.25
2.918 -6.8569999 0.048999999 0.25
2.944 -6.8590002 0.048999999 0.25
2.9660001 -6.8520002 0.048999999 0.25
2.9890001 -6.8460002 0.048 0.27000001
3.0150001 -6.8460002 0.048 0.27000001
3.043 -6.8530002 0.048 0.25999999
3.053 -6.8460002 0.048 0.25999999
3.0799999 -6.848 0.048 0
3.109 -6.8540001 0.046999998 0.12
3.1259999 -6.835 0.048 0.12
3.1670001 -6.8670001 0.046999998 0.11
3.177 -6.8340001 0.046999998 0.13
3.2090001 -6.8740001 0.046 0.11
3.221 -6.8439999 0.046 0.13
3.26 -6.8699999 0.046 0.11
3.2709999 -6.8379998 0.046 0.13
3.325 -6.8959999 0.045000002 0.11
3.3280001 -6.8460002 0.045000002 0.13
3.372 -6.8829999 0.044 0.11
3.372 -6.8559999 0.045000002 0.13
3.411 -6.881 0.044 0.12
3.4230001 -6.8499999 0.045000002 0.13
3.4679999 -6.8860002 0.043000001 0.12
3.474 -6.8449998 0.044 0.13
3.523 -6.8870001 0.043000001 0.11
3.53 -6.848 0.044 0.14
3.5639999 -6.8870001 0.043000001 0.12
3.5699999 -6.8449998 0.043000001 0.14
3.6199999 -6.8889999 0.041999999 0.12
3.6229999 -6.842 0.043000001 0.14
3.674 -6.8870001 0.041000001 0.12
3.6900001 -6.8649998 0.041999999 0.31
3.7160001 -6.8610001 0.041999999 0.2
3.75 -6.8990002 0.039999999 0.12
3.7490001 -6.8449998 0.041000001 0.14
3.7909999 -6.8720002 0.041000001 0.14
3.8199999 -6.8720002 0.039999999 0.20999999
3.8529999 -6.881 0.039999999 0.12
3.858 -6.8390002 0.039999999 0.14
3.904 -6.8699999 0.039000001 0.14
3.9219999 -6.8769999 0.039000001 0.20999999
3.9530001 -6.882 0.039000001 0.12
3.9630001 -6.848 0.039000001 0.14
4.0019999 -6.8670001 0.037999999 0.15000001
4.0289998 -6.8629999 0.037999999 0.22
4.0650001 -6.8740001 0.037999999 0.13
4.0780001 -6.848 0.037999999 0.15000001
4.1110001 -6.8790002 0.037 0.15000001
4.1339998 -6.868 0.037 0.22
4.1719999 -6.882 0.035999998 0.13
4.184 -6.8540001 0.037 0.15000001
4.2259998 -6.875 0.035999998 0.14
4.2490001 -6.8629999 0.035999998 0.23
4.2820001 -6.8920002 0.035 0.14
4.2969999 -6.869 0.035 0.34999999
4.3390002 -6.8870001 0.034000002 0.12
4.3460002 -6.8499999 0.035 0.15000001
4.3940001 -6.8779998 0.034000002 0.16
4.4190001 -6.8699999 0.034000002 0.23
4.461 -6.888 0.033 0.15000001
4.467 -6.8740001 0.033 0.23999999
4.5040002 -6.8829999 0.033 0.14
4.5250001 -6.868 0.033 0.23999999
4.5689998 -6.888 0.032000002 0.16
4.5890002 -6.8709998 0.032000002 0.25
4.6339998 -6.8909998 0.030999999 0.16
4.651 -6.8699999 0.030999999 0.23999999
4.6789999 -6.8889999 0.029999999 0.14
4.7010002 -6.8740001 0.029999999 0.38
4.7459998 -6.8940001 0.029999999 0.13
4.7600002 -6.868 0.029999999 0.38999999
4.7989998 -6.8769999 0.028999999 0.13
4.8319998 -6.8790002 0.028999999 0.38999999
4.8639998 -6.8779998 0.028000001 0.13
4.8839998 -6.8839998 0.028000001 0.38999999
4.921 -6.8909998 0.028000001 0.14
4.941 -6.8720002 0.028000001 0.38999999
4.987 -6.8909998 0.027000001 0.13
5.006 -6.8720002 0.027000001 0.41
5.0469999 -6.882 0.026000001 0.14
5.0739999 -6.8740001 0.026000001 0.41
5.1009998 -6.8889999 0.025 0.15000001
5.1290002 -6.881 0.025 0.40000001
5.165 -6.8839998 0.025 0.16
5.1960001 -6.8800001 0.024 0.28
5.23 -6.8800001 0.024 0.19
5.2690001 -6.8870001 0.023 0.12
5.2820001 -6.881 0.023 0.41999999
5.3249998 -6.8930001 0.022 0.15000001
5.3520002 -6.882 0.022 0.41
5.3920002 -6.8889999 0.022 0.15000001
5.4190001 -6.8800001 0.021 0.28
5.4549999 -6.8800001 0.021 0.20999999
5.5009999 -6.8940001 0.02 0.13
5.5180001 -6.8930001 0.02 0.43000001
5.5599999 -6.901 0.018999999 0.20999999
5.5900002 -6.8940001 0.018999999 0.14
5.6090002 -6.8740001 0.018999999 0.16
5.6350002 -6.8610001 0.018999999 0
21.690001 -26.357 -0.51099998 0
21.806 -26.329 -0.51200002 0
21.855 -26.304001 -0.51200002 0
21.933001 -26.231001 -0.51200002 0
22.01 -26.156 -0.51200002 0
22.134001 -26.135 -0.51300001 0
22.225 -26.076 -0.51300001 0
22.325001 -26.027 -0.514 0
22.437 -25.992001 -0.51499999 0
22.468 -25.945999 -0.51499999 0
22.552 -25.878 -0.51499999 0
22.622 -25.794001 -0.514 0
22.708 -25.729 -0.514 0
22.790001 -25.659 -0.514 0
22.864 -25.58 -0.514 0
22.987 -25.555 -0.51599997 0
23.018999 -25.51 -0.51499999 0
23.125999 -25.466999 -0.51599997 0
23.240999 -25.433001 -0.51700002 0
23.323999 -25.364 -0.51700002 0
23.410999 -25.298 -0.51800001 0
23.51 -25.247 -0.51800001 0
23.521 -25.179001 -0.51700002 0.059999999
7.7919998 -8.2110004 -0.032000002 0.28
7.7979999 -8.1660004 -0.032000002 0.37
7.802 -8.118 -0.030999999 0.36000001
7.8080001 -8.0740004 -0.029999999 0.34
7.816 -8.0319996 -0.029999999 0.36000001
7.7870002 -7.9770002 -0.028999999 0.31999999
7.8010001 -7.941 -0.028000001 0.43000001
7.8330002 -7.9229999 -0.028999999 0.31
7.8870001 -7.928 -0.028999999 0.31999999
7.9359999 -7.928 -0.029999999 0.33000001
7.9910002 -7.9320002 -0.030999999 0.28999999
8.0349998 -7.927 -0.032000002 0.34
8.0830002 -7.9489999 -0.033 0.41
8.3079996 -8.1199999 -0.037999999 0
3.4300001 -3.29 0.105 0
3.4519999 -3.29 0.105 0
3.4630001 -3.279 0.105 0
3.454 -3.25 0.106 0
3.4590001 -3.2449999 0.106 0
3.464 -3.2279999 0.106 0
3.4619999 -3.207 0.106 0
3.474 -3.197 0.106 0
3.4809999 -3.1830001 0.106 0
3.5020001 -3.1830001 0.106 0
3.506 -3.1670001 0.106 0
3.51 -3.1600001 0.106 0
3.523 -3.152 0.106 0
3.5309999 -3.1389999 0.106 0
3.546 -3.132 0.106 0
3.569 -3.1329999 0.106 0
3.5829999 -3.1259999 0.105 0
3.5999999 -3.1210001 0.105 0
3.605 -3.115 0.105 0
3.618 -3.1070001 0.105 0
3.6489999 -3.1140001 0.105 0
3.6630001 -3.1059999 0.104 0
3.678 -3.098 0.104 0
3.71 -3.1059999 0.104 0
3.7409999 -3.112 0.103 0
9.2930002 -7.7069998 -0.048 0.12
9.4499998 -7.7870002 -0.052000001 0.13
9.8310003 -8.0509996 -0.061000001 0.30000001
9.1940002 -7.4790001 -0.043000001 0.25
9.7449999 -7.8779998 -0.057999998 0.25
9.7040005 -7.8200002 -0.056000002 0.54000002
9.783 -7.8330002 -0.057999998 0.25
9.5889997 -7.6279998 -0.052000001 0.31999999
9.7959995 -7.743 -0.057 0.34
9.7799997 -7.6799998 -0.056000002 0.43000001
9.9350004 -7.7519999 -0.059 0
9.6540003 -7.4840002 -0.050999999 0
28.226 -21.871 -0.54400003 0
28.280001 -21.771999 -0.54299998 0
10.159 -7.6989999 -0.061999999 0.20999999
10.164 -7.6529999 -0.061999999 0.25999999
10.15 -7.592 -0.061000001 0
28.743999 -21.417999 -0.54699999 0.059999999
10.923 -8.0389996 -0.079000004 0.22
10.903 -7.9720001 -0.078000002 0.38999999
10.912 -7.9260001 -0.078000002 0.43000001
10.929 -7.8860002 -0.077 0.34
10.991 -7.8779998 -0.078000002 0.20999999
11.06 -7.875 -0.079999998 0.56999999
11.307 -8.0249996 -0.086000003 0
29.267 -20.684 -0.546 0
29.318001 -20.583 -0.546 0
29.393999 -20.499001 -0.546 0
29.495001 -20.431 -0.54699999 0
29.58 -20.353001 -0.54799998 0
29.68 -20.285 -0.54900002 0
29.732 -20.252001 -0.54900002 0
29.799 -20.160999 -0.54900002 0
29.865 -20.069 -0.54900002 0
29.933001 -19.979 -0.55000001 0
30.016001 -19.898001 -0.55000001 0
30.091 -19.812 -0.55000001 0
30.156 -19.787001 -0.551 0
30.226 -19.698 -0.551 0
30.290001 -19.604 -0.551 0
30.395 -19.535999 -0.55299997 0
30.493 -19.465 -0.55299997 0
30.593 -19.393 -0.55400002 0
30.686001 -19.316999 -0.55500001 0
30.794001 -19.318001 -0.55699998 0
30.885 -19.24 -0.55800003 0
30.995001 -19.174 -0.55900002 0
31.176001 -19.150999 -0.56199998 0
31.375999 -19.138 -0.56599998 0
31.395 -19.014999 -0.565 0
31.507 -18.948 -0.56599998 0
31.511 -18.882999 -0.565 0
31.639 -18.825001 -0.56699997 0
31.757999 -18.761 -0.56800002 0
31.764 -18.629999 -0.56699997 0
31.736 -18.479 -0.565 0
31.764 -18.363001 -0.56400001 0
31.787001 -18.243 -0.56300002 0
31.799999 -18.184 -0.56300002 0
31.885 -18.1 -0.56400001 0
31.940001 -17.997999 -0.56400001 0
31.962999 -17.879 -0.56300002 0
32.054001 -17.798 -0.56400001 0
32.161999 -17.726999 -0.565 0
32.27 -17.653999 -0.56599998 0
32.344002 -17.628 -0.56699997 0
32.462002 -17.561001 -0.56900001 0
32.571999 -17.488001 -0.56999999 0
32.687 -17.417999 -0.57200003 0
32.775002 -17.333 -0.57200003 0
32.879002 -17.256001 -0.57300001 0
32.936001 -17.219999 -0.574 0
33.011002 -17.128 -0.57499999 0
33.126999 -17.056 -0.57599998 0
33.248001 -16.986 -0.57800001 0
33.334999 -16.899 -0.579 0
33.445 -16.823 -0.57999998 0
33.556999 -16.747 -0.58099997 0
33.638 -16.722 -0.583 0
33.754002 -16.646999 -0.58399999 0
33.869999 -16.573 -0.58600003 0
33.962002 -16.486 -0.58600003 0
34.030998 -16.388 -0.58700001 0
34.081001 -16.280001 -0.58700001 0
34.173 -16.191999 -0.588 0
34.223999 -16.150999 -0.588 0.050000001
20.538 -9.5229998 -0.27000001 0
20.555 -9.4530001 -0.26899999 0
34.692001 -15.842 -0.59500003 0
34.793999 -15.757 -0.59600002 0
34.875999 -15.662 -0.597 0
21.155001 -9.3690004 -0.28 0.25
22.112 -9.7110004 -0.301 0.12
21.646 -9.4250002 -0.28999999 0.16
22.624001 -9.7679996 -0.31200001 0.090000004
20.885 -8.9370003 -0.271 0.16
22.639 -9.6059999 -0.31099999 0.22
20.92 -8.835 -0.271 0.23
22.413 -9.3850002 -0.30399999 0.16
21.992001 -9.1269999 -0.294 0.27000001
21.885 -9.0019999 -0.29100001 0.2
22.750999 -9.1929998 -0.30899999 0.19
22.576 -9.0389996 -0.30500001 0.16
22.499001 -8.9680004 -0.303 0.23999999
22.589001 -8.9209995 -0.30399999 0.27000001
22.160999 -8.6709995 -0.294 0.38
22.482 -8.7159996 -0.30000001 0.16
22.549999 -8.6610003 -0.301 0.36000001
22.763 -8.6610003 -0.30599999 0.2
22.200001 -8.3669996 -0.292 0.34
22.172001 -8.316 -0.29100001 0.27000001
22.849001 -8.4890003 -0.30599999 0.16
23.121 -8.5080004 -0.31099999 0.47999999
23.378 -8.5190001 -0.317 0.16
22.598 -8.0740004 -0.29800001 0.57999998
22.438999 -7.9770002 -0.294 0.17
22.271999 -7.8379998 -0.28999999 0.15000001
22.304001 -7.7709999 -0.28999999 0.19
22.628 -7.8049998 -0.29699999 0.15000001
23.252001 -7.9390001 -0.31 0.23
24.805 -8.3839998 -0.34400001 0.16
22.216 -7.428 -0.28600001 0.2
22.709 -7.5539999 -0.29699999 0.23
23.361 -7.691 -0.31099999 0.15000001
23.530001 -7.664 -0.31400001 0.27000001
23.333 -7.5190001 -0.30899999 0.2
22.749001 -7.2509999 -0.296 0.12
23.486 -7.4060001 -0.31099999 0.44
22.254 -6.9390001 -0.28400001 0.25999999
23.263 -7.2150002 -0.30599999 0.25999999
23.527 -7.2160001 -0.31099999 0.18000001
23.459 -7.1149998 -0.30899999 0.19
23.466 -7.0359998 -0.30899999 0.46000001
23.511 -6.9699998 -0.30899999 0.13
23.094 -6.7659998 -0.29899999 0.40000001
22.867001 -6.6220002 -0.294 0.12
23.688 -6.8200002 -0.31200001 0.38999999
25.393999 -7.2270002 -0.34900001 0.27000001
25.066 -7.0479999 -0.34099999 0.25
25.337999 -7.039 -0.34599999 0.25999999
25.916 -7.1129999 -0.35800001 0.11
26.891001 -7.29 -0.37900001 0.15000001
26.914 -7.2059999 -0.37900001 0.18000001
27.500999 -7.3169999 -0.39199999 0.13
27.611 -7.2540002 -0.39300001 0.14
26.969999 -6.9039998 -0.37900001 0
27.812 -7.027 -0.396 0
30.683001 -7.6529999 -0.458 0
28.038 -6.9439998 -0.40099999 0
28.245001 -6.902 -0.405 0.12
30.899 -7.4499998 -0.461 0.23
30.684 -7.296 -0.456 0.1
29.525 -6.921 -0.43099999 0.14
29.735001 -6.8720002 -0.435 0.090000004
30.944 -7.0500002 -0.46000001 0.15000001
31.059999 -7.026 -0.463 0.16
31.007999 -6.9120002 -0.461 0.25
31.122999 -6.835 -0.463 0.18000001
31.006001 -6.7069998 -0.46000001 0.33000001
31.197001 -6.6459999 -0.46399999 0.17
31.27 -6.559 -0.465 0.38
31.344 -6.4720001 -0.46599999 0.1
31.364 -6.4239998 -0.46599999 0.14
31.632999 -6.3759999 -0.472 0.13
31.879999 -6.322 -0.47600001 0.15000001
32.544998 -6.348 -0.49000001 0.1
32.608002 -6.1479998 -0.491 0.41
29.982 -5.5050001 -0.43399999 0.46000001
33.053001 -5.9640002 -0.49900001 0.16
33.299999 -5.901 -0.50400001 0.41
33.525002 -5.8319998 -0.50800002 0.22
33.765999 -5.7649999 -0.51300001 0.13
33.743999 -5.652 -0.51200002 0.14
35.303001 -5.8010001 -0.54500002 0.28
35.458 -5.7690001 -0.54799998 0.19
35.808998 -5.711 -0.55500001 0
35.911999 -5.612 -0.55699998 0
37.674999 -5.7670002 -0.59399998 0
38.875 -5.8270001 -0.61900002 0.1
39.073002 -5.7309999 -0.62300003 0.20999999
40.015999 -5.8060002 -0.64300001 0
40.502998 -5.7470002 -0.653 0
41.212002 -5.7160001 -0.667 0
41.880001 -5.6750002 -0.68099999 0.07
43.436001 -5.7480001 -0.71399999 0
27.862 -3.589 -0.384 0.039999999
25.080999 -3.108 -0.32499999 0.19
25.082001 -3.0280001 -0.32499999 0.51999998
24.951 -2.9319999 -0.322 0
28.066 -2.322 -0.38499999 0
28.083 -2.2349999 -0.38600001 0
29.311001 -2.148 -0.41100001 0
49.118 -3.3069999 -0.82700002 0
49.167999 -3.1559999 -0.82800001 0
49.366001 -3.0910001 -0.83200002 0
55.594002 -2.783 -0.96200001 0
71.580002 -2.352 -1.2970001 0
71.851997 -2.135 -1.302 0
72.879997 -1.936 -1.324 0
54.619999 5.473 -1.227 0
54.669998 5.652 -1.229 0
54.182999 5.7729998 -1.216 0.050000001
52.706001 5.783 -1.178 0.17
52.394001 5.915 -1.17 0.11
52.418999 6.085 -1.171 0
44.792999 5.6950002 -0.97299999 0.20999999
44.903 5.8530002 -0.97600001 0
32.443001 5.6820002 -0.65399998 0
31.806 5.6729999 -0.63800001 0
31.219999 5.7199998 -0.62300003 0
31.103001 6.256 -0.62300003 0
31.101 6.3569999 -0.62300003 0
26.806999 5.8280001 -0.51099998 0
26.573 5.8200002 -0.505 0
26.400999 5.869 -0.50099999 0
26.291 5.9320002 -0.498 0
26.226999 6.0040002 -0.49700001 0
26.163 6.0760002 -0.49599999 0
26.129999 6.1550002 -0.495 0
26.113001 6.237 -0.495 0
26.136 6.2859998 -0.49599999 0
26.132 6.3720002 -0.49700001 0
26.16 6.4660001 -0.498 0
57.754002 14.501 -1.348 0
56.421001 14.354 -1.314 0.050000001
55.797001 14.382 -1.298 0.18000001
55.228001 14.42 -1.284 0
54.550999 14.335 -1.266 0.11
53.900002 14.344 -1.25 0.15000001
53.235001 14.346 -1.233 0.13
52.686001 14.376 -1.219 0.090000004
51.937 14.347 -1.2 0.14
51.416 14.376 -1.188 0.31
37.554001 10.621 -0.81300002 0.16
37.299 10.612 -0.80699998 0.15000001
37.488998 10.793 -0.81300002 0.14
37.109001 10.81 -0.80299997 0.25
37.157001 10.951 -0.80500001 0.16
37.040001 11.043 -0.80299997 0.33000001
36.841 11.109 -0.79900002 0.11
36.897999 11.253 -0.801 0.16
36.949001 11.332 -0.80299997 0.22
37.723999 11.7 -0.82499999 0.20999999
20.344 6.3670001 -0.35100001 0.12
20.253 6.4089999 -0.34900001 0.25999999
20.224001 6.4689999 -0.34900001 0.38
20.219999 6.539 -0.34900001 0.38999999
20.209 6.605 -0.34999999 0.36000001
44.361 14.609 -1.013 0.14
44.356998 14.762 -1.0140001 0.30000001
44.341999 14.912 -1.015 0.31999999
44.341 15.067 -1.017 0.31999999
44.346001 15.224 -1.018 0.38999999
44.326 15.373 -1.0190001 0.25999999
32.396999 11.343 -0.69 0.30000001
44.341999 15.613 -1.021 0.28999999
44.341999 15.77 -1.023 0.30000001
44.337002 15.925 -1.024 0.28999999
44.330002 16.08 -1.025 0.28999999
44.306 16.229 -1.026 0.25
44.318001 16.392 -1.028 0.27000001
44.347 16.482 -1.029 0.40000001
44.217999 16.591999 -1.027 0.25
43.797001 16.591 -1.017 0.16
29.436001 11.248 -0.61699998 0.50999999
42.993 16.596001 -0.99699998 0.23
42.647999 16.617001 -0.98900002 0.27000001
42.283001 16.627001 -0.98000002 0.27000001
41.931999 16.565001 -0.97100002 0.27000001
41.560001 16.569 -0.96200001 0.30000001
41.206001 16.577999 -0.954 0.28999999
40.862999 16.589001 -0.94499999 0.28999999
40.512001 16.594999 -0.93699998 0.31
40.172001 16.603001 -0.92900002 0.28999999
39.830002 16.608 -0.921 0.30000001
39.514 16.549 -0.912 0.28999999
39.173 16.551001 -0.90399998 0.28999999
38.847 16.556999 -0.89700001 0.28999999
38.525002 16.563 -0.889 0.28999999
38.209 16.569 -0.88099998 0.22
37.912998 16.582001 -0.87400001 0.33000001
25.431999 11.209 -0.51999998 0.18000001
25.426001 11.254 -0.51999998 0.20999999
37.001999 16.531 -0.852 0.27000001
36.708 16.537001 -0.84500003 0.20999999
36.563 16.610001 -0.84299999 0.47999999
36.509998 16.725 -0.84299999 0.25
36.528 16.872999 -0.84500003 0.23
36.529999 17.013 -0.84600002 0.34999999
36.566002 17.1 -0.84799999 0.28999999
36.549999 17.232 -0.84899998 0.46000001
36.532001 17.364 -0.85000002 0.25
36.542 17.51 -0.852 0.34
36.529999 17.646 -0.85299999 0.34999999
