# .PCD v0.7 - Point Cloud Data file format
VERSION 0.7
FIELDS x y z intensity
SIZE 4 4 4 4
TYPE F F F F
COUNT 1 1 1 1
WIDTH 1386
HEIGHT 1
VIEWPOINT 0 0 0 1 0 0 0
POINTS 1386
DATA ascii
-12.649 8.573 0.183 0.56999999
-12.711 8.5860004 0.183 0.56
-12.792 8.5819998 0.183 0.56999999
-12.878 8.5810003 0.182 0.54000002
-12.956 8.5740004 0.182 0.52999997
-13.035 8.5679998 0.182 0.51999998
-13.122 8.566 0.182 0.54000002
-13.188 8.5790005 0.182 0.52999997
-13.273 8.5749998 0.182 0.5
-13.366 8.5760002 0.182 0.50999999
-13.447 8.5679998 0.182 0.49000001
-13.543 8.5690002 0.182 0.49000001
-13.641 8.5710001 0.182 0.49000001
-13.714 8.5570002 0.18099999 0.50999999
-13.794 8.5769997 0.18099999 0.46000001
-13.895 8.5790005 0.18099999 0.47999999
-13.979 8.5699997 0.18099999 0.47999999
-14.081 8.5719995 0.18099999 0.5
-14.174 8.5679998 0.18099999 0.46000001
-14.263 8.5600004 0.18099999 0.47999999
-14.355 8.5539999 0.18099999 0.47
-14.444 8.5760002 0.18000001 0.46000001
-14.53 8.5649996 0.18000001 0.46000001
-14.633 8.5640001 0.18000001 0.46000001
-14.725 8.5559998 0.18000001 0.46000001
-14.825 8.552 0.18000001 0.44999999
-14.933 8.552 0.18000001 0.44999999
-15.031 8.5450001 0.18000001 0.41999999
-15.122 8.5649996 0.18000001 0.41999999
-15.223 8.559 0.17900001 0.44999999
-15.327 8.5539999 0.17900001 0.41999999
-15.42 8.5430002 0.17900001 0.55000001
-15.535 8.5419998 0.17900001 0.40000001
-15.628 8.5299997 0.17900001 0.56999999
-15.748 8.5310001 0.17900001 0.40000001
-15.843 8.5500002 0.17900001 0.41
-15.956 8.5459995 0.178 0.44999999
-16.062 8.5380001 0.178 0.41
-16.190001 8.54 0.178 0.41
-16.299999 8.533 0.178 0.54000002
-16.427999 8.5340004 0.178 0.38999999
-16.545 8.5290003 0.178 0.5
-16.659 8.5539999 0.177 0.38999999
-16.767 8.5430002 0.177 0.51999998
-16.9 8.5439997 0.177 0.38
-17.018999 8.5369997 0.177 0.47999999
-17.143 8.5319996 0.177 0.37
-17.254 8.5190001 0.177 0.47
-17.389 8.552 0.176 0.34999999
-17.504 8.54 0.176 0.57999998
-17.65 8.5430002 0.176 0.34
-17.76 8.5270004 0.176 0.55000001
-17.907 8.5279999 0.176 0.34
-18.025999 8.5159998 0.176 0.55000001
-18.177999 8.5170002 0.175 0.31999999
-18.282 8.5310001 0.175 0.52999997
-18.436001 8.5319996 0.175 0.31999999
-18.559 8.5179996 0.175 0.51999998
-18.724001 8.5229998 0.175 0.31999999
-18.860001 8.5129995 0.17399999 0.51999998
-19.017 8.5120001 0.17399999 0.31999999
-19.155001 8.5010004 0.17399999 0.47999999
-19.299999 8.5290003 0.17399999 0.37
-19.444 8.5200005 0.17399999 0.38
-19.59 8.5100002 0.17299999 0.44
-19.767 8.5129995 0.17299999 0.36000001
-19.906 8.4989996 0.17299999 0.43000001
-20.070999 8.4949999 0.17299999 0.41
-20.232 8.4879999 0.17200001 0.41
-20.396 8.4809999 0.17200001 0.41
-20.542 8.5039997 0.17200001 0.40000001
-20.712999 8.4980001 0.17200001 0.38
-20.886 8.4919996 0.17200001 0.38
-21.066999 8.4890003 0.171 0.38999999
-21.226999 8.4759998 0.171 0.38
-21.423 8.4759998 0.171 0.38
-21.594 8.5039997 0.171 0.37
-21.774 8.4960003 0.17 0.43000001
-21.952 8.4849997 0.17 0.38999999
-22.143 8.4790001 0.17 0.38
-22.336 8.4729996 0.169 0.36000001
-22.523001 8.4630003 0.169 0.37
-22.719999 8.4549999 0.169 0.41
-22.921 8.4890003 0.169 0.37
-23.120001 8.4799995 0.168 0.34999999
-23.32 8.4700003 0.168 0.37
-23.528999 8.4619999 0.168 0.37
-23.754 8.4580002 0.167 0.34999999
-23.962999 8.448 0.167 0.36000001
-24.167 8.4770002 0.167 0.34
-24.400999 8.4729996 0.16599999 0.37
-24.6 8.4549999 0.16599999 0.31999999
-24.848 8.4530001 0.16599999 0.47
-26.554001 8.9390001 0.163 0.18000001
-26.542 8.842 0.163 0.38999999
-26.49 8.7320004 0.163 0.25
-25.688 8.4239998 0.16500001 0.31
-25.622 8.3129997 0.16500001 0.37
-25.591999 8.2150002 0.16500001 0.36000001
-25.589001 8.1260004 0.16500001 0.31999999
-25.598 8.04 0.16500001 0.37
-25.636 7.9629998 0.16500001 0.34999999
-25.716 7.9000001 0.16500001 0.33000001
-25.811001 7.8839998 0.16500001 0.36000001
-25.964001 7.842 0.164 0.40000001
-36.583 10.913 0.147 0.12
-36.685001 10.818 0.147 0.38999999
-36.787998 10.723 0.147 0.20999999
-36.962002 10.647 0.147 0.31
-36.893002 10.502 0.147 0.19
-37.007 10.472 0.147 0
-37.709 10.542 0.146 0.16
-38.006001 10.496 0.145 0.25999999
-37.931999 10.348 0.146 0.19
-38.035999 10.248 0.145 0.17
-38.275002 10.183 0.145 0.23
-38.377998 10.082 0.145 0.11
-39.054001 10.193 0.14399999 0.079999998
-39.487 10.173 0.14300001 0.090000004
-39.537998 10.054 0.14300001 0.14
-39.630001 9.9449997 0.14300001 0.17
-39.721001 9.835 0.14300001 0.12
-41.007 10.016 0.141 0.25999999
-41.019001 9.8830004 0.141 0.31999999
-40.999001 9.8100004 0.141 0.33000001
-40.994999 9.6730003 0.141 0.33000001
-41.001999 9.5389996 0.141 0.33000001
-41 9.4029999 0.141 0.34
-40.998001 9.2670002 0.141 0.31999999
-40.998001 9.1309996 0.141 0.33000001
-40.988998 8.9940004 0.141 0.34
-40.984001 8.9259996 0.141 0.34
-40.98 8.79 0.142 0.28
-40.91 8.6409998 0.142 0.18000001
-41.491001 8.6269999 0.141 0.16
-42.102001 8.6160002 0.14 0.090000004
-42.721001 8.6029997 0.139 0.090000004
-43.360001 8.5889997 0.138 0.14
-44.022999 8.6479998 0.13699999 0
-44.618 8.6190004 0.13600001 0
-31.261999 5.9450002 0.15700001 0
-46.108002 8.6059999 0.134 0
-46.798 8.5830002 0.133 0
-47.553001 8.566 0.132 0
-48.303001 8.5439997 0.13 0
-49.099998 8.6049995 0.12899999 0
-49.946999 8.592 0.12800001 0
-50.818001 8.5769997 0.127 0
-51.655998 8.5509996 0.125 0.090000004
-25.740999 4.1079998 0.16599999 0.18000001
-25.716 4.0219998 0.16599999 0.52999997
-25.722 3.9809999 0.16599999 0.30000001
-25.729 3.8989999 0.16599999 0.41
-25.731001 3.8169999 0.16599999 0.34999999
-25.723 3.733 0.16599999 0.46000001
-25.731001 3.652 0.16599999 0.36000001
-25.712 3.5669999 0.16599999 0.40000001
-25.712 3.526 0.16599999 0.38
-25.729 3.4460001 0.16599999 0.38999999
-25.708 3.3610001 0.16599999 0.40000001
-25.716 3.28 0.16599999 0.34
-25.719999 3.198 0.16599999 0.52999997
-25.724001 3.1170001 0.16599999 0.25
-25.722 3.0350001 0.16599999 0.43000001
-25.715 2.993 0.16599999 0.44999999
-25.716 2.911 0.16599999 0.34
-25.723 2.8299999 0.16599999 0.41
-25.726 2.7490001 0.16599999 0.38
-25.719 2.6659999 0.16599999 0.41
-25.715 2.5840001 0.16599999 0.41
-25.729 2.5039999 0.16599999 0.37
-25.716999 2.4619999 0.16599999 0.43000001
-25.721001 2.381 0.16599999 0.28999999
-25.714001 2.299 0.16599999 0.44
-25.725 2.2179999 0.16599999 0.28
-25.705999 2.135 0.167 0.51999998
-25.733999 2.056 0.16599999 0.23
-25.702999 1.973 0.167 0.60000002
-25.874001 1.9450001 0.16599999 0
-25.809999 1.858 0.16599999 0
-27.118 1.8660001 0.164 0
-28.208 1.851 0.163 0
-30.124001 1.785 0.16 0
-79.295998 2.658 0.083999999 0
-79.890999 2.175 0.082999997 0
-79.82 1.295 0.082999997 0
-76.793999 1.006 0.086999997 0
-79.870003 0.79400003 0.082999997 0
-79.518997 0.54100001 0.082999997 0
-79.617996 0.29100001 0.082999997 0
-79.302002 0.041000001 0.083999999 0
-79.164001 -0.208 0.083999999 0
-79 -0.331 0.083999999 0
-64.300003 -6.8559999 0.106 0
-63.817001 -7.007 0.107 0
-62.687 -6.9819999 0.109 0
-62.448002 -7.1539998 0.109 0
-61.424 -7.2319999 0.111 0
-61.185001 -7.3990002 0.111 0
-61.196999 -7.5949998 0.111 0
-61.481998 -7.8270001 0.11 0
-59.265999 -7.7329998 0.114 0
-58.722 -7.756 0.115 0
-58.737 -7.9460001 0.115 0
-59.133999 -8.1890001 0.114 0
-59.091999 -8.3719997 0.114 0
-59.522999 -8.6239996 0.113 0
-44.728001 -6.618 0.13600001 0
-58.778999 -8.8940001 0.114 0
-58.661999 -9.0649996 0.115 0
-58.589001 -9.1470003 0.115 0
-58.889 -9.3839998 0.114 0
-60.801998 -9.8859997 0.111 0
-61.168999 -10.143 0.11 0
-42.462002 -7.3070002 0.14 0
-42.564999 -7.3940001 0.14 0.1
-42.715 -7.5580001 0.139 0.14
-42.668999 -7.6890001 0.139 0.36000001
-42.604 -7.8150001 0.139 0.20999999
-42.616001 -7.9559999 0.139 0.34
-42.258999 -8.026 0.14 0.2
-42.124001 -8.1379995 0.14 0.2
-42.040001 -8.1899996 0.14 0.2
-42.176998 -8.3549995 0.14 0.25999999
-42.292 -8.5159998 0.14 0.17
-42.421001 -8.6809998 0.139 0.33000001
-31.764999 -6.5970001 0.156 0.18000001
-29.030001 -6.1220002 0.16 0.28999999
-28.851999 -6.1789999 0.161 0.31
-28.934 -6.2449999 0.161 0.33000001
-28.782 -6.3060002 0.161 0.36000001
-28.701 -6.3829999 0.161 0.27000001
-28.16 -6.355 0.162 0.23
-27.98 -6.4070001 0.162 0.34999999
-28.000999 -6.5040002 0.162 0.31999999
-27.879 -6.5679998 0.162 0.23
-27.632 -6.5560002 0.162 0.28
-27.407 -6.5929999 0.163 0.25
-26.202999 -6.3889999 0.16500001 0.30000001
-25.962999 -6.4169998 0.16500001 0.37
-25.313 -6.3400002 0.16599999 0.36000001
-24.572001 -6.2360001 0.167 0.2
-24.395 -6.2729998 0.167 0.38
-24.048 -6.223 0.168 0.28999999
-23.611 -6.1890001 0.169 0.31999999
-23.261 -6.1750002 0.169 0.40000001
-22.954 -6.1700001 0.17 0.31999999
-22.743 -6.1900001 0.17 0.38999999
-22.242001 -6.1279998 0.171 0.37
-22.211 -6.1950002 0.171 0.34
-22.306999 -6.2600002 0.171 0.40000001
-22.330999 -6.342 0.17 0.43000001
-22.098 -6.3509998 0.171 0.31
-21.764999 -6.329 0.171 0.28999999
-21.653 -6.3699999 0.171 0.47999999
-21.410999 -6.3720002 0.17200001 0.36000001
-21.059999 -6.303 0.17200001 0.43000001
-20.712 -6.2690001 0.17299999 0.28999999
-20.695 -6.335 0.17299999 0.38999999
-20.358999 -6.302 0.17299999 0.38999999
-20.231001 -6.3319998 0.17399999 0.36000001
-19.978001 -6.3210001 0.17399999 0.41
-19.778999 -6.3270001 0.17399999 0.34
-19.214001 -6.178 0.175 0.31
-19.132999 -6.2189999 0.175 0.50999999
-19.112 -6.2779999 0.175 0.34999999
-18.903999 -6.2750001 0.176 0.28999999
-18.854 -6.3249998 0.176 0.57999998
-18.790001 -6.369 0.176 0.2
-18.497999 -6.3340001 0.176 0.51999998
-18.499001 -6.3670001 0.176 0.25
-18.443001 -6.4130001 0.176 0.55000001
-18.957001 -6.6589999 0.175 0.18000001
-17.975 -6.3759999 0.177 0.5
-17.768999 -6.3660002 0.177 0.38
-17.691999 -6.401 0.177 0.41999999
-17.455999 -6.3769999 0.178 0.44999999
-17.634001 -6.474 0.177 0.22
-17.48 -6.48 0.178 0.47999999
-17.031 -6.3730001 0.178 0.38
-16.848 -6.3649998 0.17900001 0.44999999
-16.854 -6.428 0.17900001 0.22
-16.506001 -6.3540001 0.17900001 0.56
-16.379 -6.3639998 0.17900001 0.23999999
-16.209 -6.3270001 0.18000001 0.57999998
-16.273001 -6.4109998 0.17900001 0.34
-16.186001 -6.4359999 0.17900001 0.58999997
-15.776 -6.3299999 0.18000001 0.25999999
-15.393 -6.2309999 0.18099999 0.58999997
-15.299 -6.2490001 0.18099999 0.34
-15.065 -6.2090001 0.18099999 0.61000001
-14.9 -6.1680002 0.18099999 0.30000001
-14.73 -6.151 0.182 0.56999999
-14.685 -6.1869998 0.182 0.36000001
-14.566 -6.1900001 0.182 0.34999999
-14.381 -6.165 0.182 0.52999997
-14.305 -6.1849999 0.182 0.34
-14.176 -6.1560001 0.183 0.41999999
-14.068 -6.1620002 0.183 0.47999999
-14.011 -6.1890001 0.183 0.38
-13.9 -6.1919999 0.183 0.54000002
-13.888 -6.2389998 0.183 0.43000001
-13.733 -6.2210002 0.183 0.34
-13.704 -6.2600002 0.183 0.41999999
-13.478 -6.1820002 0.183 0.43000001
-13.417 -6.2049999 0.184 0.60000002
-13.314 -6.2080002 0.184 0.36000001
-13.313 -6.2579999 0.184 0.47999999
-13.293 -6.3000002 0.184 0.38999999
-12.952 -6.1880002 0.184 0.52999997
-12.926 -6.2249999 0.184 0.38
-12.857 -6.2160001 0.184 0.41999999
-12.744 -6.211 0.184 0.46000001
-12.62 -6.1999998 0.185 0.62
-12.502 -6.1900001 0.185 0.34
-12.413 -6.1950002 0.185 0.50999999
-12.479 -6.277 0.185 0.43000001
-12.325 -6.2480001 0.185 0.36000001
-12.168 -6.1919999 0.185 0.43000001
-12.09 -6.1999998 0.185 0.5
-11.999 -6.2010002 0.186 0.47999999
-12.017 -6.2579999 0.185 0.56
-11.912 -6.2509999 0.186 0.36000001
-11.793 -6.2360001 0.186 0.41
-11.742 -6.256 0.186 0.55000001
-11.792 -6.3060002 0.186 0.40000001
-11.668 -6.2870002 0.186 0.44999999
-11.473 -6.2280002 0.186 0.47
-11.383 -6.2259998 0.186 0.55000001
-11.353 -6.2550001 0.186 0.34
-11.286 -6.2649999 0.186 0.43000001
-11.235 -6.283 0.18700001 0.70999998
-11.326 -6.3569999 0.186 0.25
-11.225 -6.3460002 0.186 0.66000003
-10.844 -6.1750002 0.18700001 0.19
-10.779 -6.1830001 0.18700001 0.69
-10.792 -6.2360001 0.18700001 0.22
-10.811 -6.2919998 0.18700001 0.43000001
-10.711 -6.256 0.18700001 0.44
-10.595 -6.2329998 0.18700001 0.56999999
-10.493 -6.217 0.18799999 0.34
-10.552 -6.2969999 0.18700001 0.47999999
-10.603 -6.3730001 0.18700001 0.33000001
-10.677 -6.4629998 0.18700001 0.44999999
-10.216 -6.2270002 0.18799999 0.31
-10.147 -6.2069998 0.18799999 0.41999999
-10.092 -6.2160001 0.18799999 0.47999999
-10.028 -6.2210002 0.18799999 0.40000001
-9.9239998 -6.1989999 0.18799999 0.41
-9.8629999 -6.204 0.18799999 0.5
-9.8690004 -6.2509999 0.18799999 0.38
-9.8059998 -6.2540002 0.18799999 0.43000001
-9.7559996 -6.244 0.189 0.55000001
-9.7810001 -6.3039999 0.18799999 0.36000001
-9.6020002 -6.2309999 0.189 0.50999999
-9.4969997 -6.2049999 0.189 0.37
-9.4639997 -6.2259998 0.189 0.51999998
-9.566 -6.336 0.189 0.40000001
-9.3940001 -6.2639999 0.189 0.30000001
-9.3640003 -6.2649999 0.189 0.41999999
-9.3219995 -6.2800002 0.189 0.67000002
-9.3459997 -6.3390002 0.189 0.25999999
-9.0819998 -6.2010002 0.189 0.52999997
-9.0819998 -6.243 0.189 0.44999999
-9.0559998 -6.2670002 0.189 0.54000002
-9.0059996 -6.2740002 0.189 0.37
-8.9490004 -6.2550001 0.19 0.52999997
-8.8170004 -6.204 0.19 0.38999999
-8.7860003 -6.223 0.19 0.49000001
-8.7939997 -6.2709999 0.19 0.38999999
-8.6490002 -6.2080002 0.19 0.43000001
-8.6129999 -6.223 0.19 0.46000001
-8.5629997 -6.2280002 0.19 0.44999999
-8.552 -6.2399998 0.19 0.44999999
-8.5059996 -6.2480001 0.19 0.63999999
-8.5010004 -6.2859998 0.19 0.38999999
-8.4720001 -6.3049998 0.19 0.41
-8.4659996 -6.342 0.19 0.60000002
-8.4460001 -6.369 0.19 0.40000001
-8.4350004 -6.381 0.19 0.67000002
-8.3879995 -6.3870001 0.19 0.33000001
-8.3640003 -6.4109998 0.19 0.52999997
-8.3730001 -6.4590001 0.19 0.36000001
-8.3000002 -6.4450002 0.19 0.50999999
-8.3290005 -6.5089998 0.19 0.34999999
-8.3079996 -6.5349998 0.19 0.68000001
-8.3260002 -6.5710001 0.19 0.25999999
-8.2559996 -6.5570002 0.19 0.51999998
-8.2440004 -6.5900002 0.19 0.38
-8.1990004 -6.5960002 0.19 0.56
-8.1590004 -6.6069999 0.19 0.27000001
-8.1879997 -6.6729999 0.19 0.57999998
-8.0679998 -6.6170001 0.19 0.34999999
-8.0959997 -6.6609998 0.19 0.40000001
-8.1429996 -6.743 0.19 0.38
-8.1110001 -6.7600002 0.19 0.62
-7.8559999 -6.5879998 0.191 0.28999999
-7.8010001 -6.5840001 0.191 0.5
-7.796 -6.6220002 0.191 0.30000001
-7.6630001 -6.5279999 0.191 0.63
-7.7449999 -6.6409998 0.191 0.28999999
-7.5430002 -6.5079999 0.191 0.47
-7.5100002 -6.5209999 0.191 0.27000001
-7.5209999 -6.573 0.191 0.63
-7.552 -6.6409998 0.191 0.27000001
-7.526 -6.6609998 0.191 0.58999997
-7.5960002 -6.7449999 0.191 0.22
-7.4959998 -6.698 0.191 0.56999999
-7.4510002 -6.6999998 0.191 0.28999999
-7.2649999 -6.573 0.191 0.51999998
-7.506 -6.836 0.191 0.28999999
-7.4419999 -6.8200002 0.191 0.44999999
-7.4720001 -6.8909998 0.191 0.36000001
-7.3600001 -6.809 0.191 0.5
-7.2919998 -6.7880001 0.191 0.41
-7.2779999 -6.8179998 0.191 0.38
-7.2459998 -6.8309999 0.191 0.43000001
-7.2579999 -6.8850002 0.191 0.64999998
-7.085 -6.763 0.191 0.18000001
-7.2690001 -6.9840002 0.191 0.58999997
-7.2800002 -7.0159998 0.191 0.28
-7.3340001 -7.1129999 0.191 0.47999999
-7.3039999 -7.1290002 0.191 0.46000001
-7.4260001 -7.2940001 0.19 0
-14.792 -14.658 0.17399999 0.050000001
-6.4920001 -6.5139999 0.192 0.57999998
-6.6160002 -6.6810002 0.192 0
-6.5180001 -6.7069998 0.192 0.38
-6.737 -6.9770002 0.191 0
-13.276 -13.874 0.177 0
-13.25 -13.89 0.177 0
-13.238 -13.965 0.177 0
-13.391 -14.217 0.176 0
-12.8 -13.76 0.177 0.18000001
-12.781 -13.826 0.177 0.30000001
-12.783 -13.873 0.177 0.37
-12.745 -13.919 0.177 0.36000001
-12.761 -14.024 0.177 0.15000001
-12.572 -13.903 0.177 0.25
-13.364 -14.875 0.175 0.36000001
-13.286 -14.883 0.176 0.38
-13.143 -14.815 0.176 0.38999999
-13.062 -14.771 0.176 0.52999997
-11.533 -13.12 0.17900001 0.23999999
-5.5359998 -6.3179998 0.193 0.33000001
-11.377 -13.108 0.18000001 0.34999999
-11.59 -13.439 0.17900001 0.27000001
-11.368 -13.266 0.17900001 0.31
-11.227 -13.184 0.18000001 0.46000001
-11.962 -14.095 0.178 0.31999999
-5.3860002 -6.4050002 0.193 0.46000001
-5.3720002 -6.4299998 0.193 0.25
-5.323 -6.4109998 0.19400001 0.72000003
-5.309 -6.4349999 0.19400001 0.41999999
-5.3179998 -6.4879999 0.193 0.31999999
-5.3049998 -6.493 0.193 0.44999999
-5.2880001 -6.5139999 0.193 0.30000001
-5.244 -6.5009999 0.19400001 0.55000001
-5.211 -6.5019999 0.19400001 0.41999999
-5.1820002 -6.507 0.19400001 0.34
-5.151 -6.5110002 0.19400001 0.31999999
-5.1209998 -6.5149999 0.19400001 0.34
-5.1079998 -6.52 0.19400001 0.31999999
-5.0770001 -6.5209999 0.19400001 0.34999999
-5.0500002 -6.5289998 0.19400001 0.36000001
-5.0159998 -6.5279999 0.19400001 0.37
-4.993 -6.54 0.19400001 0.34
-4.9640002 -6.5450001 0.19400001 0.37
-4.934 -6.5469999 0.19400001 0.38
-4.914 -6.5419998 0.19400001 0.38999999
-4.8860002 -6.546 0.19400001 0.38999999
-4.8639998 -6.5599999 0.19400001 0.34999999
-4.8280001 -6.5539999 0.19400001 0.44999999
-4.8130002 -6.5780001 0.19400001 0.31999999
-4.7740002 -6.5669999 0.19400001 0.43000001
-4.7620001 -6.573 0.19400001 0.36000001
-4.7329998 -6.5760002 0.19400001 0.46000001
-4.711 -6.5890002 0.19400001 0.30000001
-4.6729999 -6.5799999 0.19400001 0.49000001
-4.6599998 -6.6040001 0.19400001 0.30000001
-4.6209998 -6.5929999 0.19400001 0.50999999
-4.6030002 -6.612 0.19400001 0.31999999
-4.5780001 -6.598 0.19400001 0.51999998
-4.5679998 -6.6269999 0.19400001 0.31999999
-4.5219998 -6.605 0.19400001 0.58999997
-4.3829999 -6.4429998 0.19400001 0.34
-4.3210001 -6.3959999 0.19499999 0.44999999
-4.3000002 -6.408 0.19499999 0.30000001
-4.2680001 -6.4029999 0.19499999 0.51999998
-4.2810001 -6.4439998 0.19400001 0.37
-4.3740001 -6.632 0.19400001 0.18000001
-4.362 -6.6589999 0.19400001 0.60000002
-8.9239998 -13.767 0.18099999 0.31
-8.5369997 -13.26 0.182 0.47
-8.7969999 -13.759 0.18099999 0.41
-8.9759998 -14.138 0.18099999 0.31999999
-8.7629995 -13.849 0.18099999 0.20999999
-8.5959997 -13.68 0.18099999 0.49000001
-8.6059999 -13.792 0.18099999 0.28
-8.5 -13.718 0.18099999 0.5
-8.441 -13.72 0.182 0.20999999
-8.3260002 -13.626 0.182 0.61000001
-8.3549995 -13.723 0.182 0.34
-8.243 -13.635 0.182 0.25999999
-8.1230001 -13.532 0.182 0.38
-8.1680002 -13.705 0.182 0
-8.2200003 -13.893 0.18099999 0
-0.66100001 -2.233 0.20299999 0
-0.15700001 -2.2490001 0.20299999 0
0.027000001 -2.27 0.20299999 0
1.265 -2.05 0.20299999 0
1.281 -2.0610001 0.20299999 0
5.723 -6.4520001 0.193 0.13
5.8959999 -6.6030002 0.193 0.25999999
6.1420002 -6.8340001 0.192 0.17
5.9429998 -6.572 0.193 0.58999997
5.8400002 -6.4190001 0.193 0.28999999
5.9180002 -6.4629998 0.193 0.38999999
5.9439998 -6.4710002 0.193 0.23
5.9889998 -6.4790001 0.193 0.40000001
6.0279999 -6.48 0.193 0.41
6.0900002 -6.5050001 0.193 0.47999999
6.1279998 -6.5050001 0.193 0.38999999
6.2379999 -6.579 0.192 0.34
6.1290002 -6.4239998 0.193 0.27000001
6.1139998 -6.3889999 0.193 0.58999997
6.2389998 -6.4780002 0.193 0.19
6.2719998 -6.4720001 0.192 0.61000001
6.4660001 -6.6290002 0.192 0.28999999
6.244 -6.362 0.193 0.28999999
6.263 -6.3410001 0.193 0.51999998
6.2729998 -6.3319998 0.193 0.23
6.322 -6.3410001 0.193 0.52999997
6.4569998 -6.4359999 0.192 0.44999999
6.533 -6.4699998 0.192 0.27000001
6.4759998 -6.3740001 0.192 0.41999999
6.5760002 -6.4320002 0.192 0.47999999
6.5489998 -6.3649998 0.192 0.25999999
6.5229998 -6.3200002 0.192 0.55000001
6.5630002 -6.3189998 0.192 0.25999999
6.638 -6.3509998 0.192 0.54000002
6.901 -6.559 0.192 0.27000001
6.7069998 -6.336 0.192 0.58999997
6.6989999 -6.289 0.192 0.28
6.7420001 -6.29 0.192 0.56
6.941 -6.454 0.192 0.31999999
6.823 -6.3049998 0.192 0.30000001
6.868 -6.3070002 0.192 0.54000002
6.9460001 -6.3379998 0.192 0.31
6.961 -6.3119998 0.192 0.5
7.0970001 -6.3940001 0.192 0.38999999
7.0560002 -6.3169999 0.192 0.34
7.0599999 -6.3010001 0.192 0.43000001
6.948 -6.1620002 0.192 0.36000001
7.0749998 -6.2350001 0.192 0.5
7.3720002 -6.4549999 0.191 0.28
7.2930002 -6.3449998 0.191 0.47
7.4169998 -6.4120002 0.191 0.38
7.1799998 -6.1880002 0.192 0.20999999
7.2270002 -6.1890001 0.192 0.62
7.4489999 -6.3379998 0.191 0.25999999
7.559 -6.3909998 0.191 0.44999999
7.6729999 -6.4450002 0.191 0.41999999
7.6900001 -6.4180002 0.191 0.44
7.618 -6.3179998 0.191 0.25
7.7659998 -6.4200001 0.191 0.62
7.9910002 -6.5630002 0.19 0.25999999
7.9629998 -6.4990001 0.191 0.63999999
8.0539999 -6.5300002 0.19 0.28
7.848 -6.323 0.191 0.63
8.0319996 -6.4289999 0.191 0.25
8.0480003 -6.4000001 0.191 0.55000001
8.0469999 -6.3790002 0.191 0.31999999
8.0900002 -6.3720002 0.191 0.49000001
8.0419998 -6.2940001 0.191 0.37
8.0380001 -6.25 0.191 0.41
8.1610003 -6.3039999 0.19 0.41
8.1540003 -6.2579999 0.191 0.34999999
8.2939997 -6.3449998 0.19 0.51999998
8.3249998 -6.3270001 0.19 0.38999999
8.4519997 -6.381 0.19 0.25999999
8.6099997 -6.4569998 0.19 0.61000001
8.592 -6.402 0.19 0.56
12.63 -9.3339996 0.182 0.20999999
8.724 -6.415 0.19 0.31999999
12.772 -9.3459997 0.182 0.38
12.868 -9.3540001 0.182 0.28999999
8.7889996 -6.3569999 0.19 0.62
8.7939997 -6.3189998 0.19 0.31999999
10.571 -7.539 0.186 0.36000001
13.212 -9.3520002 0.18099999 0.19
13.287 -9.342 0.18099999 0.47999999
13.347 -9.3540001 0.18099999 0.49000001
13.441 -9.3559999 0.18099999 0.47
13.516 -9.3459997 0.18099999 0.47999999
13.608 -9.3459997 0.18099999 0.47999999
13.699 -9.3450003 0.18099999 0.46000001
13.784 -9.3400002 0.18099999 0.44999999
13.852 -9.3540001 0.18099999 0.46000001
13.955 -9.3590002 0.18000001 0.46000001
14.036 -9.3500004 0.18000001 0.44999999
14.122 -9.3430004 0.18000001 0.44999999
14.211 -9.3380003 0.18000001 0.44
14.294 -9.3280001 0.18000001 0.44
14.395 -9.3299999 0.18000001 0.41
14.469 -9.3450003 0.18000001 0.55000001
12.089 -7.7589998 0.184 0.36000001
12.091 -7.7069998 0.184 0.60000002
12.293 -7.7810001 0.184 0.30000001
12.414 -7.803 0.184 0.47
12.287 -7.6700001 0.184 0.37
12.233 -7.5830002 0.184 0.38
12.51 -7.7270002 0.184 0.46000001
12.46 -7.6420002 0.184 0.38999999
12.454 -7.585 0.184 0.62
12.571 -7.6020002 0.184 0.23999999
12.371 -7.4289999 0.184 0.43000001
12.391 -7.388 0.184 0.43000001
12.502 -7.401 0.184 0.58999997
12.535 -7.3930001 0.184 0.38999999
12.561 -7.3559999 0.184 0.56
12.538 -7.289 0.184 0.28
12.701 -7.3309999 0.184 0.41
12.56 -7.197 0.184 0.38999999
12.419 -7.0650001 0.184 0.40000001
12.431 -7.02 0.184 0.58999997
12.235 -6.8850002 0.185 0.44999999
11.814 -6.5999999 0.185 0.28
12.824 -7.1090002 0.184 0.34999999
12.848 -7.0700002 0.184 0.54000002
12.589 -6.8759999 0.184 0.38999999
12.561 -6.8099999 0.184 0.63999999
12.612 -6.8119998 0.184 0.22
12.501 -6.7020001 0.184 0.66000003
12.579 -6.6929998 0.184 0.30000001
17.665001 -9.316 0.176 0.28
17.756001 -9.2930002 0.175 0.54000002
17.922001 -9.3070002 0.175 0.16
12.797 -6.6040001 0.184 0.63
18.129 -9.3070002 0.175 0.25
14.811 -7.5500002 0.18099999 0.36000001
14.583 -7.3769999 0.18099999 0.44999999
14.66 -7.3579998 0.18099999 0.30000001
14.787 -7.3629999 0.18099999 0.41
14.869 -7.3460002 0.18099999 0.38
14.687 -7.2270002 0.18099999 0.31999999
14.851 -7.25 0.18099999 0.54000002
14.91 -7.2210002 0.18099999 0.27000001
15.084 -7.2470002 0.18099999 0.31999999
14.977 -7.1370001 0.18099999 0.56999999
19.591999 -9.2519999 0.17299999 0.19
14.962 -7.0149999 0.18099999 0.34999999
19.9 -9.283 0.17200001 0.22
20.089001 -9.2939997 0.17200001 0.34999999
20.25 -9.2919998 0.17200001 0.28999999
20.423 -9.2930002 0.17200001 0.41
20.586 -9.2889996 0.171 0.38999999
20.752001 -9.2860003 0.171 0.38
20.924 -9.283 0.171 0.38
21.073999 -9.3100004 0.171 0.38999999
21.233 -9.3009996 0.171 0.36000001
21.409 -9.2980003 0.17 0.36000001
21.580999 -9.2919998 0.17 0.43000001
21.756001 -9.2860003 0.17 0.41
18.475 -7.8210001 0.175 0.23999999
18.219999 -7.6799998 0.176 0.18000001
17.950001 -7.5009999 0.176 0.58999997
18.615 -7.7090001 0.175 0.34
18.212 -7.4749999 0.176 0.18000001
17.330999 -7.052 0.177 0.25999999
17.396999 -7.0149999 0.177 0.27000001
17.372999 -6.9419999 0.177 0.61000001
17.691999 -7.0370002 0.177 0.23999999
17.27 -6.8070002 0.178 0.31
17.337 -6.77 0.178 0.41999999
18.042 -6.9790001 0.176 0.37
17.862 -6.8449998 0.177 0.52999997
20.018 -7.5960002 0.17299999 0.18000001
18.091999 -6.803 0.177 0.44999999
18.164 -6.7979999 0.176 0.25
17.666 -6.5489998 0.177 0.50999999
17.636 -6.4749999 0.177 0.38
17.559999 -6.3850002 0.178 0.31999999
17.747 -6.3889999 0.177 0.51999998
17.732 -6.3210001 0.177 0.25999999
18.215 -6.46 0.177 0.27000001
19.087999 -6.7010002 0.175 0.56999999
39.494999 -13.697 0.142 0.16
26.327 -9.0469999 0.163 0.25
18.455999 -6.2849998 0.176 0.49000001
18.999001 -6.4029999 0.175 0.31
18.825001 -6.2789998 0.176 0.38999999
19.583 -6.4970002 0.17399999 0.20999999
18.847 -6.1880002 0.176 0.37
19.134001 -6.2150002 0.175 0.38
19.222 -6.177 0.175 0.25999999
19.861 -6.3130002 0.17399999 0.5
19.860001 -6.244 0.17399999 0.17
19.694 -6.1240001 0.175 0.52999997
20.023001 -6.191 0.17399999 0.2
20.035 -6.1259999 0.17399999 0.15000001
19.914 -6.0209999 0.17399999 0.5
20.322001 -6.0739999 0.17399999 0.27000001
20.378 -6.0209999 0.17399999 0.44999999
26.677999 -7.783 0.163 0.28
26.693001 -7.697 0.163 0.28
27.228001 -7.8039999 0.163 0.31999999
27.43 -7.7690001 0.162 0.34
39.485001 -11.037 0.14300001 0.30000001
39.5 -10.908 0.14300001 0.30000001
39.507 -10.776 0.14300001 0.30000001
39.504002 -10.642 0.14300001 0.31
39.499001 -10.508 0.14300001 0.31999999
39.513 -10.445 0.14300001 0.38
22.672001 -5.9289999 0.17 0.14
22.709999 -5.862 0.17 0.43000001
39.499001 -10.044 0.14300001 0.30000001
39.498001 -9.9119997 0.14300001 0.30000001
39.502998 -9.7819996 0.14300001 0.30000001
38.678001 -9.5129995 0.145 0.31
38.659 -9.3800001 0.145 0.28
38.556 -9.2270002 0.145 0
38.981998 -9.1990004 0.14399999 0
39.499001 -9.1899996 0.14399999 0
39.998001 -9.1730003 0.14300001 0
40.523998 -9.1599998 0.142 0
40.991001 -9.198 0.141 0.11
34.771999 -7.691 0.15099999 0.25999999
34.827 -7.5890002 0.15099999 0
34.868999 -7.4829998 0.15099999 0
34.577 -7.3070002 0.152 0
34.32 -7.1409998 0.152 0
34.41 -7.0469999 0.152 0
34.981998 -7.1059999 0.15099999 0
45.801998 -9.1459999 0.134 0
46.52 -9.1370001 0.133 0
47.162998 -9.1090002 0.132 0
32.369999 -6.1550002 0.155 0
48.618999 -9.073 0.13 0
49.415001 -9.0609999 0.12899999 0
47.073002 -8.5559998 0.132 0.12
50.886002 -9.0819998 0.126 0.11
34.154999 -5.994 0.153 0.15000001
34.196999 -5.8909998 0.153 0
34.188 -5.7789998 0.153 0
60.925999 -10.081 0.111 0
61.085999 -10.009 0.111 0
61.032001 -9.8030005 0.111 0
61.682999 -9.7089996 0.11 0
59.881001 -9.2329998 0.113 0
59.897999 -9.0430002 0.113 0
59.891998 -8.8500004 0.113 0
61.445999 -8.882 0.11 0
62.056 -8.8699999 0.109 0
62.056 -8.6709995 0.109 0
59.825001 -8.1689997 0.113 0
62.035 -8.2720003 0.11 0
62.028999 -8.0719995 0.11 0
62.057999 -7.8779998 0.11 0
56.301998 -7.0599999 0.119 0
56.292 -6.8790002 0.119 0
56.212002 -6.6900001 0.119 0
56.221001 -6.5120001 0.119 0
56.304001 -6.3429999 0.119 0
56.368 -6.171 0.119 0
58.949001 -6.2639999 0.115 0
58.851002 -6.1609998 0.115 0
58.82 -5.9710002 0.115 0
59.310001 -5.8319998 0.114 0
64.226997 -6.1100001 0.107 0
64.833 -5.9619999 0.106 0
68.811996 -6.1079998 0.098999999 0
70.825996 -6.0619998 0.096000001 0
68.737999 -5.7750001 0.1 0
68.863998 -5.5679998 0.098999999 0
49.451 -3.6930001 0.13 0.1
49.43 -3.5350001 0.13 0.31999999
49.339001 -3.3729999 0.13 0
48.855 -3.1860001 0.131 0.029999999
48.813999 -2.799 0.131 0.99000001
48.791 -2.6440001 0.131 0.99000001
48.999001 -2.5 0.13 0.74000001
48.676998 -2.3310001 0.131 0
49.202 -2.2780001 0.13 0
49.437 -1.978 0.13 0.17
49.451 -1.823 0.13 0.28
49.428001 -1.6670001 0.13 0.30000001
49.487 -1.513 0.13 0
57.983002 -1.586 0.117 0
51.324001 4.704 -0.2 0
51.273998 4.7810001 -0.2 0
51.215 5.9949999 -0.20100001 0
51.216 6.1589999 -0.20100001 0
51.220001 6.323 -0.20100001 0
51.216 6.4850001 -0.20100001 0
51.224998 6.6500001 -0.20100001 0
51.244999 6.8169999 -0.20200001 0
67.106003 9.0249996 -0.32800001 0
67.125 9.243 -0.32800001 0
64.449997 9.0819998 -0.30700001 0.13
64.452003 9.2889996 -0.308 0.20999999
64.454002 9.4960003 -0.308 0.34999999
61.217999 9.217 -0.28200001 0
58.546001 9.0979996 -0.26100001 0
55.884998 9.0459995 -0.23999999 0
55.568001 9.1739998 -0.23800001 0.059999999
53.141998 9.118 -0.219 0.28999999
52.620998 9.1140003 -0.215 0.18000001
50.443001 9.0640001 -0.198 0.17
49.893002 9.1280003 -0.19400001 0.079999998
37.393002 6.9689999 -0.093999997 0.15000001
37.027 7.0219998 -0.090999998 0.20999999
36.948002 7.1269999 -0.090999998 0.37
37.028999 7.2030001 -0.090999998 0.25
32.280998 6.388 -0.052999999 0.14
36.766998 7.3920002 -0.090000004 0.31999999
36.042 7.3649998 -0.083999999 0.13
36.286999 7.533 -0.086000003 0.47
36.011002 7.5939999 -0.083999999 0.20999999
35.141998 7.527 -0.077 0.23999999
35.562 7.6750002 -0.081 0.18000001
35.334999 7.743 -0.079000004 0.13
35.728001 7.9460001 -0.082999997 0.19
35.490002 8.0100002 -0.081 0.13
35.612999 8.1560001 -0.082000002 0.20999999
35.521 8.2519999 -0.082000002 0.31999999
35.715 8.3559999 -0.082999997 0.15000001
35.702 8.4720001 -0.082999997 0.27000001
35.914001 8.6409998 -0.085000001 0.15000001
35.623001 8.6899996 -0.082999997 0.27000001
35.792999 8.8500004 -0.085000001 0.23
35.560001 8.9110003 -0.082999997 0.41
35.765999 9.0819998 -0.085000001 0.16
34.841 8.9060001 -0.078000002 0.37
34.817001 9.0170002 -0.078000002 0.28
34.653 9.0909996 -0.077 0.30000001
34.583 9.1890001 -0.075999998 0.31999999
34.533001 9.2919998 -0.075999998 0.33000001
34.556 9.4139996 -0.075999998 0.23
34.485001 9.5120001 -0.075999998 0.54000002
35.671001 9.8979998 -0.086000003 0.22
35.865002 10.073 -0.088 0.34
36.285999 10.314 -0.090999998 0.2
36.043999 10.368 -0.090000004 0.19
35.683998 10.386 -0.086999997 0.27000001
35.827999 10.55 -0.089000002 0.28999999
35.900002 10.633 -0.089000002 0.23999999
35.674 10.688 -0.088 0.36000001
35.645 10.801 -0.088 0.27000001
39.111 12.118 -0.117 0.38999999
36.469002 11.427 -0.094999999 0.17
35.859001 11.36 -0.090999998 0.27000001
35.661999 11.359 -0.089000002 0.31
36.005001 11.593 -0.092 0.28
36.051998 11.733 -0.093000002 0.23
39.042 12.84 -0.118 0.25
39.023998 12.97 -0.118 0.2
39.053001 13.116 -0.119 0.47999999
35.797001 12.15 -0.092 0.15000001
39.036999 13.315 -0.119 0.37
39.043999 13.455 -0.12 0.33000001
39.028 13.586 -0.12 0.31999999
39.026001 13.724 -0.12 0.5
39.019001 13.859 -0.121 0.19
24.473 8.7889996 0.001 0.14
39.176998 14.193 -0.123 0.38999999
24.599001 8.9650002 -0 0.18000001
24.664 9.0769997 -0.001 0.17
24.686001 9.1730003 -0.0020000001 0.41
24.371 9.1429996 0.001 0.19
24.299 9.2040005 0.001 0.13
23.173 8.8620005 0.0099999998 0.40000001
23 8.8369999 0.012 0.23
22.853001 8.8640003 0.013 0.51999998
22.864 8.9510002 0.012 0.34
22.856001 9.0299997 0.012 0.56
22.77 9.0790005 0.013 0.41
22.565001 9.0799999 0.014 0.41
22.368 9.0830002 0.016000001 0.40000001
22.194 9.0530005 0.017000001 0.36000001
22.003 9.0559998 0.017999999 0.44999999
21.815001 9.059 0.02 0.36000001
21.634001 9.0640001 0.021 0.38
21.441 9.0620003 0.022 0.38999999
21.264999 9.0670004 0.024 0.40000001
21.097 9.0740004 0.025 0.34
20.41 8.8179998 0.030999999 0.43000001
20.252001 8.8249998 0.032000002 0.34999999
20.08 8.8249998 0.033 0.46000001
19.931 8.835 0.034000002 0.28
19.816 8.8579998 0.035 0.43000001
19.820999 8.9350004 0.035 0.43000001
19.812 9.007 0.034000002 0.43000001
19.82 9.0480003 0.034000002 0.43000001
19.781 9.1049995 0.034000002 0.44999999
19.618999 9.1059999 0.035 0.47
19.483999 9.1169996 0.035999998 0.31
19.312 9.1110001 0.037999999 0.49000001
19.167999 9.1169996 0.039000001 0.30000001
19.021999 9.085 0.039999999 0.5
18.886999 9.0930004 0.041000001 0.30000001
18.732 9.092 0.041999999 0.54000002
18.599001 9.099 0.043000001 0.31999999
18.441 9.0939999 0.044 0.51999998
18.308001 9.1009998 0.045000002 0.30000001
18.171 9.1040001 0.046 0.55000001
17.481001 8.7930002 0.052000001 0.36000001
17.337 8.79 0.052999999 0.34999999
17.209 8.7930002 0.054000001 0.56999999
17.094 8.8030005 0.054000001 0.34
16.955 8.7980003 0.055 0.44999999
16.837999 8.8050003 0.056000002 0.36000001
16.787001 8.8120003 0.056000002 0.46000001
16.781 8.8760004 0.056000002 0.47999999
16.781 8.9440002 0.056000002 0.50999999
16.804001 9.0240002 0.056000002 0.69
16.649 9.0080004 0.057 0.23999999
16.548 9.0209999 0.057 0.38
16.431 9.0240002 0.057999998 0.28999999
16.311001 8.9919996 0.059 0.20999999
16.225 9.0120001 0.059999999 0.56
16.111 9.0150003 0.059999999 0.20999999
15.973 9.0039997 0.061000001 0.18000001
15.889 9.0220003 0.061999999 0.57999998
15.772 9.0220003 0.063000001 0.27000001
15.646 9.0150003 0.064000003 0.16
15.571 9.0050001 0.064000003 0.5
15.489 9.0229998 0.064999998 0.64999998
15.226 8.9980001 0.067000002 0.34
15.146 9.0150003 0.067000002 0.46000001
15.042 9.0179996 0.068000004 0.69
14.96 9.033 0.068000004 0.43000001
14.355 8.7609997 0.072999999 0.40000001
14.263 8.7670002 0.074000001 0.41
14.166 8.7679996 0.075000003 0.41999999
14.058 8.7629995 0.075000003 0.44
13.971 8.7700005 0.075999998 0.44
13.879 8.7740002 0.077 0.44999999
13.805 8.757 0.077 0.46000001
13.777 8.8000002 0.077 0.50999999
13.766 8.8540001 0.077 0.70999998
13.725 8.8889999 0.077 0.43000001
13.638 8.8940001 0.078000002 0.38999999
13.545 8.8940001 0.078000002 0.38
13.464 8.8710003 0.079000004 0.38999999
13.381 8.8769999 0.079000004 0.38
13.288 8.8760004 0.079999998 0.40000001
13.207 8.882 0.079999998 0.34
13.118 8.882 0.081 0.41
13.032 8.8839998 0.082000002 0.34999999
12.948 8.8859997 0.082000002 0.40000001
12.884 8.8730001 0.082999997 0.34999999
12.795 8.8710003 0.082999997 0.41
12.715 8.875 0.083999999 0.40000001
12.635 8.8780003 0.083999999 0.38
12.551 8.8780003 0.085000001 0.38
12.471 8.8809996 0.085000001 0.38
12.411 8.868 0.086000003 0.38999999
12.326 8.8660002 0.086000003 0.38999999
12.248 8.868 0.086999997 0.33000001
12.183 8.8800001 0.086999997 0.44
12.108 8.8839998 0.088 0.31999999
12.03 8.8850002 0.088 0.41999999
11.951 8.8850002 0.089000002 0.40000001
11.882 8.8629999 0.089000002 0.38
11.815 8.8699999 0.090000004 0.46000001
11.743 8.875 0.090000004 0.20999999
11.492 8.743 0.092 0.46000001
11.424 8.7469997 0.093000002 0.47
11.361 8.7559996 0.093000002 0.46000001
11.292 8.7600002 0.093000002 0.46000001
11.238 8.7460003 0.093999997 0.47
11.215 8.7849998 0.093999997 0.5
11.244 8.8640003 0.093000002 0.70999998
11.172 8.8649998 0.093999997 0.25999999
11.12 8.8809996 0.093999997 0.34
11.054 8.8850002 0.093999997 0.33000001
10.976 8.8800001 0.094999999 0.46000001
10.923 8.8649998 0.094999999 0.34999999
10.855 8.8669996 0.094999999 0.41
10.786 8.868 0.096000001 0.34999999
10.735 8.8830004 0.096000001 0.34
10.652 8.8699999 0.097000003 0.46000001
10.589 8.8739996 0.097000003 0.33000001
10.523 8.875 0.097000003 0.41
10.475 8.8640003 0.097999997 0.33000001
10.407 8.8629999 0.097999997 0.38999999
10.346 8.8669996 0.098999999 0.41999999
10.28 8.8669996 0.098999999 0.34
10.222 8.8730001 0.098999999 0.38999999
10.158 8.8730001 0.1 0.38
10.091 8.8710003 0.1 0.41
10.044 8.8579998 0.1 0.31999999
9.9910002 8.8669996 0.101 0.40000001
9.9099998 8.8520002 0.101 0.41999999
9.8559999 8.8590002 0.102 0.34
9.8109999 8.875 0.102 0.37
9.7320004 8.8590002 0.102 0.44
9.6899996 8.8479996 0.103 0.40000001
9.6440001 8.8629999 0.103 0.33000001
9.5769997 8.8559999 0.103 0.38999999
9.5100002 8.8509998 0.104 0.41
9.4610004 8.8599997 0.104 0.33000001
9.4020004 8.8610001 0.104 0.40000001
9.3369999 8.8549995 0.105 0.41999999
9.302 8.8500004 0.105 0.28
9.2379999 8.8450003 0.105 0.41999999
9.177 8.842 0.106 0.41
9.1339998 8.8559999 0.106 0.28999999
9.0699997 8.8500004 0.106 0.50999999
9.0150003 8.8509998 0.106 0.25999999
8.8360004 8.7309999 0.108 0.36000001
8.7889996 8.7130003 0.108 0.41
8.7309999 8.7089996 0.109 0.50999999
8.6820002 8.7150002 0.109 0.38999999
8.6149998 8.7030001 0.109 0.52999997
8.5719995 8.7139997 0.11 0.40000001
8.5179996 8.7139997 0.11 0.55000001
8.5120001 8.7620001 0.11 0.34999999
8.5179996 8.7959995 0.109 0.55000001
8.4610004 8.7919998 0.11 0.31999999
8.4119997 8.7969999 0.11 0.51999998
8.3520002 8.7889996 0.11 0.28999999
8.2959995 8.7860003 0.111 0.27000001
8.2480001 8.79 0.111 0.28
8.2030001 8.7969999 0.111 0.46000001
8.1680002 8.7880001 0.111 0.31999999
8.1120005 8.783 0.112 0.37
8.0670004 8.7889996 0.112 0.47
8.0100002 8.7819996 0.112 0.27000001
7.9619999 8.7849998 0.113 0.34999999
7.915 8.7889996 0.113 0.27000001
7.8800001 8.7779999 0.113 0.38999999
7.8270001 8.7740002 0.113 0.30000001
7.7839999 8.7810001 0.113 0.31999999
7.7319999 8.7779999 0.114 0.34999999
7.6830001 8.7779999 0.114 0.37
7.6350002 8.7779999 0.114 0.31999999
7.5949998 8.7889996 0.114 0.38
7.5549998 8.7700005 0.115 0.30000001
7.507 8.7700005 0.115 0.37
7.4619999 8.7740002 0.115 0.34
7.415 8.7740002 0.115 0.28999999
7.3720002 8.7790003 0.116 0.41
7.3270001 8.7810001 0.116 0.34
7.2839999 8.7849998 0.116 0.31
7.243 8.7639999 0.116 0.25999999
7.21 8.7810001 0.116 0.44
7.1550002 8.7690001 0.117 0.27000001
7.1100001 8.7700005 0.117 0.36000001
7.0679998 8.7749996 0.117 0.28
7.0219998 8.7740002 0.117 0.36000001
6.9749999 8.7729998 0.118 0.28999999
6.9489999 8.7679996 0.118 0.36000001
6.9050002 8.7690001 0.118 0.37
6.8540001 8.7609997 0.118 0.27000001
6.8099999 8.7609997 0.119 0.33000001
6.7690001 8.7650003 0.119 0.33000001
6.7290001 8.7700005 0.119 0.36000001
6.7020001 8.7629995 0.119 0.34999999
6.6560001 8.7600002 0.119 0.31999999
6.6149998 8.7639999 0.119 0.34999999
6.572 8.7639999 0.12 0.25999999
6.5310001 8.7670002 0.12 0.38
6.4840002 8.7609997 0.12 0.33000001
6.4429998 8.7620001 0.12 0.34
6.415 8.7530003 0.12 0.38999999
6.3790002 8.7620001 0.121 0.34
6.335 8.7589998 0.121 0.34
6.2839999 8.7469997 0.121 0.31
6.257 8.7679996 0.121 0.15000001
6.1529999 8.6800003 0.122 0.49000001
6.1170001 8.6859999 0.122 0.30000001
6.0869999 8.6730003 0.122 0.5
6.0560002 8.6870003 0.122 0.31
6.0050001 8.6719999 0.123 0.47999999
5.974 8.6859999 0.123 0.28999999
5.9260001 8.6750002 0.123 0.49000001
5.8940001 8.6850004 0.123 0.30000001
5.849 8.6789999 0.123 0.47999999
5.8470001 8.7040005 0.123 0.31999999
5.836 8.7480001 0.123 0.46000001
5.8280001 8.7939997 0.123 0.41999999
5.7909999 8.7989998 0.123 0.34
5.757 8.8070002 0.123 0.36000001
5.7129998 8.8000002 0.123 0.33000001
5.677 8.8059998 0.123 0.38999999
5.651 8.7950001 0.124 0.38
5.618 8.8039999 0.124 0.37
5.5739999 8.7969999 0.124 0.37
5.533 8.7939997 0.124 0.36000001
5.5 8.8030005 0.124 0.36000001
5.4629998 8.8050003 0.124 0.36000001
5.427 8.8079996 0.124 0.37
5.3979998 8.7930002 0.125 0.33000001
5.3639998 8.8000002 0.125 0.38999999
5.3249998 8.7980003 0.125 0.37
5.2870002 8.7969999 0.125 0.36000001
5.2519999 8.802 0.125 0.37
5.2129998 8.7980003 0.125 0.37
5.177 8.8000002 0.125 0.34
5.1539998 8.7930002 0.126 0.40000001
5.119 8.7969999 0.126 0.33000001
5.0749998 8.7849998 0.126 0.37
5.0430002 8.7930002 0.126 0.34999999
5.007 8.7939997 0.126 0.36000001
4.973 8.8000002 0.126 0.36000001
4.934 8.7939997 0.126 0.34
4.914 8.7919998 0.127 0.34999999
4.8850002 8.8039999 0.127 0.34999999
4.8439999 8.7959995 0.127 0.34999999
4.8070002 8.7939997 0.127 0.34
4.7670002 8.7860003 0.127 0.36000001
4.7360001 8.7939997 0.127 0.38
4.7020001 8.7980003 0.127 0.33000001
4.6799998 8.79 0.127 0.37
4.6430001 8.7869997 0.12800001 0.33000001
4.6030002 8.7779999 0.12800001 0.34
4.5710001 8.7840004 0.12800001 0.37
4.5339999 8.7799997 0.12800001 0.31999999
4.5009999 8.7840004 0.12800001 0.34
4.4840002 8.7860003 0.12800001 0.34
4.4499998 8.7849998 0.12800001 0.38
4.414 8.783 0.12800001 0.34999999
4.3769999 8.7790003 0.12899999 0.34999999
4.3460002 8.7860003 0.12899999 0.33000001
4.3179998 8.7980003 0.12899999 0.38999999
4.2779999 8.7880001 0.12899999 0.36000001
4.256 8.7770004 0.12899999 0.34
4.224 8.7810001 0.12899999 0.34999999
4.1900001 8.7810001 0.12899999 0.34
4.1550002 8.7779999 0.12899999 0.31999999
4.1269999 8.7910004 0.12899999 0.37
4.092 8.7880001 0.13 0.36000001
4.0580001 8.7880001 0.13 0.34
4.0409999 8.7869997 0.13 0.36000001
4.0079999 8.7869997 0.13 0.34999999
3.9760001 8.7910004 0.13 0.34999999
3.937 8.7779999 0.13 0.33000001
3.908 8.7860003 0.13 0.33000001
3.8710001 8.7779999 0.13 0.34
3.8410001 8.7849998 0.13 0.34
3.822 8.7799997 0.13 0.34999999
3.7880001 8.7749996 0.131 0.34
3.7579999 8.7840004 0.131 0.36000001
3.7249999 8.7810001 0.131 0.34
3.6960001 8.79 0.131 0.38999999
3.6619999 8.7869997 0.131 0.30000001
3.6300001 8.7880001 0.131 0.38
3.6099999 8.7790003 0.131 0.31
3.5610001 8.7379999 0.132 0.22
3.4949999 8.6529999 0.132 0.37
3.464 8.6549997 0.132 0.41
3.431 8.6520004 0.133 0.36000001
3.4000001 8.6540003 0.133 0.43000001
3.3710001 8.6590004 0.133 0.34999999
3.3510001 8.6470003 0.133 0.41
3.3180001 8.6429996 0.133 0.34
3.29 8.6520004 0.133 0.41999999
3.2590001 8.651 0.133 0.34
3.224 8.6400003 0.133 0.47999999
3.201 8.6619997 0.133 0.36000001
3.1889999 8.7150002 0.133 0.22
3.1949999 8.7720003 0.132 0.56999999
3.1689999 8.7880001 0.132 0.30000001
3.1329999 8.7729998 0.133 0.30000001
3.1029999 8.7770004 0.133 0.34
3.0810001 8.802 0.132 0.34
3.0369999 8.7650003 0.133 0.25999999
3.013 8.7840004 0.133 0.38
2.9960001 8.7810001 0.133 0.25999999
2.9619999 8.7709999 0.133 0.31999999
2.9319999 8.7729998 0.133 0.33000001
2.9059999 8.7880001 0.133 0.31
2.8729999 8.7779999 0.133 0.37
2.8399999 8.7720003 0.133 0.30000001
2.813 8.7819996 0.133 0.31999999
2.796 8.7749996 0.133 0.33000001
2.766 8.7770004 0.133 0.31999999
2.74 8.7930002 0.133 0.31999999
2.7049999 8.7770004 0.134 0.33000001
2.6730001 8.7720003 0.134 0.31
2.6500001 8.7950001 0.134 0.31999999
2.6259999 8.7650003 0.134 0.31999999
2.596 8.7639999 0.134 0.30000001
2.5739999 8.7910004 0.134 0.34
2.536 8.7639999 0.134 0.31999999
2.5090001 8.7720003 0.134 0.34
2.48 8.776 0.134 0.28999999
2.4489999 8.7729998 0.134 0.34
2.4330001 8.7690001 0.134 0.34999999
2.408 8.7840004 0.134 0.28999999
2.368 8.7489996 0.13500001 0.33000001
2.342 8.7600002 0.13500001 0.34999999
2.3180001 8.7810001 0.134 0.28
2.2850001 8.7670002 0.13500001 0.34999999
2.2539999 8.7609997 0.13500001 0.31999999
2.243 8.7740002 0.13500001 0.28
2.2090001 8.7559996 0.13500001 0.31
2.1819999 8.7670002 0.13500001 0.34999999
2.1570001 8.783 0.13500001 0.27000001
2.1240001 8.7659998 0.13500001 0.31
2.096 8.7729998 0.13500001 0.36000001
2.069 8.7840004 0.13500001 0.28
2.05 8.7629995 0.13500001 0.33000001
2.02 8.7580004 0.13500001 0.31999999
1.994 8.7740002 0.13500001 0.31
1.9630001 8.7629995 0.13500001 0.28999999
1.934 8.7650003 0.13500001 0.34
1.909 8.7790003 0.13500001 0.28
1.875 8.757 0.13500001 0.31
1.863 8.7700005 0.13500001 0.34
1.834 8.7679996 0.13500001 0.30000001
1.806 8.7720003 0.13500001 0.34
1.776 8.7639999 0.13500001 0.28999999
1.749 8.7709999 0.13500001 0.30000001
1.717 8.7530003 0.13600001 0.33000001
1.6900001 8.7629995 0.13600001 0.33000001
1.679 8.7810001 0.13600001 0.31
1.646 8.757 0.13600001 0.28999999
1.618 8.7600002 0.13600001 0.34
1.59 8.7650003 0.13600001 0.28
1.563 8.7679996 0.13600001 0.34
1.533 8.7609997 0.13600001 0.28999999
1.507 8.776 0.13600001 0.34
1.49 8.7559996 0.13600001 0.31999999
1.462 8.7609997 0.13600001 0.33000001
1.433 8.757 0.13600001 0.30000001
1.404 8.7539997 0.13600001 0.28
1.377 8.7559996 0.13600001 0.36000001
1.348 8.7550001 0.13600001 0.28
1.319 8.7510004 0.13600001 0.28999999
1.307 8.7650003 0.13600001 0.36000001
1.28 8.7709999 0.13600001 0.25
1.248 8.7410002 0.13600001 0.25999999
1.222 8.757 0.13600001 0.31999999
1.197 8.783 0.13600001 0.37
1.168 8.7749996 0.13600001 0.27000001
1.151 8.7510004 0.13600001 0.28999999
1.125 8.7679996 0.13600001 0.36000001
1.096 8.7580004 0.13600001 0.28999999
1.067 8.7530003 0.13600001 0.31999999
1.041 8.7620001 0.13600001 0.31999999
1.011 8.75 0.13699999 0.22
0.98299998 8.743 0.13699999 0.37
0.96899998 8.7460003 0.13699999 0.43000001
0.94300002 8.7650003 0.13600001 0.33000001
0.91100001 8.7250004 0.13699999 0.23
0.87099999 8.6059999 0.138 0.37
0.84299999 8.6009998 0.138 0.38
0.81599998 8.6009998 0.138 0.38
0.79100001 8.6199999 0.138 0.34999999
0.77499998 8.599 0.138 0.37
0.74800003 8.6000004 0.138 0.37
0.72100002 8.6079998 0.138 0.38
0.69400001 8.6020002 0.138 0.36000001
0.66600001 8.5979996 0.138 0.38999999
0.64099997 8.6300001 0.138 0.37
0.639 8.9610004 0.13500001 0.27000001
0.64700001 9.2770004 0.133 0.31
0.63999999 9.5950003 0.13 0.34
0.63700002 10 0.127 0.33000001
0.62900001 10.385 0.124 0.38
0.61900002 10.758 0.121 0.34
0.61500001 11.285 0.117 0.44999999
0.60900003 11.842 0.113 0.31999999
0.61900002 12.388 0.108 0.44
0.611 13.02 0.103 0.34999999
0.60299999 13.731 0.097999997 0.46000001
0.58200002 14.254 0.093999997 0.55000001
0.55400002 14.675 0.090000004 0.19
0.50599998 14.637 0.090999998 0.25999999
0.454 14.447 0.092 0.18000001
0.435 14.585 0.090999998 0.54000002
0.38699999 14.487 0.092 0.18000001
0.338 14.366 0.093000002 0.55000001
0.29800001 14.573 0.090999998 0.37
0.25400001 14.692 0.090000004 0.33000001
0.206 14.566 0.090999998 0.40000001
0.15899999 14.507 0.092 0.25
0.13600001 14.483 0.092 0.56
0.090999998 14.56 0.090999998 0.38
0.045000002 14.496 0.092 0.23
-0 14.41 0.092 0.58999997
-0.046 14.548 0.090999998 0.23
-0.092 14.552 0.090999998 0.41999999
-0.13699999 14.475 0.092 0.38999999
-0.16 14.571 0.090999998 0.47999999
-0.208 14.712 0.090000004 0.28999999
-0.252 14.602 0.090999998 0.41
-0.30199999 14.783 0.089000002 0.40000001
-0.352 14.968 0.088 0.31999999
-0.39399999 14.745 0.090000004 0.47999999
-0.44800001 15.033 0.086999997 0
-1.534 50.852001 -0.19499999 0
-0.67799997 16.672001 0.074000001 0.5
-0.74299997 16.989 0.071999997 0
-2.0769999 45.199001 -0.15099999 0.079999998
-2.1459999 45.158001 -0.15099999 0
-2.2780001 44.946999 -0.149 0.12
-1.539 28.406 -0.017999999 0.18000001
-1.628 28.395 -0.017999999 0.16
-1.716 28.386 -0.017999999 0.17
-1.806 28.386 -0.017999999 0.1
-1.896 28.398001 -0.017999999 0.13
-1.984 28.375999 -0.017999999 0.17
-2.027 28.337 -0.017999999 0.22
-2.1159999 28.330999 -0.017999999 0.31
-2.2049999 28.334 -0.017999999 0.31
-2.2939999 28.325001 -0.017999999 0.34
-2.3829999 28.313 -0.017999999 0.34999999
-2.473 28.326 -0.017999999 0.34
-2.563 28.33 -0.017999999 0.34999999
-2.609 28.337999 -0.017999999 0.36000001
-2.6989999 28.337 -0.017999999 0.38999999
-2.7880001 28.334999 -0.018999999 0.31999999
-2.878 28.332001 -0.018999999 0.33000001
-2.9679999 28.327999 -0.018999999 0.34
-3.0580001 28.329 -0.018999999 0.31999999
-3.105 28.348 -0.018999999 0.40000001
-3.1949999 28.346001 -0.018999999 0.31
-3.2850001 28.348 -0.018999999 0.31999999
-3.3789999 28.375 -0.018999999 0.31999999
-3.471 28.388 -0.02 0
-3.562 28.396999 -0.02 0
-3.6530001 28.400999 -0.02 0
-3.7019999 28.423 -0.02 0
-3.79 28.406 -0.02 0
-3.8770001 28.378 -0.02 0
-4.0840001 28.552999 -0.021 0.22
-4.1630001 28.469 -0.021 0.37
-4.322 28.924 -0.025 0.11
-6.6690001 44.249001 -0.147 0.14
-5.8280001 37.834999 -0.096000001 0.12
-2.358 14.591 0.089000002 0.5
-2.404 14.587 0.089000002 0.31999999
-2.3789999 14.153 0.093000002 0.47999999
-2.3859999 13.923 0.094999999 0.28999999
-2.3629999 13.657 0.097000003 0.49000001
-2.365 13.419 0.098999999 0.31
-2.368 13.191 0.1 0.50999999
-2.3729999 12.977 0.102 0.31
-2.3729999 12.751 0.104 0.50999999
-2.375 12.541 0.105 0.30000001
-2.3740001 12.319 0.107 0.5
-2.358 12.135 0.109 0.34999999
-2.359 11.935 0.11 0.43000001
-2.359 11.739 0.112 0.41999999
-2.359 11.551 0.113 0.34999999
-2.3599999 11.368 0.114 0.44999999
-2.3629999 11.204 0.116 0.38999999
-2.362 11.028 0.117 0.38999999
-2.349 10.879 0.118 0.44999999
-2.346 10.704 0.12 0.40000001
-2.346 10.54 0.121 0.31999999
-2.3529999 10.419 0.122 0.44
-2.3499999 10.252 0.123 0.34999999
-2.352 10.112 0.124 0.40000001
-2.3559999 9.9879999 0.125 0.38
-2.339 9.8459997 0.126 0.36000001
-2.3380001 9.7019997 0.127 0.38999999
-2.339 9.5740004 0.12800001 0.37
-2.3380001 9.441 0.12899999 0.36000001
-2.3399999 9.3210001 0.13 0.36000001
-2.3429999 9.2110004 0.131 0.38
-2.342 9.0830002 0.132 0.36000001
-2.3310001 8.9799995 0.133 0.38
-2.3299999 8.8629999 0.134 0.31999999
-2.3310001 8.7510004 0.13500001 0.36000001
-2.325 8.6199999 0.13600001 0.23999999
-2.346 8.5909996 0.13600001 0.31999999
-2.3729999 8.5839996 0.13600001 0.38999999
-2.402 8.5819998 0.13600001 0.31999999
-2.421 8.6000004 0.13600001 0.37
-2.4489999 8.5939999 0.13600001 0.36000001
-2.4760001 8.5860004 0.13600001 0.38
-2.5079999 8.5959997 0.13500001 0.31999999
-2.539 8.6009998 0.13500001 0.50999999
-2.5999999 8.7080002 0.134 0.25
-2.6370001 8.7329998 0.134 0.36000001
-2.6500001 8.7270002 0.134 0.38
-2.674 8.7069998 0.134 0.30000001
-2.711 8.7290001 0.134 0.38999999
-2.7390001 8.7220001 0.134 0.36000001
-2.767 8.717 0.134 0.38
-2.7980001 8.7200003 0.134 0.36000001
