# .PCD v0.7 - Point Cloud Data file format
VERSION 0.7
FIELDS x y z intensity
SIZE 4 4 4 4
TYPE F F F F
COUNT 1 1 1 1
WIDTH 1373
HEIGHT 1
VIEWPOINT 0 0 0 1 0 0 0
POINTS 1373
DATA ascii
2.4519999 5.1999998 -0.98900002 0.31999999
2.4360001 5.21 -0.98900002 0.38
2.411 5.198 -0.98500001 0.31
2.392 5.1999998 -0.98400003 0.33000001
2.3800001 5.2179999 -0.986 0.38999999
2.3559999 5.2080002 -0.98199999 0.31999999
2.348 5.211 -0.98199999 0.38999999
2.3269999 5.21 -0.98000002 0.31999999
2.302 5.1950002 -0.97600001 0.31999999
2.2869999 5.2059999 -0.97600001 0.38999999
2.27 5.211 -0.97600001 0.31
2.253 5.217 -0.97600001 0.38
2.23 5.2090001 -0.97299999 0.31
2.2179999 5.204 -0.97100002 0.38
2.197 5.1999998 -0.96799999 0.31
2.1830001 5.2119999 -0.97000003 0.38
2.161 5.2059999 -0.96700001 0.31
2.1440001 5.2090001 -0.96600002 0.38
2.1210001 5.2020001 -0.963 0.31
2.1029999 5.2030001 -0.96200001 0.37
2.0910001 5.197 -0.95999998 0.31
2.075 5.2049999 -0.96100003 0.38
2.053 5.197 -0.95700002 0.31
2.036 5.1999998 -0.95700002 0.38
2.017 5.2010002 -0.95599997 0.31
2.0009999 5.2069998 -0.95599997 0.38
1.976 5.191 -0.95099998 0.31999999
1.967 5.191 -0.94999999 0.31999999
1.9529999 5.204 -0.95200002 0.38
1.931 5.1939998 -0.94800001 0.31
1.918 5.2090001 -0.94999999 0.38999999
1.898 5.2059999 -0.94800001 0.30000001
1.877 5.1989999 -0.94599998 0.37
1.857 5.1950002 -0.94400001 0.31
1.85 5.1999998 -0.94400001 0.37
1.8279999 5.1890001 -0.94099998 0.30000001
1.812 5.197 -0.94099998 0.37
1.793 5.1929998 -0.93900001 0.30000001
1.773 5.1890001 -0.93699998 0.37
1.757 5.1950002 -0.93699998 0.30000001
1.7410001 5.2020001 -0.93800002 0.36000001
1.7309999 5.1999998 -0.93699998 0.31
1.712 5.197 -0.935 0.36000001
1.691 5.1880002 -0.93199998 0.30000001
1.674 5.191 -0.93199998 0.38
1.659 5.1999998 -0.93199998 0.31
1.64 5.198 -0.93099999 0.38
1.6289999 5.1890001 -0.92900002 0.30000001
1.612 5.1939998 -0.92900002 0.36000001
1.5930001 5.1900001 -0.92699999 0.30000001
1.574 5.184 -0.92400002 0.38
1.556 5.1849999 -0.92400002 0.30000001
1.543 5.1989999 -0.926 0.38
1.522 5.1890001 -0.92199999 0.31
1.513 5.1869998 -0.92199999 0.37
1.494 5.1849999 -0.92000002 0.30000001
1.48 5.197 -0.92199999 0.37
1.4579999 5.1789999 -0.917 0.30000001
1.443 5.1890001 -0.91799998 0.37
1.427 5.1950002 -0.91900003 0.31
1.408 5.1880002 -0.91600001 0.36000001
1.396 5.177 -0.91399997 0.30000001
1.382 5.1890001 -0.91500002 0.37
1.363 5.184 -0.91299999 0.28999999
1.349 5.1960001 -0.91500002 0.36000001
1.331 5.1950002 -0.91399997 0.28999999
1.312 5.1890001 -0.912 0.36000001
1.295 5.1890001 -0.91100001 0.34999999
1.285 5.184 -0.91000003 0.28999999
1.268 5.184 -0.90899998 0.34999999
1.252 5.1900001 -0.90899998 0.34999999
1.2359999 5.198 -0.91000003 0.34999999
1.215 5.1789999 -0.90499997 0.28999999
1.199 5.1820002 -0.90499997 0.34999999
1.193 5.1960001 -0.90799999 0.34
1.171 5.1739998 -0.903 0.28999999
1.1569999 5.1900001 -0.90499997 0.34999999
1.142 5.1989999 -0.90600002 0.34
1.124 5.191 -0.90399998 0.33000001
1.105 5.1830001 -0.90200001 0.34
1.089 5.1880002 -0.90200001 0.33000001
1.081 5.1900001 -0.90200001 0.34
1.063 5.184 -0.89999998 0.34
1.0470001 5.191 -0.90100002 0.34999999
1.028 5.1830001 -0.89899999 0.34999999
1.01 5.1760001 -0.89700001 0.34
0.99599999 5.1890001 -0.89899999 0.34
0.97600001 5.171 -0.89399999 0.34
0.96799999 5.1760001 -0.89499998 0.27000001
0.954 5.1890001 -0.89700001 0.36000001
0.93400002 5.1750002 -0.89399999 0.31999999
0.917 5.1719999 -0.89200002 0.34
0.90399998 5.1919999 -0.89600003 0.34
0.88499999 5.1810002 -0.89300001 0.34
0.86799997 5.1799998 -0.89200002 0.33000001
0.86299998 5.197 -0.89600003 0.34
0.84200001 5.1739998 -0.89099997 0.34
0.82499999 5.1729999 -0.88999999 0.31999999
0.81099999 5.1890001 -0.89200002 0.31999999
0.79299998 5.1799998 -0.88999999 0.34
0.77700001 5.1810002 -0.88999999 0.34
0.76099998 5.1869998 -0.89099997 0.34
0.75099999 5.178 -0.889 0.34
0.73400003 5.171 -0.88700002 0.33000001
0.71799999 5.1750002 -0.88700002 0.31999999
0.70099998 5.1739998 -0.88599998 0.33000001
0.68300003 5.164 -0.884 0.31
0.67000002 5.1919999 -0.889 0.34
0.65100002 5.1680002 -0.884 0.31999999
0.64300001 5.1690001 -0.884 0.31999999
0.62699997 5.1729999 -0.884 0.31999999
0.611 5.177 -0.88499999 0.31
0.59299999 5.1630001 -0.88200003 0.31999999
0.57800001 5.1830001 -0.88499999 0.31
0.56099999 5.1729999 -0.88300002 0.30000001
0.54299998 5.1609998 -0.88 0.31
0.537 5.1750002 -0.88300002 0.31
0.51999998 5.1789999 -0.88300002 0.31
0.50199997 5.1609998 -0.88 0.31
0.486 5.165 -0.88 0.31
0.47099999 5.1719999 -0.88099998 0.31999999
0.45300001 5.158 -0.87800002 0.31
0.43799999 5.1690001 -0.88 0.31999999
0.42899999 5.1659999 -0.87900001 0.31999999
0.41299999 5.1690001 -0.88 0.31999999
0.396 5.1589999 -0.87699997 0.31
0.38 5.158 -0.87699997 0.31
0.36399999 5.1630001 -0.87800002 0.31
0.347 5.1560001 -0.87599999 0.31999999
0.33899999 5.1550002 -0.87599999 0.31
0.32300001 5.1700001 -0.87800002 0.34
0.30700001 5.1609998 -0.87599999 0.30000001
0.29100001 5.1659999 -0.87699997 0.34999999
0.27399999 5.1570001 -0.875 0.30000001
0.25799999 5.1630001 -0.87599999 0.34
0.241 5.1539998 -0.875 0.28999999
0.234 5.1680002 -0.87699997 0.30000001
0.21699999 5.1669998 -0.87699997 0.30000001
0.20100001 5.158 -0.875 0.30000001
0.185 5.1630001 -0.87599999 0.34
0.168 5.1570001 -0.875 0.28999999
0.152 5.1479998 -0.87300003 0.30000001
0.13600001 5.158 -0.875 0.31
0.12800001 5.1599998 -0.875 0.30000001
0.112 5.1469998 -0.87199998 0.31
0.096000001 5.1589999 -0.875 0.31999999
0.079000004 5.1570001 -0.87400001 0.31999999
0.063000001 5.1399999 -0.87099999 0.31
0.046999998 5.1620002 -0.875 0.34
0.030999999 5.1440001 -0.87199998 0.30000001
0.023 5.164 -0.875 0.34
0.0060000001 5.1500001 -0.87300003 0.30000001
-0.0099999998 5.158 -0.87400001 0.34
-0.026000001 5.1539998 -0.87300003 0.30000001
-0.041999999 5.1659999 -0.87599999 0.34
-0.057999998 5.152 -0.87300003 0.30000001
-0.075000003 5.158 -0.87400001 0.31
-0.082999997 5.152 -0.87300003 0.31
-0.098999999 5.1630001 -0.875 0.31
-0.115 5.1409998 -0.87099999 0.31999999
-0.131 5.158 -0.875 0.31999999
-0.147 5.1500001 -0.87300003 0.33000001
-0.164 5.152 -0.87300003 0.34
-0.18000001 5.151 -0.87300003 0.34
-0.18799999 5.1550002 -0.87400001 0.34
-0.204 5.1459999 -0.87300003 0.28
-0.22 5.1529999 -0.87400001 0.34999999
-0.236 5.145 -0.87300003 0.28
-0.25299999 5.1500001 -0.87400001 0.34999999
-0.26899999 5.151 -0.87400001 0.36000001
-0.27900001 5.0500002 -0.85500002 0.25
-0.28600001 5.0300002 -0.85100001 0.28999999
-0.30199999 5.0370002 -0.85299999 0.31999999
-0.31799999 5.0300002 -0.85100001 0.31999999
-0.33399999 5.039 -0.85299999 0.34
-0.34999999 5.046 -0.85500002 0.28
-0.37200001 5.1230001 -0.87 0.23
-0.391 5.151 -0.87599999 0.36000001
-0.40000001 5.158 -0.87699997 0.34
-0.41600001 5.1589999 -0.87800002 0.34
-0.43200001 5.1500001 -0.87599999 0.28999999
-0.44800001 5.1479998 -0.87599999 0.34999999
-0.46399999 5.1469998 -0.87599999 0.28999999
-0.47999999 5.1469998 -0.87599999 0.34999999
-0.48899999 5.1550002 -0.87800002 0.34999999
-0.50400001 5.1430001 -0.87599999 0.28
-0.51999998 5.138 -0.875 0.33000001
-0.537 5.1399999 -0.87599999 0.34999999
-0.55299997 5.138 -0.87599999 0.34
-0.56900001 5.1360002 -0.87599999 0.34999999
-0.58600003 5.1420002 -0.87800002 0.36000001
-0.59399998 5.145 -0.87800002 0.34999999
-0.60900003 5.1339998 -0.87599999 0.34999999
-0.62699997 5.1420002 -0.87800002 0.31999999
-0.64300001 5.1440001 -0.87900001 0.37
-0.65899998 5.1339998 -0.87800002 0.36000001
-0.676 5.1389999 -0.87900001 0.36000001
-0.69300002 5.1430001 -0.88 0.34999999
-0.70099998 5.1399999 -0.88 0.36000001
-0.71799999 5.1440001 -0.88099998 0.36000001
-0.73299998 5.1370001 -0.88 0.36000001
-0.75 5.1370001 -0.88099998 0.34999999
-0.76700002 5.1440001 -0.88300002 0.34999999
-0.78399998 5.1440001 -0.88300002 0.34999999
-0.79900002 5.1360002 -0.88200003 0.34999999
-0.80800003 5.1420002 -0.88300002 0.34999999
-0.82499999 5.1430001 -0.884 0.34999999
-0.84100002 5.1409998 -0.884 0.34999999
-0.85699999 5.1360002 -0.884 0.34999999
-0.87400001 5.1370001 -0.884 0.34999999
-0.88999999 5.1329999 -0.884 0.34999999
-0.90799999 5.1409998 -0.88599998 0.34999999
-0.917 5.1440001 -0.88700002 0.34999999
-0.93300003 5.1409998 -0.88700002 0.34999999
-0.94999999 5.1459999 -0.889 0.34
-0.96600002 5.1409998 -0.88800001 0.34999999
-0.98199999 5.138 -0.88800001 0.34999999
-1 5.1399999 -0.889 0.36000001
-1.016 5.1370001 -0.889 0.34999999
-1.023 5.132 -0.889 0.36000001
-1.041 5.1399999 -0.89099997 0.36000001
-1.059 5.1420002 -0.89200002 0.34999999
-1.073 5.131 -0.89099997 0.34
-1.092 5.1409998 -0.89300001 0.36000001
-1.108 5.1360002 -0.89300001 0.36000001
-1.123 5.1290002 -0.89200002 0.36000001
-1.138 5.1560001 -0.898 0.36000001
-1.153 5.1459999 -0.89700001 0.36000001
-1.1670001 5.1329999 -0.89499998 0.36000001
-1.183 5.1290002 -0.89499998 0.36000001
-1.2029999 5.1409998 -0.898 0.34999999
-1.219 5.1389999 -0.898 0.36000001
-1.235 5.1329999 -0.898 0.36000001
-1.244 5.1370001 -0.89899999 0.36000001
-1.26 5.1290002 -0.898 0.36000001
-1.277 5.131 -0.89899999 0.31999999
-1.296 5.138 -0.90200001 0.37
-1.311 5.131 -0.90100002 0.36000001
-1.329 5.132 -0.90200001 0.36000001
-1.339 5.1399999 -0.90399998 0.36000001
-1.355 5.132 -0.903 0.36000001
-1.373 5.1350002 -0.90499997 0.34999999
-1.39 5.1339998 -0.90499997 0.36000001
-1.405 5.1259999 -0.90499997 0.36000001
-1.424 5.131 -0.90700001 0.36000001
-1.443 5.1360002 -0.90799999 0.36000001
-1.449 5.1279998 -0.90700001 0.34999999
-1.47 5.1389999 -0.91000003 0.36000001
-1.484 5.1279998 -0.90899998 0.34999999
-1.506 5.1440001 -0.91299999 0.36000001
-1.521 5.1339998 -0.912 0.36000001
-1.54 5.1389999 -0.91399997 0.36000001
-1.5549999 5.132 -0.91399997 0.31999999
-1.566 5.1370001 -0.91500002 0.37
-1.585 5.1430001 -0.91799998 0.34999999
-1.597 5.125 -0.91500002 0.36000001
-1.6160001 5.1290002 -0.917 0.36000001
-1.6390001 5.145 -0.921 0.36000001
-1.654 5.1360002 -0.92000002 0.36000001
-1.669 5.1269999 -0.91900003 0.31999999
-1.683 5.1409998 -0.92299998 0.37
-1.697 5.1300001 -0.92199999 0.36000001
-1.7180001 5.1399999 -0.92500001 0.33000001
-1.738 5.145 -0.92699999 0.37
-1.751 5.131 -0.92500001 0.36000001
-1.77 5.1329999 -0.92699999 0.33000001
-1.7869999 5.131 -0.92699999 0.34
-1.795 5.1279998 -0.92699999 0.38
-1.8150001 5.131 -0.92900002 0.36000001
-1.835 5.1389999 -0.93199998 0.33000001
-1.849 5.1269999 -0.93099999 0.37
-1.868 5.1269999 -0.93199998 0.36000001
-1.891 5.1409998 -0.93599999 0.33000001
-1.904 5.1259999 -0.93400002 0.37
-1.915 5.132 -0.93599999 0.36000001
-1.936 5.1370001 -0.93800002 0.36000001
-1.951 5.1290002 -0.93800002 0.36000001
-1.9680001 5.125 -0.93800002 0.31999999
-1.9910001 5.1350002 -0.94199997 0.37
-2.003 5.1199999 -0.94 0.36000001
-2.0220001 5.1209998 -0.94199997 0.33000001
-2.0409999 5.145 -0.94700003 0.38
-2.052 5.1259999 -0.94499999 0.33000001
-2.072 5.1279998 -0.94599998 0.38
-2.095 5.1399999 -0.94999999 0.33000001
-2.1059999 5.1209998 -0.94800001 0.34
-2.1259999 5.1230001 -0.949 0.34
-2.148 5.131 -0.95300001 0.34
-2.1559999 5.1259999 -0.95200002 0.34
-2.1730001 5.1209998 -0.95300001 0.34
-2.1960001 5.132 -0.95599997 0.37
-2.211 5.1209998 -0.95599997 0.33000001
-2.233 5.1269999 -0.958 0.34
-2.2539999 5.132 -0.96100003 0.34
-2.266 5.1149998 -0.95899999 0.34
-2.2820001 5.1290002 -0.96200001 0.34
-2.299 5.125 -0.963 0.38
-2.3199999 5.1269999 -0.96499997 0.33000001
-2.3369999 5.1230001 -0.96600002 0.37
-2.359 5.1279998 -0.96799999 0.33000001
-2.375 5.119 -0.96799999 0.34
-2.3870001 5.1240001 -0.97000003 0.34
-2.4119999 5.1360002 -0.97399998 0.37
-2.4219999 5.1160002 -0.972 0.36000001
-2.4430001 5.119 -0.97399998 0.33000001
-2.4679999 5.1290002 -0.97799999 0.34
-2.4790001 5.1110001 -0.97500002 0.38
-2.5009999 5.1149998 -0.97799999 0.33000001
-2.517 5.1269999 -0.98100001 0.34
-2.5339999 5.1209998 -0.98199999 0.34
-2.552 5.1170001 -0.98299998 0.34
-2.576 5.1240001 -0.986 0.34
-2.592 5.1160002 -0.986 0.34
-2.6129999 5.1170001 -0.98799998 0.34
-2.631 5.1139998 -0.98900002 0.34
-2.648 5.1069999 -0.98900002 0.38
-2.665 5.119 -0.99299997 0.33000001
-2.6919999 5.131 -0.99699998 0.34
-2.701 5.1100001 -0.995 0.37
-2.7260001 5.118 -0.99800003 0.36000001
-2.7509999 5.1259999 -1.002 0.31999999
-2.7639999 5.1110001 -1 0.34
-2.777 5.1170001 -1.003 0.37
-2.8010001 5.1220002 -1.006 0.33000001
-2.819 5.1160002 -1.007 0.34
-2.839 5.1139998 -1.008 0.34
-2.862 5.1170001 -1.011 0.34
-2.8770001 5.1069999 -1.01 0.34
-2.9059999 5.1209998 -1.016 0.38
-2.9230001 5.132 -1.0190001 0.33000001
-2.9389999 5.1230001 -1.0190001 0.34
-2.957 5.1170001 -1.02 0.34
-2.983 5.125 -1.024 0.37
-3.0020001 5.1199999 -1.025 0.31999999
-3.0209999 5.1139998 -1.026 0.37
-3.049 5.125 -1.03 0.33000001
-3.0539999 5.1149998 -1.029 0.34
-3.0769999 5.1170001 -1.0319999 0.34
-3.095 5.1110001 -1.0319999 0.34
-3.1140001 5.1059999 -1.033 0.34
-3.1459999 5.1209998 -1.039 0.34999999
-3.1689999 5.1230001 -1.0420001 0.34
-3.181 5.1059999 -1.04 0.34999999
-3.1930001 5.1079998 -1.0420001 0.34
-3.223 5.1199999 -1.0470001 0.34
-3.2349999 5.1030002 -1.045 0.34999999
-3.2590001 5.1059999 -1.048 0.34
-3.286 5.112 -1.052 0.34
-3.3039999 5.105 -1.053 0.37
-3.323 5.099 -1.054 0.33000001
-3.3469999 5.1170001 -1.059 0.34
-3.3629999 5.1069999 -1.059 0.34999999
-3.392 5.1160002 -1.064 0.34
-3.414 5.1149998 -1.066 0.34
-3.4300001 5.1040001 -1.066 0.34999999
-3.451 5.0999999 -1.068 0.34
-3.484 5.1129999 -1.073 0.38
-3.4920001 5.1079998 -1.073 0.33000001
-3.5120001 5.1030002 -1.075 0.34
-3.5420001 5.1110001 -1.079 0.34
-3.562 5.1069999 -1.081 0.34
-3.592 5.1149998 -1.086 0.34
-3.6070001 5.1020002 -1.085 0.34
-3.632 5.1030002 -1.0880001 0.34
-3.648 5.1079998 -1.091 0.34999999
-3.6719999 5.1079998 -1.094 0.36000001
-3.6919999 5.1009998 -1.095 0.36000001
-3.7219999 5.1090002 -1.099 0.36000001
-3.7379999 5.0970001 -1.099 0.34
-3.7639999 5.099 -1.103 0.34999999
-3.7880001 5.099 -1.105 0.34999999
-3.8050001 5.1040001 -1.108 0.34
-3.829 5.1030002 -1.1109999 0.34
-3.8529999 5.1009998 -1.113 0.38
-3.8759999 5.099 -1.1160001 0.33000001
-3.9000001 5.0960002 -1.118 0.34999999
-3.9300001 5.1020002 -1.122 0.34
-3.9549999 5.1009998 -1.125 0.34
-3.9649999 5.0970001 -1.126 0.34999999
-3.99 5.0960002 -1.1289999 0.34
-4.0159998 5.0970001 -1.132 0.34
-4.039 5.092 -1.1339999 0.34999999
-4.066 5.0929999 -1.137 0.38999999
-4.0890002 5.0890002 -1.14 0.33000001
-4.1160002 5.0900002 -1.143 0.34
-4.1290002 5.0900002 -1.1440001 0.34999999
-4.1630001 5.098 -1.15 0.34999999
-4.1799998 5.0869999 -1.15 0.34
-4.2069998 5.0869999 -1.154 0.34999999
-4.2410002 5.0949998 -1.159 0.34999999
-4.2589998 5.0840001 -1.16 0.36000001
-4.2810001 5.0939999 -1.164 0.34
-4.3049998 5.0900002 -1.166 0.34
-4.3280001 5.085 -1.168 0.34999999
-4.3569999 5.086 -1.1720001 0.34
-4.3850002 5.086 -1.176 0.36000001
-4.414 5.0869999 -1.179 0.34999999
-4.4349999 5.079 -1.181 0.36000001
-4.4640002 5.0949998 -1.187 0.34999999
-4.4860001 5.0890002 -1.189 0.34
-4.5110002 5.085 -1.192 0.34
-4.5430002 5.0879998 -1.196 0.34
-4.5689998 5.086 -1.199 0.34999999
-4.5970001 5.0840001 -1.2029999 0.34
-4.6269999 5.0840001 -1.206 0.34
-4.645 5.0890002 -1.21 0.34
-4.678 5.0929999 -1.214 0.34999999
-4.7049999 5.0890002 -1.217 0.34
-4.7259998 5.0799999 -1.219 0.34
-4.756 5.0799999 -1.223 0.37
-4.7909999 5.085 -1.228 0.36000001
-4.8109999 5.0739999 -1.229 0.31999999
-4.8439999 5.0770001 -1.234 0.34
-4.8629999 5.0809999 -1.237 0.34
-4.8969998 5.0840001 -1.242 0.34
-4.9250002 5.0809999 -1.2460001 0.34
-4.9549999 5.0799999 -1.249 0.34
-4.9819999 5.0749998 -1.252 0.34
-5.0170002 5.079 -1.258 0.38
-5.0419998 5.0879998 -1.262 0.33000001
-5.066 5.0799999 -1.265 0.34
-5.0949998 5.0770001 -1.268 0.34
-5.1339998 5.0840001 -1.275 0.34
-5.164 5.0819998 -1.278 0.34
-5.1929998 5.0780001 -1.2819999 0.34
-5.2259998 5.0780001 -1.286 0.34
-5.2480001 5.0830002 -1.29 0.37
-5.2750001 5.0780001 -1.293 0.33000001
-5.3099999 5.0780001 -1.298 0.34
-5.336 5.0710001 -1.301 0.38
-5.3790002 5.0799999 -1.308 0.33000001
-5.4130001 5.0799999 -1.313 0.34
-5.4320002 5.066 -1.314 0.37
-5.4590001 5.0749998 -1.319 0.33000001
-5.494 5.0749998 -1.324 0.34
-5.5229998 5.0700002 -1.327 0.34
-5.5599999 5.072 -1.3329999 0.34
-5.598 5.0739999 -1.3380001 0.34
-5.6209998 5.0630002 -1.34 0.34
-5.658 5.0640001 -1.346 0.37
-5.6890001 5.0760002 -1.352 0.33000001
-5.7140002 5.0650001 -1.354 0.34
-5.757 5.0710001 -1.3609999 0.37
-5.7950001 5.072 -1.367 0.36000001
-5.8210001 5.0630002 -1.369 0.36000001
-5.8520002 5.0570002 -1.373 0.33000001
-5.902 5.0679998 -1.382 0.37
-5.9260001 5.073 -1.386 0.36000001
-5.9559999 5.066 -1.3890001 0.36000001
-6.0029998 5.073 -1.397 0.36000001
-6.033 5.066 -1.401 0.36000001
-6.0609999 5.0570002 -1.404 0.36000001
-6.1100001 5.0650001 -1.4119999 0.31999999
-6.138 5.0560002 -1.415 0.37
-6.1659999 5.0619998 -1.42 0.33000001
-6.2150002 5.0700002 -1.428 0.37
-6.2389998 5.0570002 -1.4299999 0.36000001
-6.2820001 5.059 -1.437 0.36000001
-6.3179998 5.0549998 -1.442 0.36000001
-6.348 5.0469999 -1.446 0.36000001
-6.3990002 5.0539999 -1.454 0.34999999
-6.4250002 5.059 -1.459 0.34999999
-6.4580002 5.052 -1.4630001 0.36000001
-6.5019999 5.053 -1.47 0.36000001
-6.5450001 5.053 -1.476 0.34
-6.5809999 5.0479999 -1.4809999 0.31999999
-6.645 5.0640001 -1.493 0.46000001
-6.8829999 5.2270002 -1.549 0.31
-6.9889998 5.2729998 -1.571 0.28
-7.0339999 5.2719998 -1.577 0.36000001
-7.0929999 5.2820001 -1.5880001 0.31999999
-7.1240001 5.27 -1.591 0.31999999
-7.1690001 5.2680001 -1.598 0.33000001
-7.2270002 5.276 -1.608 0.31999999
-7.2529998 5.277 -1.612 0.28999999
-7.2950001 5.2719998 -1.618 0.34
-7.342 5.2709999 -1.625 0.28
-7.3839998 5.2659998 -1.631 0.25999999
-7.421 5.2579999 -1.636 0.31
-7.4619999 5.2509999 -1.642 0.43000001
-7.4510002 5.2090001 -1.636 0.38
-7.4450002 5.1869998 -1.632 0.37
-7.4429998 5.151 -1.628 0.37
-7.4349999 5.1110001 -1.622 0.36000001
-7.4400001 5.0799999 -1.62 0.37
-7.4549999 5.0570002 -1.62 0.41
-7.4809999 5.04 -1.622 0.34
-7.5279999 5.0370002 -1.6289999 0.33000001
-7.5770001 5.052 -1.6390001 0.33000001
-7.6160002 5.0440001 -1.6440001 0.33000001
-7.671 5.0450001 -1.653 0.33000001
-7.7179999 5.0419998 -1.66 0.33000001
-7.7620001 5.0349998 -1.6670001 0.36000001
-7.816 5.0349998 -1.676 0.36000001
-7.868 5.0339999 -1.684 0.34999999
-7.8959999 5.0339999 -1.688 0.34
-7.948 5.0320001 -1.697 0.34999999
-8.0220003 5.0440001 -1.71 0.38999999
-8.0509996 5.027 -1.7130001 0.36000001
-8.0699997 5.0040002 -1.714 0.28999999
-8.1090002 4.993 -1.719 0.27000001
-8.1129999 4.96 -1.717 0.19
-8.1479998 4.9629998 -1.723 0.27000001
-8.1669998 4.9400001 -1.723 0.23
-8.1759996 4.9099998 -1.722 0.18000001
-8.2159996 4.8990002 -1.728 0.25999999
-8.2399998 4.8790002 -1.73 0.19
-8.2550001 4.8530002 -1.73 0.25
-8.2690001 4.8260002 -1.729 0.18000001
-8.3050003 4.829 -1.7359999 0.25
-8.302 4.7930002 -1.7309999 0.16
-8.3319998 4.7750001 -1.735 0.23999999
-8.3470001 4.7490001 -1.735 0.16
-8.3669996 4.7259998 -1.7359999 0.23999999
-8.3889999 4.7030001 -1.738 0.17
-8.4219999 4.6869998 -1.742 0.25
-8.4060001 4.6609998 -1.7359999 0.17
-8.4429998 4.6469998 -1.7410001 0.23999999
-8.4709997 4.6269999 -1.744 0.19
-8.4890003 4.6030002 -1.745 0.12
-8.4899998 4.5689998 -1.742 0.2
-8.5059996 4.5430002 -1.742 0.14
-8.5459995 4.5300002 -1.748 0.28999999
-8.5570002 4.5180001 -1.749 0.22
-8.592 4.5019999 -1.753 0.12
-8.5950003 4.4699998 -1.751 0.18000001
-8.6129999 4.4450002 -1.752 0.050000001
-8.6269999 4.4169998 -1.752 0
-6.625 3.2309999 -1.303 0
-6.6209998 3.2030001 -1.3 0
-6.6350002 3.197 -1.301 0
-6.6199999 3.164 -1.296 0
-6.6199999 3.138 -1.294 0
-6.6560001 3.1300001 -1.3 0
-6.6040001 3.0799999 -1.286 0.02
-6.6040001 3.0550001 -1.284 0.15000001
-6.625 3.039 -1.2869999 0.20999999
-6.6199999 3.0250001 -1.285 0.28999999
-6.6139998 2.997 -1.281 0.25
-6.6269999 2.9779999 -1.2819999 0.30000001
-6.6199999 2.95 -1.279 0.2
-6.6129999 2.9219999 -1.275 0.20999999
-6.6350002 2.9070001 -1.278 0
-6.6059999 2.869 -1.27 0
-6.6090002 2.858 -1.27 0
-6.6139998 2.836 -1.2690001 0
-6.6059999 2.8080001 -1.265 0
-6.6100001 2.7850001 -1.2640001 0
-6.6149998 2.763 -1.263 0
-6.6139998 2.7379999 -1.262 0
-6.6409998 2.7249999 -1.265 0
-6.631 2.7090001 -1.262 0
-6.6279998 2.6830001 -1.26 0
-6.6370001 2.6630001 -1.26 0
-6.6529999 2.645 -1.262 0
-6.6389999 2.615 -1.257 0
-6.6420002 2.592 -1.256 0
-6.658 2.5869999 -1.2589999 0
-6.6479998 2.559 -1.255 0
-6.645 2.5339999 -1.252 0
-6.6599998 2.516 -1.2539999 0
-6.6680002 2.4949999 -1.2539999 0
-6.6719999 2.4719999 -1.253 0
-6.6729999 2.4489999 -1.252 0
-6.671 2.4360001 -1.251 0
-6.684 2.4170001 -1.252 0
-6.6919999 2.3959999 -1.252 0
-6.723 2.3840001 -1.257 0
-6.7220001 2.359 -1.255 0.02
-6.7789998 2.355 -1.265 0.14
-6.809 2.342 -1.27 0.2
-6.8049998 2.3280001 -1.268 0.34999999
-6.7690001 2.293 -1.2589999 0.22
-6.7930002 2.277 -1.263 0.2
-6.8099999 2.2590001 -1.265 0.38
-6.8000002 2.2320001 -1.261 0.34
-6.9679999 2.2620001 -1.294 0.74000001
-6.8249998 2.1930001 -1.263 0.28
-6.8959999 2.2030001 -1.277 0.23999999
-6.9419999 2.194 -1.285 0.51999998
-6.9699998 2.178 -1.289 0.31999999
-6.9580002 2.151 -1.286 0.34
-6.7670002 2.069 -1.2460001 0
-6.875 2.0780001 -1.266 0
-6.848 2.0469999 -1.2589999 0
-6.8449998 2.0339999 -1.258 0
-7.2750001 1.926 -1.3329999 0
-7.4070001 1.936 -1.358 0
-7.5100002 1.937 -1.377 0
-7.5359998 1.931 -1.382 0
-7.599 1.9220001 -1.393 0
-7.6719999 1.914 -1.406 0
-7.8000002 1.92 -1.431 0
-10.143 2.237 -1.887 0
-10.139 2.2019999 -1.8839999 0
-9.9119997 2.1370001 -1.839 0
-9.7419996 2.069 -1.804 0
-9.7419996 2.0369999 -1.803 0
-9.7580004 2.0090001 -1.804 0
-9.7449999 1.974 -1.801 0
-9.757 1.9450001 -1.802 0
-9.8369999 1.928 -1.816 0
-10.023 1.948 -1.852 0
-10.118 1.933 -1.87 0
-10.129 1.902 -1.8710001 0
-10.11 1.8660001 -1.8660001 0
-10.128 1.836 -1.868 0
-10.126 1.803 -1.867 0
-10.137 1.772 -1.868 0
-10.105 1.75 -1.8609999 0
-10.134 1.723 -1.8660001 0
-10.075 1.6799999 -1.853 0
-10.105 1.653 -1.858 0
-10.072 1.615 -1.85 0
-10.075 1.5829999 -1.85 0
-10.029 1.543 -1.84 0
-10.076 1.534 -1.849 0
-10.021 1.494 -1.837 0
-10.053 1.466 -1.842 0
-10.03 1.431 -1.837 0
-10.015 1.397 -1.8329999 0
-10.012 1.364 -1.832 0
-10.032 1.335 -1.835 0
-10.014 1.317 -1.831 0
-10.026 1.286 -1.8329999 0
-10.04 1.256 -1.834 0
-10.038 1.223 -1.8329999 0
-10.038 1.191 -1.8329999 0
-10.055 1.161 -1.835 0
-10.043 1.128 -1.832 0
-10.072 1.115 -1.837 0
-10.07 1.0829999 -1.836 0
-10.069 1.051 -1.836 0
-10.061 1.018 -1.8329999 0
-10.07 0.98699999 -1.834 0
-10.049 0.95300001 -1.83 0
-10.052 0.92199999 -1.83 0
-10.013 0.90200001 -1.822 0
-10.039 0.87300003 -1.826 0
-10.03 0.83999997 -1.824 0
-10.036 0.80900002 -1.825 0
-10.041 0.778 -1.825 0
-10.033 0.74599999 -1.823 0
-10.036 0.73000002 -1.824 0
-10.029 0.69800001 -1.822 0
-10.033 0.66600001 -1.822 0
-10.027 0.634 -1.821 0
-10.023 0.60299999 -1.8200001 0
-10.017 0.57099998 -1.818 0
-10.037 0.54000002 -1.822 0
-10.006 0.523 -1.8150001 0
-10.006 0.491 -1.8150001 0
-10.013 0.46000001 -1.816 0
-9.9969997 0.428 -1.813 0
-10.006 0.39700001 -1.814 0
-10.015 0.366 -1.816 0
-10 0.33399999 -1.813 0
-9.9750004 0.317 -1.808 0
-10.008 0.287 -1.814 0
-9.9560003 0.25400001 -1.804 0
-9.9940004 0.223 -1.811 0
-9.9729996 0.192 -1.807 0
-9.9910002 0.161 -1.8099999 0
-9.9580002 0.12899999 -1.804 0
-9.9759998 0.113 -1.807 0
-9.9960003 0.082000002 -1.811 0
-9.9610004 0.050999999 -1.804 0
-9.9960003 0.018999999 -1.811 0
-9.9469995 -0.012 -1.801 0
-9.9799995 -0.043000001 -1.808 0
-9.9630003 -0.075000003 -1.804 0
-9.9860001 -0.090000004 -1.809 0
-9.9420004 -0.121 -1.801 0
-9.9750004 -0.153 -1.807 0
-9.9569998 -0.184 -1.804 0
-9.9610004 -0.215 -1.804 0
-9.9320002 -0.24600001 -1.799 0
-9.9610004 -0.278 -1.8049999 0
-9.9390001 -0.29300001 -1.801 0
-9.9890003 -0.32600001 -1.811 0
-9.9490004 -0.35600001 -1.803 0
-9.9589996 -0.38800001 -1.8049999 0
-9.9759998 -0.41999999 -1.809 0
-9.9610004 -0.44999999 -1.806 0
-9.9729996 -0.48199999 -1.809 0
-9.9449997 -0.49700001 -1.803 0
-9.9680004 -0.52899998 -1.808 0
-9.9610004 -0.56 -1.807 0
-9.9750004 -0.59200001 -1.8099999 0
-9.9589996 -0.62300003 -1.807 0
-9.967 -0.65499997 -1.809 0
-9.9420004 -0.66900003 -1.8049999 0
-9.9659996 -0.70200002 -1.8099999 0
-9.9650002 -0.73299998 -1.8099999 0
-9.9650002 -0.76499999 -1.811 0
-9.9630003 -0.796 -1.811 0
-9.9639997 -0.82800001 -1.811 0
-9.9399996 -0.85699999 -1.807 0
-9.9680004 -0.875 -1.813 0
-9.941 -0.90499997 -1.808 0
-9.9779997 -0.94 -1.816 0
-9.9689999 -0.97000003 -1.8150001 0
-9.9440002 -0.99900001 -1.811 0
-9.9879999 -1.036 -1.8200001 0
-9.9689999 -1.0650001 -1.817 0
-9.9910002 -1.084 -1.821 0
-9.9849997 -1.115 -1.821 0
-9.9560003 -1.143 -1.816 0
-10 -1.1799999 -1.825 0
-9.9940004 -1.211 -1.825 0
-9.9759998 -1.2410001 -1.822 0
-9.9960003 -1.275 -1.826 0
-9.9940004 -1.291 -1.826 0
-9.552 -1.248 -1.7410001 0
-9.552 -1.278 -1.7410001 0
-9.5439997 -1.308 -1.7410001 0
-9.5450001 -1.339 -1.742 0
-9.533 -1.368 -1.74 0
-9.533 -1.383 -1.7410001 0
-9.5229998 -1.4119999 -1.739 0
-9.526 -1.443 -1.7410001 0
-9.5489998 -1.477 -1.7460001 0
-9.54 -1.507 -1.7460001 0
-9.5430002 -1.538 -1.747 0
-9.5380001 -1.568 -1.747 0
-9.5360003 -1.5829999 -1.747 0
-9.5419998 -1.615 -1.749 0
-9.5430002 -1.646 -1.75 0
-9.5500002 -1.678 -1.753 0
-9.54 -1.707 -1.752 0
-9.5389996 -1.738 -1.753 0
-9.5430002 -1.7690001 -1.755 0
-9.5539999 -1.7869999 -1.757 0
-9.5500002 -1.817 -1.758 0
-9.5500002 -1.849 -1.7589999 0
-9.5380001 -1.877 -1.758 0
-9.5270004 -1.906 -1.757 0
-9.526 -1.937 -1.758 0
-9.5360003 -1.97 -1.761 0
-9.5170002 -1.982 -1.758 0
-9.5340004 -2.017 -1.762 0
-9.5100002 -2.043 -1.7589999 0
-9.5439997 -2.082 -1.767 0
-9.5139999 -2.1070001 -1.762 0
-9.54 -2.1440001 -1.7690001 0
-9.5139999 -2.154 -1.7640001 0
-9.5419998 -2.1919999 -1.771 0
-9.5100002 -2.2160001 -1.766 0
-9.5120001 -2.2479999 -1.768 0
-9.5170002 -2.2809999 -1.77 0
-9.5249996 -2.3139999 -1.773 0
-9.5380001 -2.349 -1.777 0
-9.5369997 -2.365 -1.778 0
-9.533 -2.3959999 -1.779 0
-9.5410004 -2.4300001 -1.7819999 0
-9.5500002 -2.464 -1.785 0
-9.5539999 -2.497 -1.7869999 0
-9.5550003 -2.529 -1.789 0
-9.5550003 -2.562 -1.791 0
-9.566 -2.5810001 -1.794 0.059999999
-9.5790005 -2.6159999 -1.798 0.039999999
-9.5799999 -2.6489999 -1.8 0.07
-9.6020002 -2.688 -1.806 0.079999998
-9.5869999 -2.7160001 -1.8049999 0.18000001
-9.5369997 -2.734 -1.796 0.19
-9.5489998 -2.77 -1.801 0.059999999
-9.5769997 -2.7950001 -1.807 0.16
-9.5930004 -2.832 -1.812 0.11
-9.5799999 -2.8610001 -1.811 0.2
-9.5819998 -2.895 -1.814 0.23999999
-9.5240002 -2.9100001 -1.804 0.12
-9.4230003 -2.911 -1.785 0.20999999
-9.3669996 -2.9260001 -1.776 0.19
-9.2709999 -2.9119999 -1.757 0.17
-9.2019997 -2.921 -1.745 0.18000001
-9.1549997 -2.938 -1.737 0.16
-9.1090002 -2.9549999 -1.73 0.039999999
-9.1049995 -2.9849999 -1.7309999 0.07
-9.1110001 -3.0190001 -1.734 0.15000001
-9.092 -3.0439999 -1.732 0.16
-9.0740004 -3.0539999 -1.729 0.14
-9.0830002 -3.089 -1.733 0.28
-9.0559998 -3.112 -1.73 0.2
-9.0600004 -3.145 -1.732 0.050000001
-9.066 -3.1789999 -1.7359999 0.16
-9.0530005 -3.2060001 -1.735 0.050000001
-9.0380001 -3.217 -1.733 0.16
-9.0539999 -3.2550001 -1.738 0.19
-9.0290003 -3.2780001 -1.735 0.090000004
-9.0190001 -3.306 -1.735 0.16
-9.0170002 -3.3380001 -1.737 0.22
-8.9759998 -3.3540001 -1.7309999 0.2
-8.967 -3.3829999 -1.7309999 0.059999999
-8.9820004 -3.405 -1.735 0.16
-8.9709997 -3.4330001 -1.735 0.050000001
-8.9449997 -3.4560001 -1.732 0.15000001
-8.96 -3.494 -1.738 0.050000001
-8.9350004 -3.516 -1.734 0.15000001
-8.9429998 -3.552 -1.739 0.050000001
-8.941 -3.5840001 -1.7410001 0.15000001
-8.9390001 -3.5999999 -1.7410001 0.050000001
-8.9230003 -3.625 -1.74 0.15000001
-8.9309998 -3.6619999 -1.744 0.050000001
-8.9090004 -3.6849999 -1.742 0.16
-8.9300003 -3.727 -1.749 0.18000001
-8.9200001 -3.756 -1.749 0.1
-8.9099998 -3.7850001 -1.75 0.16
-8.8979998 -3.796 -1.749 0.050000001
-8.8900003 -3.826 -1.749 0.16
-8.8889999 -3.858 -1.752 0.2
-8.8760004 -3.8859999 -1.752 0.1
-8.8730001 -3.918 -1.753 0.15000001
-8.8520002 -3.9419999 -1.752 0.23999999
-8.8269997 -3.964 -1.749 0.2
-8.8330002 -3.984 -1.752 0.050000001
-8.8100004 -4.006 -1.749 0.16
-8.8009996 -4.0359998 -1.75 0.2
-8.802 -4.0700002 -1.753 0.1
-8.7770004 -4.092 -1.75 0.15000001
-8.7589998 -4.1170001 -1.749 0.050000001
-8.7399998 -4.125 -1.747 0.16
-8.7309999 -4.1539998 -1.747 0.050000001
-8.7139997 -4.1789999 -1.747 0.16
-8.7150002 -4.2140002 -1.75 0.2
-8.6999998 -4.2399998 -1.749 0.1
-8.6809998 -4.2649999 -1.748 0.15000001
-8.6590004 -4.2880001 -1.7460001 0.050000001
-8.6350002 -4.2930002 -1.742 0.17
-8.6400003 -4.329 -1.747 0.1
-8.618 -4.3520002 -1.745 0.16
-8.5869999 -4.3699999 -1.7410001 0.050000001
-8.5710001 -4.3959999 -1.7410001 0.17
-8.566 -4.428 -1.742 0.2
-8.533 -4.4450002 -1.738 0.090000004
-8.5240002 -4.4569998 -1.738 0.15000001
-8.5170002 -4.487 -1.739 0.22
-8.4960003 -4.5100002 -1.738 0.1
-8.4659996 -4.5289998 -1.734 0.16
-8.4379997 -4.5479999 -1.7309999 0.050000001
-8.4099998 -4.5669999 -1.728 0.17
-8.4040003 -4.598 -1.73 0.2
-8.3870001 -4.605 -1.728 0.1
-8.3640003 -4.6269999 -1.726 0.16
-8.3479996 -4.652 -1.726 0.050000001
-8.3170004 -4.6700001 -1.722 0.16
-8.3100004 -4.6999998 -1.724 0.2
-8.2930002 -4.7249999 -1.723 0.1
-8.2819996 -4.7529998 -1.724 0.16
-8.2609997 -4.7579999 -1.721 0.050000001
-8.2349997 -4.7779999 -1.719 0.18000001
-8.2469997 -4.8200002 -1.725 0.1
-8.2150002 -4.836 -1.721 0.18000001
-8.2189999 -4.8730001 -1.725 0.11
-8.2069998 -4.9000001 -1.726 0.17
-8.1940002 -4.9099998 -1.725 0.050000001
-8.1619997 -4.9260001 -1.721 0.17
-8.1529999 -4.9549999 -1.723 0.2
-8.1359997 -4.98 -1.722 0.1
-8.1079998 -4.9980001 -1.72 0.14
-8.1020002 -5.0300002 -1.722 0.050000001
-8.0699997 -5.0450001 -1.7180001 0.17
-8.0839996 -5.0710001 -1.723 0.2
-8.1009998 -5.118 -1.7309999 0
-8.0749998 -5.1370001 -1.728 0
-8.0679998 -5.1680002 -1.7309999 0
-8.0839996 -5.2140002 -1.738 0
-3.1289999 -2.7980001 -0.68800002 0
-3.1259999 -2.813 -0.69 0
-3.1329999 -2.829 -0.69300002 0
-3.132 -2.845 -0.69499999 0
-3.118 -2.8510001 -0.69400001 0
-3.112 -2.8640001 -0.69400001 0
-1.062 -3.2449999 -0.537 0
-1.053 -3.25 -0.537 0
-1.041 -3.2479999 -0.53600001 0
-2.3989999 -7.6849999 -1.434 0.029999999
-2.4130001 -7.7750001 -1.452 0.11
-1.9299999 -6.2719998 -1.146 0.14
-1.875 -6.1589999 -1.122 0.19
-1.773 -5.8860002 -1.066 0.20999999
-1.697 -5.6960001 -1.026 0.28999999
-1.732 -5.882 -1.063 0.28999999
-1.723 -5.8850002 -1.063 0.36000001
-1.692 -5.8470001 -1.054 0.27000001
-2.5 -8.79 -1.645 0.19
-2.49 -8.8620005 -1.658 0.25
-2.3900001 -8.6059999 -1.605 0.13
-1.842 -6.6939998 -1.22 0.28999999
-1.681 -6.1760001 -1.115 0.19
-1.608 -5.9400001 -1.067 0.30000001
-1.584 -5.9260001 -1.063 0.28999999
-1.567 -5.9380002 -1.0650001 0.30000001
-1.536 -5.8959999 -1.0549999 0.30000001
-1.494 -5.8049998 -1.036 0.28999999
-1.469 -5.7849998 -1.031 0.34999999
-1.451 -5.7880001 -1.031 0.31999999
-1.446 -5.809 -1.035 0.34
-1.4349999 -5.8439999 -1.041 0.28999999
-1.426 -5.8870001 -1.048 0.18000001
-1.4630001 -6.1290002 -1.095 0.31
-1.3839999 -5.875 -1.044 0.23
-1.35 -5.8099999 -1.03 0.28
-1.325 -5.7399998 -1.016 0.28999999
-1.301 -5.717 -1.011 0.23
-1.268 -5.6560001 -0.99800003 0.34
-1.255 -5.6810002 -1.002 0.34
-1.258 -5.7810001 -1.021 0.25
-1.212 -5.652 -0.995 0.27000001
-1.184 -5.6059999 -0.98500001 0.25999999
-1.165 -5.5599999 -0.97500002 0.31999999
-1.1109999 -5.382 -0.94 0.25999999
-1.094 -5.3839998 -0.93900001 0.38
-1.081 -5.408 -0.94300002 0.28999999
-1.05 -5.3369999 -0.92900002 0.31999999
-1.027 -5.309 -0.92199999 0.34
-1.011 -5.3140001 -0.92299998 0.31
-1.005 -5.3309999 -0.926 0.36000001
-0.98699999 -5.3249998 -0.92400002 0.28999999
-0.972 -5.3410001 -0.92699999 0.36000001
-0.95599997 -5.3499999 -0.92799997 0.28999999
-0.94099998 -5.3629999 -0.93000001 0.37
-0.92199999 -5.3520002 -0.92699999 0.34
-0.90600002 -5.3590002 -0.92799997 0.31999999
-0.89600003 -5.3509998 -0.926 0.31999999
-0.87699997 -5.3400002 -0.92299998 0.31
-0.85500002 -5.3080001 -0.91600001 0.31
-0.83700001 -5.3039999 -0.91500002 0.37
-0.82200003 -5.3150001 -0.917 0.31999999
-0.80800003 -5.335 -0.92000002 0.31
-0.79900002 -5.336 -0.92000002 0.28999999
-0.78299999 -5.3410001 -0.921 0.27000001
-0.77100003 -5.382 -0.92799997 0.37
-0.75300002 -5.375 -0.926 0.27000001
-0.73299998 -5.3540001 -0.92199999 0.28999999
-0.70599997 -5.2719998 -0.90499997 0.30000001
-0.69099998 -5.2880001 -0.90799999 0.34
-0.68199998 -5.283 -0.90700001 0.30000001
-0.667 -5.3049998 -0.91100001 0.30000001
-0.64999998 -5.303 -0.91000003 0.30000001
-0.63800001 -5.3400002 -0.917 0.31
-0.625 -5.3769999 -0.92400002 0.31
-0.61299998 -5.4239998 -0.93199998 0.34
-0.597 -5.4380002 -0.935 0.25
-0.59100002 -5.4640002 -0.94 0.16
-0.58899999 -5.618 -0.96899998 0.19
-0.56 -5.5029998 -0.94599998 0.16
-0.54799998 -5.5549998 -0.95599997 0.30000001
-0.50999999 -5.3379998 -0.91399997 0.20999999
-0.48899999 -5.2849998 -0.903 0.27000001
-0.47299999 -5.2919998 -0.90399998 0.28999999
-0.46599999 -5.309 -0.90700001 0.28999999
-0.44600001 -5.2690001 -0.89899999 0.25999999
-0.428 -5.2509999 -0.89600003 0.34
-0.41299999 -5.283 -0.90200001 0.27000001
-0.39899999 -5.3119998 -0.90700001 0.25999999
-0.38499999 -5.3540001 -0.91500002 0.28
-0.37599999 -5.3449998 -0.91299999 0.28
-0.35800001 -5.3379998 -0.91100001 0.31999999
-0.34 -5.316 -0.90700001 0.2
-0.333 -5.4819999 -0.93900001 0.15000001
-0.31999999 -5.573 -0.95599997 0.16
-0.29499999 -5.4169998 -0.926 0.23999999
-0.278 -5.4180002 -0.926 0.31999999
-0.27000001 -5.4400001 -0.93000001 0.37
-0.25299999 -5.4229999 -0.92699999 0.20999999
-0.241 -5.5770001 -0.95599997 0.25
-0.22 -5.4660001 -0.935 0.23
-0.20100001 -5.421 -0.926 0.27000001
-0.184 -5.408 -0.92299998 0.23
-0.16599999 -5.3660002 -0.91500002 0.14
-0.162 -5.5560002 -0.95200002 0.07
-0.14399999 -5.5469999 -0.94999999 0.16
-0.125 -5.4390001 -0.92900002 0.11
-0.107 -5.3969998 -0.921 0.31
-0.090000004 -5.3829999 -0.91799998 0.22
-0.074000001 -5.4310002 -0.92699999 0.23
-0.071999997 -6.4050002 -1.1160001 0.15000001
-0.050999999 -6.289 -1.0930001 0.059999999
-0.032000002 -6.2989998 -1.095 0.07
-0.012 -6.1729999 -1.071 0.079999998
0.0070000002 -6.152 -1.067 0.19
0.024 -5.9180002 -1.021 0.11
0.043000001 -5.902 -1.018 0.15000001
0.052000001 -5.8839998 -1.015 0.050000001
0.098999999 -7.6139998 -1.35 0.07
0.079000004 -5.3909998 -0.91900003 0.14
0.092 -5.2220001 -0.88700002 0.20999999
0.11 -5.2610002 -0.89399999 0.31
0.12800001 -5.329 -0.90799999 0.17
0.14 -5.1739998 -0.87800002 0.15000001
0.148 -5.164 -0.87599999 0.33000001
0.167 -5.2420001 -0.89099997 0.2
0.191 -5.4200001 -0.926 0.20999999
0.271 -6.8920002 -1.211 0.1
0.23199999 -5.585 -0.958 0.18000001
0.25 -5.5840001 -0.958 0.30000001
0.25 -5.415 -0.92500001 0.23
0.26199999 -5.3169999 -0.90600002 0.31999999
0.28600001 -5.4510002 -0.93199998 0.28999999
0.303 -5.4499998 -0.93199998 0.30000001
0.31999999 -5.4450002 -0.93199998 0.25
0.331 -5.3499999 -0.91299999 0.25999999
0.34299999 -5.2820001 -0.89999998 0.31999999
0.34999999 -5.256 -0.89600003 0.34
0.36399999 -5.2259998 -0.88999999 0.28
0.377 -5.1760001 -0.88 0.31
0.39500001 -5.1999998 -0.88499999 0.31999999
0.41 -5.1869998 -0.88300002 0.28999999
0.43200001 -5.2540002 -0.89600003 0.36000001
0.447 -5.2270002 -0.89099997 0.27000001
0.449 -5.164 -0.87900001 0.31999999
0.465 -5.1609998 -0.87900001 0.28999999
0.48300001 -5.1750002 -0.88200003 0.31
0.50099999 -5.1869998 -0.884 0.33000001
0.52100003 -5.224 -0.89200002 0.34999999
0.53799999 -5.2309999 -0.89399999 0.28
0.537 -5.1399999 -0.87599999 0.28999999
0.54900002 -5.1030002 -0.86900002 0.31999999
0.56699997 -5.119 -0.87300003 0.36000001
0.583 -5.119 -0.87300003 0.20999999
0.62300003 -5.3080001 -0.91000003 0.25999999
0.625 -5.1890001 -0.88800001 0.20999999
0.63 -5.1059999 -0.87199998 0.25999999
0.63700002 -5.0910001 -0.86900002 0.31999999
0.65100002 -5.073 -0.866 0.28999999
0.667 -5.073 -0.866 0.34
0.68400002 -5.079 -0.86799997 0.34999999
0.704 -5.1059999 -0.87300003 0.30000001
0.72399998 -5.1329999 -0.87900001 0.28999999
0.73900002 -5.125 -0.87800002 0.33000001
0.74599999 -5.1160002 -0.87599999 0.23999999
0.76800001 -5.152 -0.884 0.34
0.78600001 -5.1609998 -0.88599998 0.34
0.80199999 -5.1550002 -0.88599998 0.28
0.81900001 -5.158 -0.88700002 0.30000001
0.82599998 -5.1009998 -0.87599999 0.31999999
0.84299999 -5.105 -0.87699997 0.30000001
0.852 -5.105 -0.87800002 0.27000001
0.86900002 -5.1100001 -0.87900001 0.34999999
0.88499999 -5.1090002 -0.88 0.31999999
0.90399998 -5.1199999 -0.88200003 0.30000001
0.92500001 -5.1459999 -0.88800001 0.36000001
0.93800002 -5.1259999 -0.884 0.30000001
0.94800001 -5.1360002 -0.88700002 0.34
0.98799998 -5.2529998 -0.91000003 0.25
1.006 -5.257 -0.912 0.28
1.01 -5.1939998 -0.89999998 0.25999999
1.017 -5.1430001 -0.89099997 0.30000001
1.027 -5.1129999 -0.88499999 0.31999999
1.046 -5.1230001 -0.88800001 0.31999999
1.058 -5.1409998 -0.89200002 0.31999999
1.082 -5.1719999 -0.89899999 0.31
1.114 -5.2410002 -0.91299999 0.28
1.115 -5.1690001 -0.89899999 0.28999999
1.13 -5.1589999 -0.898 0.33000001
1.143 -5.1389999 -0.89499998 0.31
1.164 -5.1599998 -0.89999998 0.30000001
1.1619999 -5.1139998 -0.89099997 0.31
1.177 -5.1069999 -0.88999999 0.28999999
1.198 -5.1199999 -0.89399999 0.31999999
1.22 -5.1409998 -0.89899999 0.34999999
1.2690001 -5.2709999 -0.92500001 0.23
1.316 -5.3899999 -0.94999999 0.28999999
1.316 -5.3559999 -0.94300002 0.28999999
1.317 -5.289 -0.93099999 0.31999999
1.347 -5.3340001 -0.94099998 0.34
1.339 -5.237 -0.92199999 0.28
1.3559999 -5.237 -0.92299998 0.33000001
1.362 -5.191 -0.91500002 0.31
1.3559999 -5.1069999 -0.89899999 0.27000001
1.3710001 -5.1290002 -0.903 0.38
1.392 -5.1399999 -0.90700001 0.31
1.3940001 -5.0879998 -0.89700001 0.30000001
1.438 -5.1820002 -0.917 0.28999999
1.5039999 -5.349 -0.95099998 0.23
1.485 -5.2220001 -0.92699999 0.27000001
1.493 -5.1890001 -0.921 0.33000001
1.484 -5.1279998 -0.90899998 0.25999999
1.482 -5.0630002 -0.89700001 0.30000001
1.4960001 -5.0510001 -0.89600003 0.31
1.523 -5.0819998 -0.903 0.34999999
1.546 -5.1020002 -0.90799999 0.25999999
1.581 -5.1589999 -0.92000002 0.38
1.596 -5.1479998 -0.91900003 0.31999999
1.59 -5.1030002 -0.91000003 0.31999999
1.632 -5.178 -0.92699999 0.31999999
1.646 -5.1669998 -0.926 0.30000001
1.6849999 -5.2290001 -0.93900001 0.28
1.723 -5.289 -0.95300001 0.28999999
1.757 -5.336 -0.963 0.38999999
1.761 -5.322 -0.96100003 0.25
1.77 -5.2940001 -0.95599997 0.28
1.784 -5.2789998 -0.954 0.31999999
1.798 -5.2659998 -0.95300001 0.36000001
1.803 -5.2290001 -0.94599998 0.28999999
1.836 -5.2680001 -0.95599997 0.34
1.825 -5.211 -0.94499999 0.30000001
1.839 -5.1999998 -0.94300002 0.31
1.869 -5.2309999 -0.95099998 0.30000001
1.882 -5.2160001 -0.949 0.30000001
1.882 -5.1659999 -0.94 0.34
1.888 -5.132 -0.93400002 0.25
1.888 -5.0840001 -0.926 0.36000001
1.896 -5.0809999 -0.926 0.34
1.9220001 -5.1020002 -0.93099999 0.33000001
1.956 -5.1420002 -0.94099998 0.28999999
1.974 -5.1420002 -0.94199997 0.28
1.995 -5.1459999 -0.94400001 0.34999999
2.007 -5.1290002 -0.94199997 0.34
2.0250001 -5.1279998 -0.94300002 0.33000001
2.0420001 -5.1469998 -0.94800001 0.34
2.0439999 -5.1059999 -0.94 0.30000001
2.062 -5.105 -0.94199997 0.31999999
2.089 -5.1240001 -0.94700003 0.38999999
2.098 -5.1009998 -0.94300002 0.31
2.1059999 -5.0739999 -0.93900001 0.38
2.1289999 -5.086 -0.94300002 0.25999999
2.145 -5.0999999 -0.94700003 0.34999999
2.1600001 -5.092 -0.94599998 0.28999999
2.1789999 -5.092 -0.94800001 0.38
2.191 -5.0760002 -0.94599998 0.28999999
2.2060001 -5.0679998 -0.94599998 0.34999999
2.2360001 -5.0910001 -0.95200002 0.37
2.2590001 -5.1220002 -0.95899999 0.34
2.2780001 -5.1220002 -0.96100003 0.28999999
2.2950001 -5.1160002 -0.96100003 0.31
2.312 -5.1110001 -0.96200001 0.28
2.325 -5.0970001 -0.95999998 0.31999999
2.3640001 -5.1389999 -0.97100002 0.28
2.385 -5.1409998 -0.97299999 0.34999999
2.395 -5.1420002 -0.97399998 0.28999999
2.4319999 -5.1789999 -0.98299998 0.25999999
2.507 -5.2930002 -1.01 0.25999999
2.569 -5.3790002 -1.03 0.34
2.5739999 -5.3460002 -1.024 0.30000001
2.6029999 -5.3629999 -1.03 0.33000001
2.6059999 -5.3270001 -1.024 0.28
2.605 -5.3049998 -1.02 0.28
2.4790001 -5.0100002 -0.958 0.17
2.4579999 -4.9310002 -0.94199997 0.14
2.483 -4.941 -0.94599998 0.27000001
2.4890001 -4.915 -0.94199997 0.19
2.5050001 -4.9070001 -0.94199997 0.13
2.5190001 -4.8979998 -0.94199997 0.2
2.5369999 -4.9130001 -0.94599998 0.050000001
2.5780001 -4.954 -0.95700002 0.079999998
4.1539998 -7.8889999 -1.602 0.25
4.1700001 -7.8590002 -1.598 0.17
4.2030001 -7.8610001 -1.601 0.23999999
4.2290001 -7.8499999 -1.602 0.18000001
4.2420001 -7.8449998 -1.602 0.25
4.2649999 -7.8280001 -1.601 0.19
4.3000002 -7.8340001 -1.6059999 0.12
4.3210001 -7.8150001 -1.604 0.18000001
4.3499999 -7.8080001 -1.6059999 0.12
4.375 -7.796 -1.6059999 0.18000001
4.3979998 -7.7789998 -1.6059999 0.12
4.4130001 -7.777 -1.607 0.18000001
4.4380002 -7.7649999 -1.607 0.12
4.4629998 -7.7509999 -1.607 0.18000001
4.4850001 -7.7329998 -1.6059999 0.12
4.5120001 -7.724 -1.608 0.19
4.54 -7.717 -1.609 0.11
4.5599999 -7.6939998 -1.607 0.2
4.585 -7.7090001 -1.612 0.11
4.5939999 -7.6690001 -1.6059999 0.18000001
4.6259999 -7.6680002 -1.609 0.11
4.6490002 -7.652 -1.609 0.18000001
4.6789999 -7.6469998 -1.6109999 0.11
4.6999998 -7.6279998 -1.61 0.18000001
4.7350001 -7.6290002 -1.614 0.11
4.7379999 -7.6090002 -1.6109999 0.17
4.7690001 -7.605 -1.614 0.22
4.7940001 -7.592 -1.614 0.1
4.8130002 -7.5689998 -1.612 0.15000001
4.848 -7.572 -1.6160001 0.059999999
4.8660002 -7.5469999 -1.614 0.18000001
4.881 -7.5440001 -1.615 0.11
4.908 -7.533 -1.6160001 0.16
4.9369998 -7.526 -1.618 0.20999999
4.961 -7.5120001 -1.619 0.16
4.9819999 -7.4920001 -1.617 0.050000001
5.0029998 -7.473 -1.617 0.17
5.033 -7.467 -1.619 0.11
5.0500002 -7.467 -1.6210001 0.17
5.0819998 -7.4619999 -1.623 0.23
5.0960002 -7.4330001 -1.62 0.16
5.131 -7.434 -1.624 0.059999999
5.152 -7.414 -1.623 0.18000001
5.177 -7.401 -1.624 0.11
5.1789999 -7.3790002 -1.6210001 0.18000001
5.2199998 -7.388 -1.627 0.11
5.2399998 -7.3670001 -1.626 0.18000001
5.27 -7.3600001 -1.628 0.20999999
5.289 -7.3379998 -1.627 0.16
5.3200002 -7.3330002 -1.63 0.23999999
5.342 -7.3140001 -1.6289999 0.19
5.362 -7.3169999 -1.632 0.22
5.3740001 -7.2859998 -1.628 0.16
5.4159999 -7.2940001 -1.635 0.23
5.4320002 -7.2680001 -1.632 0.18000001
5.4629998 -7.2620001 -1.635 0.23
5.4749999 -7.23 -1.631 0.19
5.5240002 -7.2470002 -1.64 0.25
5.5159998 -7.2140002 -1.6339999 0.23
5.539 -7.197 -1.6339999 0.16
5.5770001 -7.1989999 -1.6390001 0.25999999
5.586 -7.165 -1.635 0.18000001
5.632 -7.1760001 -1.642 0.25
5.6529999 -7.1570001 -1.641 0.23
5.645 -7.1240001 -1.635 0.18000001
5.6659999 -7.1040001 -1.635 0.25999999
5.6799998 -7.0760002 -1.632 0.23
5.6869998 -7.04 -1.628 0.17
5.7249999 -7.0409999 -1.633 0.27000001
5.7449999 -7.02 -1.632 0.22
5.7210002 -6.9460001 -1.618 0.27000001
5.7249999 -6.9299998 -1.6160001 0.28999999
5.7550001 -6.921 -1.618 0.31
5.7610002 -6.8850002 -1.614 0.27000001
5.7849998 -6.8699999 -1.614 0.38
5.8039999 -6.848 -1.614 0.27000001
5.7600002 -6.7540002 -1.594 0.28999999
5.7909999 -6.7459998 -1.597 0.2
5.8449998 -6.7880001 -1.61 0.28999999
5.8610001 -6.763 -1.608 0.34
5.8540001 -6.7129998 -1.6 0.25999999
5.8670001 -6.6849999 -1.598 0.36000001
5.8839998 -6.6620002 -1.596 0.34
5.9089999 -6.6479998 -1.598 0.27000001
5.9130001 -6.6110001 -1.5930001 0.27000001
5.8839998 -6.5580001 -1.581 0.34
5.895 -6.5289998 -1.579 0.38999999
5.9569998 -6.5549998 -1.59 0.34
5.9899998 -6.5510001 -1.594 0.28999999
6.04 -6.5640001 -1.603 0.31999999
6.066 -6.5510001 -1.604 0
7.4039998 -7.9369998 -1.977 0.059999999
7.414 -7.9219999 -1.976 0.039999999
7.4320002 -7.8920002 -1.974 0.14
7.4349999 -7.8460002 -1.9680001 0.050000001
7.4499998 -7.8130002 -1.966 0.17
7.4840002 -7.7989998 -1.9680001 0.18000001
7.4790001 -7.744 -1.96 0.17
7.4759998 -7.717 -1.956 0.17
7.4829998 -7.677 -1.951 0.17
7.4899998 -7.6350002 -1.946 0.039999999
7.494 -7.592 -1.941 0.14
7.5170002 -7.5669999 -1.941 0.050000001
7.506 -7.5089998 -1.931 0.15000001
7.5349998 -7.4910002 -1.933 0.050000001
7.5320001 -7.4650002 -1.929 0.14
7.5469999 -7.4330001 -1.926 0.050000001
7.552 -7.3920002 -1.9220001 0.15000001
7.573 -7.3649998 -1.921 0.050000001
7.566 -7.3130002 -1.913 0.15000001
7.5879998 -7.2870002 -1.9119999 0.18000001
7.5809999 -7.2579999 -1.9069999 0.090000004
7.5879998 -7.2189999 -1.903 0.15000001
7.5890002 -7.1750002 -1.898 0.050000001
7.5960002 -7.1370001 -1.893 0.16
7.6069999 -7.1020002 -1.89 0.050000001
7.6100001 -7.0609999 -1.885 0.15000001
7.632 -7.0370002 -1.885 0.050000001
7.6069999 -6.9920001 -1.876 0.15000001
7.632 -6.9699998 -1.877 0.050000001
7.6409998 -6.934 -1.873 0.15000001
7.6479998 -6.8969998 -1.869 0.050000001
7.631 -6.8390002 -1.86 0.15000001
7.6599998 -6.822 -1.8609999 0.050000001
7.6560001 -6.776 -1.855 0.15000001
7.6609998 -6.7579999 -1.853 0.050000001
7.6529999 -6.7090001 -1.846 0.15000001
7.6690001 -6.6810002 -1.845 0.050000001
7.6719999 -6.6409998 -1.84 0.16
7.678 -6.6040001 -1.836 0.050000001
7.671 -6.5560002 -1.829 0.16
7.6960001 -6.5359998 -1.83 0.050000001
7.6620002 -6.487 -1.819 0.15000001
7.6810002 -6.461 -1.819 0.050000001
7.6760001 -6.4159999 -1.812 0.16
7.6929998 -6.3889999 -1.812 0.050000001
7.6830001 -6.3400002 -1.804 0.16
7.704 -6.3169999 -1.804 0.11
7.6989999 -6.2930002 -1.801 0.18000001
7.717 -6.2670002 -1.8 0.2
7.7179999 -6.2280002 -1.796 0.090000004
7.7280002 -6.197 -1.793 0.15000001
7.7280002 -6.1560001 -1.788 0.050000001
7.7270002 -6.1160002 -1.784 0.16
7.7350001 -6.0840001 -1.781 0.050000001
7.7189999 -6.0510001 -1.774 0.16
7.7379999 -6.027 -1.774 0.19
7.7389998 -5.9889998 -1.77 0.1
7.743 -5.9530001 -1.766 0.16
7.7490001 -5.9190001 -1.763 0.050000001
7.763 -5.8909998 -1.762 0.18000001
7.7719998 -5.8600001 -1.76 0.2
7.7729998 -5.8410001 -1.758 0.090000004
7.777 -5.8060002 -1.755 0.15000001
7.7870002 -5.776 -1.753 0.050000001
7.7789998 -5.7319999 -1.7460001 0.16
7.8000002 -5.71 -1.747 0.050000001
7.7969999 -5.6700001 -1.742 0.16
7.8049998 -5.6389999 -1.74 0.19
7.8119998 -5.6259999 -1.739 0.1
7.809 -5.586 -1.734 0.15000001
7.822 -5.5580001 -1.733 0.050000001
7.8280001 -5.526 -1.7309999 0.18000001
7.8449998 -5.5009999 -1.7309999 0.11
7.8400002 -5.461 -1.725 0.16
7.8540001 -5.4520001 -1.726 0.050000001
7.8330002 -5.402 -1.7180001 0.17
7.8600001 -5.3839998 -1.72 0.2
7.8699999 -5.3540001 -1.719 0.1
7.8639998 -5.3140001 -1.7130001 0.15000001
7.8649998 -5.2789998 -1.709 0.050000001
7.8709998 -5.2470002 -1.707 0.16
7.8800001 -5.2350001 -1.707 0.2
7.8860002 -5.204 -1.705 0.1
7.881 -5.165 -1.7 0.18000001
7.8889999 -5.1350002 -1.698 0.11
7.8870001 -5.099 -1.694 0.18000001
7.915 -5.0809999 -1.696 0.22
7.888 -5.0469999 -1.688 0.16
7.9169998 -5.0300002 -1.692 0.25999999
7.9489999 -5.0159998 -1.6950001 0.20999999
7.9699998 -4.994 -1.696 0.12
7.9819999 -4.967 -1.696 0.18000001
8.0159998 -4.9530001 -1.7 0.20999999
8.0220003 -4.9219999 -1.698 0.1
8.0310001 -4.9099998 -1.698 0.16
8.0550003 -4.8899999 -1.7 0.050000001
8.0579996 -4.8569999 -1.697 0.16
8.0819998 -4.8369999 -1.699 0.11
8.1040001 -4.816 -1.701 0.18000001
8.1190004 -4.79 -1.701 0.11
8.1440001 -4.7709999 -1.7029999 0.18000001
8.1599998 -4.763 -1.705 0.11
8.1599998 -4.7280002 -1.701 0.18000001
8.1949997 -4.7140002 -1.706 0.12
8.2119999 -4.6890001 -1.706 0.18000001
8.2229996 -4.6620002 -1.706 0.11
8.2390003 -4.6370001 -1.706 0.17
8.2639999 -4.6170001 -1.7079999 0.050000001
8.2519999 -4.5929999 -1.704 0.17
8.2810001 -4.5749998 -1.707 0.11
8.3030005 -4.553 -1.709 0.16
8.3070002 -4.5219998 -1.707 0.050000001
8.323 -4.4970002 -1.707 0.17
8.3579998 -4.4809999 -1.712 0.1
8.3509998 -4.461 -1.709 0.15000001
8.3690004 -4.4359999 -1.709 0.20999999
8.3809996 -4.4089999 -1.709 0.16
8.3979998 -4.3850002 -1.71 0.059999999
8.408 -4.3569999 -1.709 0.18000001
8.4519997 -4.3449998 -1.715 0.11
8.4370003 -4.3039999 -1.709 0.18000001
8.4700003 -4.3049998 -1.715 0.11
8.4770002 -4.2740002 -1.714 0.18000001
8.4940004 -4.2490001 -1.714 0.11
8.5050001 -4.2220001 -1.714 0.18000001
8.5380001 -4.2049999 -1.7180001 0.11
8.5480003 -4.1760001 -1.717 0.16
8.5609999 -4.1490002 -1.717 0.050000001
8.5600004 -4.132 -1.716 0.17
8.5839996 -4.1100001 -1.7180001 0.11
8.6129999 -4.0910001 -1.722 0.18000001
8.632 -4.0669999 -1.723 0.22
8.6219997 -4.0289998 -1.7180001 0.16
8.6490002 -4.0089998 -1.721 0.050000001
8.6569996 -3.9960001 -1.722 0.18000001
8.6709995 -3.97 -1.722 0.1
